# .PCD v0.7 - Point Cloud Data file format
VERSION 0.7
FIELDS x y z rgba
SIZE 4 4 4 4
TYPE F F F U
COUNT 1 1 1 1
WIDTH 1148
HEIGHT 1
VIEWPOINT 0 0 0 1 0 0 0
POINTS 1148
DATA ascii
0.81555003 15.371391 -1.431509 4294967295
0.77006698 15.411272 -1.279246 4294967295
0.799784 15.440733 -1.2147239 4294967295
0.80498099 15.493081 -1.1218621 4294967295
0.80944097 15.535522 -1.04922 4294967295
0.88704801 15.549735 -1.050231 4294967295
0.81106299 15.561645 -0.54000199 4294967295
0.82529801 15.574017 -0.240658 4294967295
0.82687598 15.575761 -0.061912999 4294967295
0.81090599 15.503619 0.00025499999 4294967295
0.886365 15.503777 0.00028400001 4294967295
0.88704801 15.579762 -0.020923 4294967295
0.88476002 15.597404 -0.061423 4294967295
0.76069802 15.281461 0.001285 4294967295
0.73528701 14.753729 0.000137 4294967295
0.73494601 14.66608 0.000244 4294967295
0.88704801 14.666054 1.5e-05 4294967295
0.81090599 14.589911 -0.013125 4294967295
0.74065 14.595065 -0.061159 4294967295
0.73691398 14.594651 -0.24828599 4294967295
0.73467201 14.590062 -0.47843501 4294967295
0.81070399 14.547533 -0.61659801 4294967295
0.733639 14.549415 -1.196623 4294967295
0.73423803 14.510632 -1.597939 4294967295
0.81127 14.479089 -1.533778 4294967295
0.73470998 14.471798 -1.91476 4294967295
0.73441797 14.434685 -2.1772571 4294967295
0.806732 14.41904 -2.041081 4294967295
0.73689699 14.382182 -2.4970751 4294967295
0.81130099 14.361081 -2.3998101 4294967295
0.65862101 14.412976 -2.4969361 4294967295
0.65862101 14.437627 -2.5318811 4294967295
0.65844899 14.513271 -2.55913 4294967295
0.51055402 15.222972 -2.5503781 4294967295
0.049414001 15.289142 -2.1165509 4294967295
0.049421001 15.299521 -2.0402191 4294967295
0.63603801 15.386446 -1.356042 4294967295
0.57865 15.411317 -1.277174 4294967295
0.659154 15.445783 -1.203167 4294967295
0.65862101 15.482389 -1.126374 4294967295
0.73476398 15.491373 -1.126374 4294967295
0.71181101 15.503619 -1.050231 4294967295
0.73476398 15.503619 -1.079834 4294967295
0.652973 15.508968 -0.65313399 4294967295
0.69643497 15.507565 -0.91523403 4294967295
0.73558301 15.536053 -0.57714701 4294967295
0.658243 15.521313 -0.267546 4294967295
0.65855402 15.523438 -0.060371999 4294967295
0.73335803 15.543518 -0.248827 4294967295
0.73476398 15.54545 -0.060380999 4294967295
0.65862101 15.503619 -0.018646 4294967295
0.73476398 15.503619 -0.0057720002 4294967295
0.65862101 15.427477 0.001595 4294967295
0.73102099 15.42039 0.00059100002 4294967295
0.494535 15.258154 0.00065 4294967295
0.73407501 15.149795 1.7e-05 4294967295
0.65862101 14.742196 0.001496 4294967295
0.65862101 14.666054 -0.006885 4294967295
0.582479 14.666054 -0.02344 4294967295
0.582479 14.650844 -0.060380999 4294967295
0.58276999 14.649306 -0.234659 4294967295
0.65856701 14.627762 -0.059292 4294967295
0.58278298 14.640317 -0.565606 4294967295
0.65805602 14.621565 -0.43945801 4294967295
0.582708 14.626835 -0.84239 4294967295
0.58392298 14.608059 -1.1195 4294967295
0.58308601 14.581899 -1.423494 4294967295
0.65713698 14.573969 -1.263393 4294967295
0.58182502 14.533093 -1.861146 4294967295
0.65846997 14.536458 -1.6335289 4294967295
0.65737402 14.506016 -1.886903 4294967295
0.58272803 14.478079 -2.2458529 4294967295
0.65684801 14.468986 -2.154357 4294967295
0.58164901 14.436659 -2.4978559 4294967295
0.65810603 14.43723 -2.3545041 4294967295
0.50752503 14.453874 -2.4967711 4294967295
0.50633699 14.513769 -2.5585611 4294967295
0.46365899 14.588361 -2.57232 4294967295
0.47959399 15.371701 -1.431399 4294967295
0.50633699 15.427477 -1.2369601 4294967295
0.50633699 15.440251 -1.202516 4294967295
0.582479 15.446563 -1.202516 4294967295
0.50584102 15.453651 -1.02233 4294967295
0.582479 15.462943 -1.126374 4294967295
0.46708101 15.456959 -0.82773 4294967295
0.58190298 15.475053 -0.95315897 4294967295
0.50581902 15.479513 -0.486027 4294967295
0.58113599 15.488502 -0.686921 4294967295
0.50753802 15.48668 -0.167569 4294967295
0.50300199 15.485448 -0.060152002 4294967295
0.50633699 15.427477 -0.0013539999 4294967295
0.582479 15.427477 0.00080600003 4294967295
0.581819 15.504137 -0.060150001 4294967295
0.49535799 15.361526 0.00050099997 4294967295
0.42182699 14.741797 -0.00015199999 4294967295
0.50624901 14.742326 0.00044900001 4294967295
0.429472 14.679981 -0.060065001 4294967295
0.43127 14.673656 -0.419949 4294967295
0.43099999 14.66336 -0.69338298 4294967295
0.505211 14.656083 -0.618056 4294967295
0.43047601 14.640068 -1.082791 4294967295
0.50638199 14.636616 -0.967004 4294967295
0.430318 14.610366 -1.4245321 4294967295
0.430686 14.583234 -1.680843 4294967295
0.50640899 14.581169 -1.597212 4294967295
0.431126 14.534353 -2.0622101 4294967295
0.50648302 14.546085 -1.8922139 4294967295
0.42880601 14.48344 -2.3937509 4294967295
0.50691003 14.50244 -2.19993 4294967295
0.342325 14.487434 -2.397378 4294967295
0.329833 14.470291 -2.496978 4294967295
0.43019399 14.464274 -2.4969361 4294967295
0.343615 14.51365 -2.554929 4294967295
0.43019399 14.513769 -2.556921 4294967295
0.36950999 15.385686 -1.359704 4294967295
0.35188001 15.40878 -1.2709841 4294967295
0.43019399 15.412785 -1.278659 4294967295
0.35282901 15.433573 -0.90804702 4294967295
0.43164599 15.426281 -1.200549 4294967295
0.353903 15.447546 -0.63485199 4294967295
0.43010101 15.459707 -0.63242197 4294967295
0.35864201 15.458694 -0.28898799 4294967295
0.430347 15.469133 -0.33625901 4294967295
0.35405201 15.460311 -0.060380999 4294967295
0.43019399 15.473967 -0.060380999 4294967295
0.35405201 15.427477 -0.0090840003 4294967295
0.43019399 15.427477 -0.003061 4294967295
0.35405201 15.351335 0.00048399999 4294967295
0.29835701 15.143076 0.000124 4294967295
0.31830701 14.684515 -0.060315002 4294967295
0.280532 14.681515 -0.32659799 4294967295
0.35091999 14.681508 -0.28301299 4294967295
0.33716601 14.672406 -0.59538198 4294967295
0.28791499 14.658934 -0.87881601 4294967295
0.35304001 14.659159 -0.85461402 4294967295
0.33746499 14.638285 -1.166917 4294967295
0.329725 14.621386 -1.364028 4294967295
0.32938901 14.5978 -1.596019 4294967295
0.33389401 14.573986 -1.799974 4294967295
0.238986 14.562993 -1.8912981 4294967295
0.262018 14.528212 -2.1426361 4294967295
0.35564899 14.53362 -2.096024 4294967295
0.19039799 14.710902 -2.5939469 4294967295
0.13638601 15.011483 -2.646909 4294967295
0.049513999 15.219201 -2.5736279 4294967295
0.049461 15.243996 -2.420706 4294967295
0.141941 15.263165 -2.2967851 4294967295
0.217149 15.325454 -1.836013 4294967295
0.134841 15.343957 -1.6748379 4294967295
0.39743599 15.361113 -1.507856 4294967295
0.11678 15.371855 -1.417704 4294967295
0.27790901 15.386541 -1.3548011 4294967295
0.15981799 15.392841 -1.2167439 4294967295
0.25816301 15.394265 -1.299991 4294967295
0.191911 15.411555 -0.98477399 4294967295
0.203584 15.426004 -0.73570102 4294967295
0.200505 15.436036 -0.47337899 4294967295
0.276454 15.439823 -0.58547002 4294967295
0.201603 15.441761 -0.221926 4294967295
0.277693 15.448827 -0.25464001 4294967295
0.160414 15.439998 -0.059976 4294967295
0.27790901 15.450424 -0.060380999 4294967295
0.201767 15.427477 -0.022484999 4294967295
0.27790901 15.427477 -0.01538 4294967295
0.201767 15.351335 -0.00030000001 4294967295
0.27844501 15.352147 0.000151 4294967295
0.13986801 15.142225 0.001084 4294967295
0.22963201 14.867975 0.00033000001 4294967295
0.11055 14.742651 -0.000113 4294967295
0.050053 14.686395 -0.060093999 4294967295
0.125578 14.683954 -0.181831 4294967295
0.128897 14.67731 -0.48011699 4294967295
0.049337 14.666108 -0.74666297 4294967295
0.049426001 14.649652 -1.018599 4294967295
0.049463 14.638688 -1.164951 4294967295
0.049477998 14.625633 -1.318779 4294967295
0.128793 14.606348 -1.520494 4294967295
0.049359001 14.589982 -1.668444 4294967295
0.049206 14.557888 -1.9278589 4294967295
0.130795 14.546615 -2.0010221 4294967295
0.049339 14.514099 -2.2344561 4294967295
0.049582001 14.486604 -2.405977 4294967295
0.049663998 14.470709 -2.4969311 4294967295
0.049575001 14.513736 -2.5546451 4294967295
0.049518 14.590367 -2.572572 4294967295
0.049481999 14.666054 -2.586026 4294967295
0.049481999 14.818338 -2.6129379 4294967295
0.050739001 14.742437 -2.600446 4294967295
0.049716 14.893288 -2.6254849 4294967295
0.049481999 14.970623 -2.6371109 4294967295
0.049136002 15.035779 -2.6513031 4294967295
0.049481999 15.122908 -2.666523 4294967295
0.049511999 15.20585 -2.6492591 4294967295
0.049552001 15.231709 -2.4971261 4294967295
0.050034001 15.256601 -2.3225231 4294967295
0.048723001 15.275314 -2.2141111 4294967295
0.049281999 15.308603 -1.971006 4294967295
0.049435001 15.323841 -1.845093 4294967295
0.125625 15.320815 -1.887797 4294967295
0.049727999 15.335728 -1.720729 4294967295
0.049571998 15.367238 -1.4529999 4294967295
0.049348999 15.379148 -1.32416 4294967295
0.049355999 15.391603 -1.167354 4294967295
0.049391001 15.402168 -1.012117 4294967295
0.049474001 15.41005 -0.862647 4294967295
0.12665799 15.413704 -0.89912498 4294967295
0.049740002 15.421864 -0.63017201 4294967295
0.049405999 15.428101 -0.49851599 4294967295
0.121011 15.425337 -0.63889802 4294967295
0.049812999 15.436467 -0.062546 4294967295
0.126123 15.436151 -0.289386 4294967295
0.049481999 15.427477 -0.034194 4294967295
0.125625 15.427477 -0.029382 4294967295
0.049332999 15.352424 -0.002696 4294967295
0.124925 15.350197 -0.00075299997 4294967295
-0.000119 15.352269 -0.060387 4294967295
-0 14.742196 -0.89794701 4294967295
0 15.275192 -1.6593699 4294967295
2.8e-05 14.662417 -1.91967 4294967295
-0 15.19905 -2.344651 4294967295
0 14.970623 -2.5730779 4294967295
-0 15.046765 -2.5730779 4294967295
0.000163 15.124485 -2.49053 4294967295
-0.0017650001 15.122908 -2.5730779 4294967295
0.039845999 15.046765 -2.6492209 4294967295
0.019807 15.122908 -2.6492209 4294967295
0.016829001 15.19905 -2.5730779 4294967295
0.034235001 15.19905 -2.6492209 4294967295
0.0078429999 15.19905 -2.4969361 4294967295
0.001906 15.19905 -2.420794 4294967295
-0 15.19905 -2.2685089 4294967295
-0 15.19905 -2.1923671 4294967295
-0 15.19905 -2.1162241 4294967295
-0 15.19905 -2.040082 4294967295
0.000157 15.20393 -1.945632 4294967295
0 14.666054 -1.811655 4294967295
6.0000002e-06 14.741825 -1.0082459 4294967295
0.00096500001 15.350787 -0.32830301 4294967295
0.001753 15.351335 -0.441093 4294967295
-0.000136 15.351335 -0.51723498 4294967295
-0.0022730001 15.351698 -0.60936803 4294967295
4.8999998e-05 15.269333 -0.52752501 4294967295
-0.001502 15.351359 -0.783342 4294967295
-0.00068499998 15.351324 -0.93925601 4294967295
0.0012309999 15.351378 -1.088634 4294967295
8e-06 15.294846 -1.08064 4294967295
0.0071180002 15.350935 -1.257435 4294967295
-0.000208 15.264653 -1.274294 4294967295
0.012246 15.351335 -1.3548011 4294967295
-0.0021919999 15.27631 -1.396168 4294967295
0.018308001 15.351335 -1.430943 4294967295
-0.001453 15.275192 -1.507086 4294967295
0.028946999 15.351335 -1.507086 4294967295
-0.00039 15.274331 -1.583509 4294967295
0.039568 15.427371 -0.38021499 4294967295
0.033434998 15.427522 -0.211143 4294967295
0.031481002 15.427477 -0.060380999 4294967295
-9.9999997e-06 15.275115 -1.785231 4294967295
0.0022179999 15.275192 -1.887797 4294967295
0.0067799999 15.275192 -1.96394 4294967295
0.013275 15.275192 -2.040082 4294967295
0.023393 15.275192 -2.1162241 4294967295
-0 14.894481 -2.5730779 4294967295
0.0041040001 14.818338 -2.5730779 4294967295
0.00027799999 14.834228 -2.502296 4294967295
0 14.742196 -2.4969361 4294967295
-0 14.666054 -1.6593699 4294967295
2.1e-05 14.741056 -1.1614341 4294967295
3.0000001e-06 14.74134 -0.74577898 4294967295
7.0000001e-06 14.741942 -0.54264498 4294967295
3.7000002e-05 14.743038 -0.18080901 4294967295
-0.00033899999 14.742397 -0.060153998 4294967295
0.049423002 14.742281 -0.002388 4294967295
0.049261 14.687207 -0.14101 4294967295
0.049474999 14.682247 -0.40629101 4294967295
0.049534 14.67508 -0.60412103 4294967295
0.039308999 14.666054 -0.82180399 4294967295
-0 14.742196 -0.82180399 4294967295
0.030911 14.666054 -0.89794701 4294967295
0.023972001 14.666054 -0.97408903 4294967295
0.015606 14.66616 -1.086427 4294967295
0.0071069999 14.666096 -1.23928 4294967295
0.000124 14.735389 -1.3119709 4294967295
0.00087500003 14.665906 -1.393286 4294967295
5.1999999e-05 14.665604 -1.557621 4294967295
-0 14.666054 -1.735512 4294967295
0 14.589911 -2.2685089 4294967295
-4.9999999e-06 14.666078 -2.4968851 4294967295
0.024848999 14.666054 -2.5730779 4294967295
0.011811 14.742196 -2.5730779 4294967295
-0.00023600001 14.589911 -2.4969361 4294967295
2.2e-05 14.589911 -2.420794 4294967295
0.0026710001 14.513769 -2.4969361 4294967295
0.0095459996 14.513769 -2.420794 4294967295
0.019839 14.513769 -2.344651 4294967295
2e-06 14.5899 -2.344655 4294967295
0.037276 14.513769 -2.2685089 4294967295
0.049481999 14.522588 -2.1923671 4294967295
-0 14.589911 -2.1923671 4294967295
0.049761001 14.535973 -2.096513 4294967295
-0 14.589911 -2.1162241 4294967295
0.000925 14.589911 -2.040082 4294967295
0.0051930002 14.589911 -1.96394 4294967295
0.011461 14.589911 -1.887797 4294967295
0.019839 14.589911 -1.811655 4294967295
0.032235999 14.589911 -1.735512 4294967295
0.049481999 14.602055 -1.583228 4294967295
0.049784001 14.611011 -1.488001 4294967295
0.282722 15.422938 -0.93837702 4294967295
0.50768799 14.610626 -1.3016731 4294967295
0.50711602 14.666083 -0.25603899 4294967295
0.51128799 14.667264 -0.060869999 4294967295
0.58330703 15.498918 -0.41396901 4294967295
0.65890002 14.602441 -0.86697698 4294967295
0.73335201 14.575882 -0.81712699 4294967295
0.73557901 15.510561 -1.05091 4294967295
0.81186801 14.440548 -1.859378 4294967295
0.80900103 14.508135 -1.247342 4294967295
0.81626701 14.52381 -0.98627198 4294967295
0.81060898 14.558719 -0.223336 4294967295
0.81090599 14.559937 -0.060380999 4294967295
0.887362 15.592506 -0.42316899 4294967295
0.89078701 15.582584 -0.73576498 4294967295
0.897879 15.572142 -0.97536403 4294967295
0.96290398 14.285571 -2.2259209 4294967295
0.99996603 14.285621 -1.997607 4294967295
0.95490199 14.35448 -1.776044 4294967295
1.014262 14.362148 -1.196236 4294967295
0.962219 14.404722 -1.230891 4294967295
0.958332 14.430288 -0.94774401 4294967295
0.96357101 14.438318 -0.74101597 4294967295
0.97072202 14.443643 -0.46544001 4294967295
0.969648 14.450526 -0.200919 4294967295
0.968647 14.451865 -0.060559001 4294967295
1.045599 15.655802 -0.54089099 4294967295
1.041875 15.637854 -0.89336997 4294967295
1.190136 15.735443 -0.21093901 4294967295
1.195195 15.730962 -0.52661002 4294967295
1.2241369 15.734111 -0.82018 4294967295
1.19136 13.980165 -2.421531 4294967295
1.201241 13.981964 -2.3112531 4294967295
1.183567 14.054449 -2.0386779 4294967295
1.201071 14.066041 -1.732136 4294967295
1.188513 14.132011 -1.314321 4294967295
1.175019 14.132326 -1.535587 4294967295
1.178394 14.204886 -0.39359501 4294967295
1.31147 13.753384 -1.770049 4294967295
1.292899 13.828989 -1.795277 4294967295
1.3182451 13.74891 -1.40256 4294967295
1.300468 13.826271 -1.574528 4294967295
1.323774 13.750861 -0.94157302 4294967295
1.3097661 13.827466 -1.177351 4294967295
1.325238 13.755261 -0.060187001 4294967295
1.315269 13.827675 -0.60841298 4294967295
1.3168859 13.829142 -0.060293999 4294967295
1.343902 13.752345 -0.019076999 4294967295
1.343902 13.828487 -0.012504 4294967295
1.343902 13.904631 -0.0060370001 4294967295
1.303225 13.905736 -0.060144 4294967295
1.299377 13.904861 -0.66593599 4294967295
1.338922 15.821986 -0.27188399 4294967295
1.338963 15.814392 -0.56814098 4294967295
1.34392 15.80608 -0.82143301 4294967295
1.343902 12.990922 -0.046119999 4294967295
1.340453 12.989789 -0.060167 4294967295
1.339975 12.989466 -0.280788 4294967295
1.336814 12.990478 -0.69256502 4294967295
1.344716 12.968723 -0.59769398 4294967295
1.3442349 12.954581 -0.83242798 4294967295
1.333178 12.991788 -0.94551003 4294967295
1.329199 12.990776 -1.223713 4294967295
1.328527 12.98789 -1.49278 4294967295
1.337988 12.911504 -1.524785 4294967295
1.333396 12.915549 -1.681547 4294967295
1.329181 12.914798 -1.8588459 4294967295
1.328429 12.91364 -2.007566 4294967295
1.328409 12.909302 -2.1880009 4294967295
1.33435 12.91478 -2.2685089 4294967295
1.328491 12.990922 -2.2685089 4294967295
1.343902 12.91478 -2.2772269 4294967295
1.343902 12.865319 -2.2685089 4294967295
1.343902 12.838637 -2.2446821 4294967295
1.333509 12.838637 -2.1923671 4294967295
1.350294 12.763654 -2.1929779 4294967295
1.337266 12.830322 -2.121382 4294967295
1.339262 12.834792 -2.0395651 4294967295
1.341213 12.837047 -1.962194 4294967295
1.343869 12.83879 -1.8567899 4294967295
1.382766 12.762495 -1.887797 4294967295
1.393159 12.761477 -1.793036 4294967295
1.353421 12.838637 -1.6593699 4294967295
1.34772 12.838439 -1.741111 4294967295
1.363044 12.838814 -1.541674 4294967295
1.344028 12.88073 -1.621132 4294967295
1.373989 12.838691 -1.394377 4294967295
1.340897 12.913202 -1.390408 4294967295
1.3845609 12.839332 -1.235395 4294967295
1.34389 12.914937 -1.220688 4294967295
1.394928 12.838927 -1.089184 4294967295
1.346503 12.914838 -1.0868419 4294967295
1.4074481 12.838608 -0.93472397 4294967295
1.349032 12.914663 -0.98499203 4294967295
1.357057 12.914282 -0.81107497 4294967295
1.371315 12.762776 -1.99991 4294967295
1.35815 12.762495 -2.1162241 4294967295
1.3665659 12.914594 -0.53737998 4294967295
1.37201 12.914894 -0.270417 4294967295
1.373502 12.91478 -0.060380999 4294967295
1.495818 12.73949 -1.405316 4294967295
1.4970241 12.770583 -1.087531 4294967295
1.495891 12.809642 -0.42768699 4294967295
1.496456 12.816201 -0.060052998 4294967295
1.562281 15.976962 -0.47704801 4294967295
1.496532 15.9251 -0.50683802 4294967295
1.49415 15.899292 -0.82183599 4294967295
1.719923 16.119289 -0.24964599 4294967295
1.6497689 16.038876 -0.74772602 4294967295
1.796181 16.19418 -0.29627299 4294967295
1.806452 16.187246 -0.74550003 4294967295
2.1752269 16.633232 -0.060552001 4294967295
2.17928 16.633247 -0.395946 4294967295
2.1244061 16.559557 -0.669177 4294967295
2.3337531 12.686353 -2.214849 4294967295
2.3337531 12.670683 -2.1923671 4294967295
2.350647 12.686353 -2.1923671 4294967295
2.3325861 12.685754 -2.0969479 4294967295
2.3338881 12.705241 -1.996737 4294967295
2.333338 12.725787 -1.849512 4294967295
2.258718 12.685307 -1.825289 4294967295
2.333113 12.762071 -1.570931 4294967295
2.3338389 12.77695 -1.466693 4294967295
2.333075 12.795751 -1.282042 4294967295
2.2588041 12.76172 -1.179234 4294967295
2.3433499 12.838873 -0.857939 4294967295
2.333956 12.824478 -0.94761401 4294967295
2.3323779 12.840306 -0.67859 4294967295
2.334044 12.855433 -0.39179701 4294967295
2.3183961 12.838472 -0.525805 4294967295
2.3340631 12.861273 -0.05988 4294967295
2.305444 12.838749 -0.27087799 4294967295
2.3014569 12.838637 -0.060380999 4294967295
2.427443 13.143207 -2.2685089 4294967295
2.4610729 13.219349 -2.1923671 4294967295
2.4267499 13.143207 -2.1923671 4294967295
2.4451201 13.219349 -2.1162241 4294967295
2.4272189 13.143207 -2.1162241 4294967295
2.437001 13.219349 -2.040082 4294967295
2.4319761 13.219349 -1.96394 4294967295
2.4287729 13.219349 -1.887797 4294967295
2.4276249 13.14496 -2.013684 4294967295
2.4276021 13.219349 -1.811655 4294967295
2.4269781 13.219016 -1.735629 4294967295
2.426811 13.219349 -1.6593699 4294967295
2.42608 13.219289 -1.5529979 4294967295
2.42834 13.228282 -1.389571 4294967295
2.427424 13.145255 -1.3620811 4294967295
2.427546 13.295679 -1.051194 4294967295
2.4277091 13.217188 -0.78832603 4294967295
2.427505 13.214618 -0.356365 4294967295
2.4269259 13.298017 -0.060557999 4294967295
2.4333711 13.371634 -0.060380999 4294967295
2.4259641 13.297018 -0.234044 4294967295
2.4344649 13.371647 -0.156123 4294967295
2.4264359 13.294919 -0.611687 4294967295
2.4383509 13.371435 -0.43850201 4294967295
2.444283 13.371568 -0.63732302 4294967295
2.426724 13.295292 -0.79775798 4294967295
2.449945 13.371634 -0.74566197 4294967295
2.4558871 13.371634 -0.82180399 4294967295
2.4269819 13.295491 -0.89794701 4294967295
2.4648111 13.371634 -0.89794701 4294967295
2.4271641 13.295491 -0.97408903 4294967295
2.427774 13.295366 -1.176756 4294967295
2.428051 13.067858 -0.060662001 4294967295
2.416966 12.991027 -0.38222799 4294967295
2.4136541 12.984354 -0.058653001 4294967295
2.427927 13.066951 -0.417743 4294967295
2.4204559 12.989809 -0.78462797 4294967295
2.427712 13.064371 -0.772641 4294967295
2.425225 12.991886 -1.079116 4294967295
2.4277329 13.059486 -1.080416 4294967295
2.4281211 12.99045 -1.364926 4294967295
2.4279561 12.989962 -1.5510271 4294967295
2.428185 12.996129 -1.7197551 4294967295
2.4278481 12.914667 -1.889836 4294967295
2.4279211 12.99239 -2.18608 4294967295
2.4280441 12.990922 -2.2685089 4294967295
2.4257281 13.060528 -2.269037 4294967295
2.4197271 12.91478 -2.2685089 4294967295
2.427907 12.91478 -2.1923671 4294967295
2.4278419 12.913084 -2.0845599 4294967295
2.422864 12.838637 -2.1923671 4294967295
2.4184539 12.827781 -2.119385 4294967295
2.4164629 12.832934 -2.038399 4294967295
2.413563 12.836641 -1.923166 4294967295
2.4228711 12.915477 -1.684487 4294967295
2.4192319 12.913662 -1.558728 4294967295
2.414923 12.911691 -1.3940459 4294967295
2.412221 12.913627 -1.243096 4294967295
2.4312241 13.295327 -1.327831 4294967295
2.435354 13.295491 -1.430943 4294967295
2.439837 13.295491 -1.507086 4294967295
2.446857 13.295491 -1.583228 4294967295
2.458807 13.295491 -1.6593699 4294967295
2.4093039 16.876343 -0.34167099 4294967295
2.412889 16.872763 -0.59333903 4294967295
2.5641961 17.016008 -0.33045501 4294967295
2.558671 17.004169 -0.59311199 4294967295
2.790607 13.355502 -1.6593699 4294967295
2.79072 13.371779 -1.52556 4294967295
2.7164071 13.447387 -0.056527998 4294967295
2.7869761 17.191818 -0.221457 4294967295
2.7829759 17.182838 -0.51191503 4294967295
2.6784339 17.104521 -0.51374102 4294967295
2.75297 15.275192 -2.1162241 4294967295
2.714453 15.275505 -2.2124729 4294967295
2.774368 15.19834 -2.111362 4294967295
2.753664 15.19891 -2.192827 4294967295
2.7309661 15.199814 -2.3059411 4294967295
2.714534 15.199198 -2.4230869 4294967295
2.720906 15.046765 -2.344651 4294967295
2.7333169 15.046765 -2.2685089 4294967295
2.7275331 14.970526 -2.3388021 4294967295
2.7566431 15.046917 -2.1555159 4294967295
2.7144639 14.073251 -2.344651 4294967295
2.7144639 14.064182 -2.2685089 4294967295
2.759846 14.133058 -2.1162241 4294967295
2.757195 14.133058 -2.040082 4294967295
2.767493 14.132746 -1.965168 4294967295
2.8994949 15.503619 -1.050231 4294967295
2.9193709 15.275163 -1.736508 4294967295
2.872865 15.122855 -1.811631 4294967295
2.9054289 15.122908 -1.735512 4294967295
2.8666871 15.046727 -1.814213 4294967295
2.866749 14.214644 -1.735512 4294967295
2.9071651 14.209032 -1.583596 4294967295
3.2078531 15.199958 -1.2778879 4294967295
3.3235409 14.970655 -1.97347 4294967295
3.367415 14.591587 -1.812636 4294967295
3.347208 14.777638 -1.886929 4294967295
3.3258979 14.531054 -1.890667 4294967295
3.3024139 14.628706 -1.964607 4294967295
3.341948 14.285224 -1.81148 4294967295
3.379936 14.285342 -1.735512 4294967295
3.3329041 14.2092 -1.811655 4294967295
3.3304441 13.77068 -0.89747 4294967295
3.2177529 13.487287 -0.927737 4294967295
3.218646 13.489509 -0.85522801 4294967295
3.2446899 13.519753 -0.058580998 4294967295
3.2474611 13.523918 -0.044124998 4294967295
3.2474611 13.60006 0.00012500001 4294967295
3.1715479 17.331926 0.00055200001 4294967295
3.2474229 16.18889 -0.77101499 4294967295
3.2474611 16.112759 -0.78478497 4294967295
3.2477419 16.037174 -0.78776002 4294967295
3.17134 15.579673 -0.77043003 4294967295
3.3235559 15.199047 -1.150516 4294967295
3.5434229 14.364994 -1.4956 4294967295
3.544934 14.285187 -1.472945 4294967295
3.5118351 14.260838 -1.4705451 4294967295
3.4716811 14.022885 -0.81188601 4294967295
3.4760771 13.599805 -0.73355198 4294967295
3.475888 13.529604 -0.66952002 4294967295
3.436588 13.523978 -0.66957098 4294967295
3.421473 13.523918 -0.74566197 4294967295
3.500051 13.539704 -0.44697699 4294967295
3.5129299 13.599984 -0.001958 4294967295
3.400727 13.599848 -0.000237 4294967295
3.3044281 13.910123 4.0999999e-05 4294967295
3.4921269 15.532432 0.0040589999 4294967295
3.4498019 15.661405 0.001036 4294967295
3.549485 15.851562 0.000201 4294967295
3.326256 15.784061 4.9999999e-06 4294967295
3.171319 16.950323 0 4294967295
3.501441 17.31245 -0.00031500001 4294967295
3.475888 17.48332 0.001055 4294967295
3.475888 17.559464 -0.020697 4294967295
3.435014 17.56086 -0.060527001 4294967295
3.4700451 17.573839 -0.24296001 4294967295
3.4669039 17.567257 -0.51844501 4294967295
3.4359641 17.55574 -0.43094099 4294967295
3.475888 17.559464 -0.52776802 4294967295
3.4002249 17.4849 -0.54279202 4294967295
3.475888 16.645754 -0.69044101 4294967295
3.475888 16.569613 -0.70387 4294967295
3.475888 16.493469 -0.70546103 4294967295
3.476826 16.418556 -0.69173902 4294967295
3.404942 16.184877 -0.69773 4294967295
3.549016 15.277261 -0.96613503 4294967295
3.5521381 15.199068 -0.95633298 4294967295
3.7043149 15.119026 -1.3548011 4294967295
3.7043149 15.064906 -1.430943 4294967295
3.780457 15.10563 -1.3548011 4294967295
3.7043431 15.122901 -1.335157 4294967295
3.780457 15.122903 -1.335009 4294967295
3.7043149 15.201048 -0.89794701 4294967295
3.7809949 15.199996 -0.898018 4294967295
3.7043149 15.275192 -0.85691297 4294967295
3.780443 15.275191 -0.81174701 4294967295
3.780457 15.246203 -0.82180399 4294967295
3.856528 15.42659 -0.79682302 4294967295
3.8566 15.275192 -0.76984602 4294967295
3.784261 15.502839 -0.84960598 4294967295
3.834224 15.503619 -0.82180399 4294967295
3.8566 15.503619 -0.80589598 4294967295
3.780457 15.528527 -0.82180399 4294967295
3.704977 15.528041 -0.82324499 4294967295
3.8566 15.542307 -0.74566197 4294967295
3.704622 15.581929 -0.51740903 4294967295
3.780457 15.598803 -0.441093 4294967295
3.8566 15.594972 -0.441093 4294967295
3.85671 15.65593 -0.359745 4294967295
3.8566 15.644874 -0.36495 4294967295
3.9329951 15.656238 -0.32949099 4294967295
3.856904 15.733945 -0.373285 4294967295
4.007751 15.759886 -0.32029 4294967295
3.943871 16.329729 -0.44380301 4294967295
4.0094209 16.438013 -0.43926999 4294967295
4.0866141 16.432587 -0.41332299 4294967295
4.0081892 16.873199 -0.51651698 4294967295
4.0086989 17.178972 -0.570319 4294967295
4.008884 17.254892 -0.58267099 4294967295
4.0844798 17.256626 -0.55935699 4294967295
4.0847168 17.330669 -0.56969303 4294967295
4.008884 17.711748 -0.49461901 4294967295
4.0850272 17.711748 -0.50071698 4294967295
4.0091252 17.747265 -0.440909 4294967295
4.0850272 17.764879 -0.441093 4294967295
3.975117 17.742487 -0.286771 4294967295
4.082911 17.7672 -0.34414601 4294967295
4.0694509 17.767258 -0.144253 4294967295
3.9851351 17.747473 -0.059946001 4294967295
4.0850272 17.76997 -0.060380999 4294967295
4.008884 17.711748 -0.0058960002 4294967295
4.0850272 17.711748 -0.00069199997 4294967295
4.0187402 17.637669 -4.0999999e-05 4294967295
4.0653391 17.487246 -0.00017699999 4294967295
4.0215759 17.11182 0.0010620001 4294967295
4.008749 16.592237 0.001375 4294967295
3.9953909 16.318657 -0.000306 4294967295
4.0543952 15.77391 2e-06 4294967295
4.0412059 14.171598 0.002512 4294967295
3.9357769 14.050177 -0.00030499999 4294967295
4.008884 13.676203 0 4294967295
4.0850272 13.676203 0 4294967295
4.008884 13.60006 -0.02592 4294967295
4.0850272 13.60006 -0.033473998 4294967295
4.0422559 13.589078 -0.060242001 4294967295
4.0088568 13.582417 -0.36524901 4294967295
4.0850272 13.588601 -0.36495 4294967295
4.008884 13.60006 -0.39300901 4294967295
4.0850272 13.60006 -0.37689701 4294967295
3.960083 13.675258 -0.44220001 4294967295
4.0173969 13.880264 -0.453071 4294967295
4.086607 13.677313 -0.39000499 4294967295
4.087121 14.161345 -0.47511199 4294967295
4.1605258 14.19845 -0.45541501 4294967295
4.08494 14.361495 -0.51120198 4294967295
4.161695 14.360352 -0.48284 4294967295
4.0850272 14.392463 -0.51723498 4294967295
4.1611691 14.422015 -0.51723498 4294967295
4.0844779 14.416192 -0.59316403 4294967295
4.1602969 14.361638 -0.90115798 4294967295
4.0850029 14.348707 -0.97402698 4294967295
4.1611691 14.347576 -0.97408903 4294967295
4.0850272 14.361485 -1.033465 4294967295
4.1611691 14.361485 -0.99493599 4294967295
4.076365 14.361653 -1.050319 4294967295
4.1603112 14.436526 -1.023098 4294967295
4.1018252 14.432999 -1.050405 4294967295
4.2371688 15.121787 -1.111493 4294967295
4.31317 15.12403 -1.084428 4294967295
4.2373109 15.173686 -1.050231 4294967295
4.3134542 15.166193 -1.050231 4294967295
4.1612172 15.173187 -1.050105 4294967295
4.3134542 15.186933 -0.97408903 4294967295
4.2151871 15.208578 -0.84774202 4294967295
4.2372708 15.240346 -0.66942102 4294967295
4.3134542 15.240295 -0.66952002 4294967295
4.2373109 15.275192 -0.623124 4294967295
4.169663 15.397711 -0.659693 4294967295
4.2938962 15.370387 -0.61688 4294967295
4.2337818 15.503604 -0.65689099 4294967295
4.3134542 15.503619 -0.63713503 4294967295
4.2373109 15.566988 -0.59337699 4294967295
4.3134542 15.564024 -0.59337699 4294967295
4.2212238 15.579139 -0.532543 4294967295
4.2712579 15.606626 -0.376672 4294967295
4.2369671 15.62105 -0.288959 4294967295
4.3134542 15.619624 -0.28880799 4294967295
4.2373109 15.655904 -0.241596 4294967295
4.3134542 15.655904 -0.221992 4294967295
4.2241092 15.761348 -0.259074 4294967295
4.3126402 15.744555 -0.233548 4294967295
4.2415729 15.988742 -0.29266301 4294967295
4.3140979 16.067898 -0.29042599 4294967295
4.3891768 16.089888 -0.28006801 4294967295
4.3159308 16.325434 -0.33577001 4294967295
4.3910689 16.482355 -0.34887499 4294967295
4.5480828 16.49464 -0.32868001 4294967295
4.5831571 16.298859 -0.28975201 4294967295
4.46732 16.123549 -0.27363101 4294967295
4.563942 16.041195 -0.25069201 4294967295
4.3986878 15.901339 -0.245939 4294967295
4.5250311 15.947328 -0.23436999 4294967295
4.5404568 15.733724 -0.195388 4294967295
4.4597039 15.656412 -0.192536 4294967295
4.5418811 15.655904 -0.189375 4294967295
4.6019702 15.634993 -0.21282899 4294967295
4.4657378 15.635552 -0.212666 4294967295
4.5777121 15.607012 -0.375081 4294967295
4.4657698 15.579765 -0.52947098 4294967295
4.5343161 15.503065 -0.59289402 4294967295
4.4657378 15.540163 -0.59337699 4294967295
4.401711 15.50371 -0.61609799 4294967295
4.4646778 15.351066 -0.57725602 4294967295
4.389596 15.275192 -0.578385 4294967295
4.4657378 15.275192 -0.567343 4294967295
4.4664941 15.253338 -0.59212399 4294967295
4.389596 15.259159 -0.59337699 4294967295
4.388916 15.240348 -0.669563 4294967295
4.4657378 15.186762 -0.97408903 4294967295
4.3896732 15.18663 -0.97369301 4294967295
4.389596 15.144186 -1.050231 4294967295
4.465477 15.122779 -1.0412149 4294967295
4.389596 15.122908 -1.060758 4294967295
4.3896632 15.019844 -1.042508 4294967295
4.4657121 14.970571 -1.0142961 4294967295
4.4648852 14.596392 -0.94848299 4294967295
4.3893738 14.60216 -0.96879297 4294967295
4.283186 14.437508 -0.97324902 4294967295
4.388854 14.438211 -0.941396 4294967295
4.3134542 14.437627 -0.96368498 4294967295
4.389596 14.362838 -0.89794701 4294967295
4.3133621 14.36228 -0.89786398 4294967295
4.5321941 14.442957 -0.44112399 4294967295
4.3134542 14.429696 -0.51723498 4294967295
4.3652921 14.437627 -0.441093 4294967295
4.389596 14.437627 -0.435642 4294967295
4.3905649 14.44259 -0.44108701 4294967295
4.4657378 14.437627 -0.43437299 4294967295
4.4657378 14.364048 -0.89794701 4294967295
4.463356 14.448429 -0.92389601 4294967295
4.54213 14.39941 -0.89798898 4294967295
4.5443401 15.123407 -1.025257 4294967295
4.61731 14.438039 -0.89307499 4294967295
4.618556 15.123144 -1.01389 4294967295
4.5418811 15.184357 -0.97408903 4294967295
4.6180229 15.181022 -0.97408903 4294967295
4.509275 15.199265 -0.90272897 4294967295
4.537045 15.235992 -0.68598902 4294967295
4.5835872 15.253311 -0.594172 4294967295
4.5418811 15.275192 -0.56367898 4294967295
4.5424562 15.35125 -0.564753 4294967295
4.6171441 15.503663 -0.58290797 4294967295
4.6941652 15.503619 -0.57722002 4294967295
4.637362 15.579667 -0.52966899 4294967295
4.6599212 15.656027 -0.18422601 4294967295
4.6190662 15.956039 -0.226383 4294967295
4.6251512 15.731685 -0.186326 4294967295
4.6207452 16.113853 -0.255638 4294967295
4.6957402 16.034973 -0.23536099 4294967295
4.6150188 16.60623 -0.34152201 4294967295
4.6939139 16.564644 -0.328924 4294967295
4.6953058 16.751442 -0.36192 4294967295
4.6188002 17.203512 -0.44640201 4294967295
4.6957178 17.174955 -0.43638101 4294967295
4.6179552 17.558706 -0.509161 4294967295
4.701859 17.631685 -0.51616299 4294967295
4.6183372 17.63534 -0.51590401 4294967295
4.5516968 17.787556 -0.48881 4294967295
4.6475759 17.838337 -0.44111499 4294967295
4.6601229 17.842289 -0.36041999 4294967295
4.6565208 17.845205 -0.17076699 4294967295
4.6345029 17.844116 -0.060013998 4294967295
4.5619998 17.787815 -0.001457 4294967295
4.561183 17.644455 0.000226 4294967295
4.6211309 17.426731 0.000136 4294967295
4.6126261 17.216438 9.9999997e-05 4294967295
4.613337 16.816662 0.00013299999 4294967295
4.6200418 16.427391 4.9999999e-05 4294967295
4.6927361 16.923132 1.2e-05 4294967295
4.6184249 15.733053 -3.5000001e-05 4294967295
4.7051921 15.744684 -0.00016 4294967295
4.6180229 15.655904 -0.0071129999 4294967295
4.6941652 15.655904 0.0011699999 4294967295
4.6270761 15.581877 0.00012899999 4294967295
4.6464748 15.351318 0.001021 4294967295
4.6497922 15.120484 0.001233 4294967295
4.650754 14.818289 0.001186 4294967295
4.6006498 14.287728 7.0000002e-05 4294967295
4.5674391 13.834895 0.000202 4294967295
4.4555612 13.676138 -2.4000001e-05 4294967295
4.6495371 13.611047 -0.21280199 4294967295
4.6666799 13.675659 -0.26172099 4294967295
4.617219 13.77587 -0.28225499 4294967295
4.6934428 13.780719 -0.27697501 4294967295
4.622067 13.996955 -0.32068399 4294967295
4.6943288 14.053229 -0.32500899 4294967295
4.6198382 14.25766 -0.366882 4294967295
4.6388092 14.362093 -0.38276801 4294967295
4.6320329 14.437566 -0.430361 4294967295
4.6209369 14.429157 -0.52379698 4294967295
4.5415139 14.375253 -0.82283801 4294967295
4.6180229 14.375125 -0.82180399 4294967295
4.6941652 14.375662 -0.82180399 4294967295
4.6923261 14.437606 -0.88470501 4294967295
4.770637 14.584402 -0.90626401 4294967295
4.770308 14.513769 -0.89322501 4294967295
4.795208 14.589911 -0.89794701 4294967295
4.8273129 14.589911 -0.82180399 4294967295
4.8289471 14.510642 -0.821917 4294967295
4.8278999 14.513768 -0.66952002 4294967295
4.8279042 14.514029 -0.59236503 4294967295
4.8279181 14.513769 -0.51723498 4294967295
4.8286591 14.513769 -0.441093 4294967295
4.8287668 14.513769 -0.36495 4294967295
4.827929 14.514829 -0.28863001 4294967295
4.8278861 14.663954 -0.82121801 4294967295
4.8280172 14.742196 -0.82180399 4294967295
4.8117819 14.666054 -0.89794701 4294967295
4.820354 14.742196 -0.89794701 4294967295
4.770308 14.666054 -0.92047697 4294967295
4.770308 14.742196 -0.93399501 4294967295
4.770308 14.818338 -0.94781798 4294967295
4.825851 14.818338 -0.89794701 4294967295
4.770308 14.894481 -0.960033 4294967295
4.8282089 14.818338 -0.82180399 4294967295
4.7699862 14.609777 -0.000275 4294967295
4.8278232 15.126422 -0.71830201 4294967295
4.8279991 14.891997 -0.89764899 4294967295
4.8290501 14.970623 -0.89794701 4294967295
4.8298559 15.046765 -0.89794701 4294967295
4.7707891 14.970419 -0.97412199 4294967295
4.8024311 15.046765 -0.97408903 4294967295
4.770308 15.046765 -0.987786 4294967295
4.770308 15.122908 -1.0011851 4294967295
4.8153009 15.122908 -0.97408903 4294967295
4.770308 15.175076 -0.97408903 4294967295
4.77074 15.199129 -0.90269399 4294967295
4.8298011 15.122908 -0.89794701 4294967295
4.803266 15.19905 -0.82180399 4294967295
4.8278999 15.122908 -0.82180399 4294967295
4.8156991 15.19905 -0.74566197 4294967295
4.822576 15.19905 -0.66952002 4294967295
4.827004 15.19905 -0.59337699 4294967295
4.8281331 15.199725 -0.51762998 4294967295
4.8278971 15.304177 -0.35321501 4294967295
4.828814 15.275192 -0.441093 4294967295
4.8291321 15.351335 -0.441093 4294967295
4.8051128 15.275192 -0.51723498 4294967295
4.8177819 15.351335 -0.51723498 4294967295
4.770308 15.275192 -0.54957402 4294967295
4.770308 15.351335 -0.547508 4294967295
4.770308 15.427477 -0.56032902 4294967295
4.823525 15.427477 -0.51723498 4294967295
4.770308 15.503619 -0.57337803 4294967295
4.8273931 15.503619 -0.51723498 4294967295
4.8279071 15.503619 -0.441093 4294967295
4.828392 15.427477 -0.441093 4294967295
4.8275762 15.511137 -0.331698 4294967295
4.7702661 15.316581 -0.00055599998 4294967295
4.8279042 15.557593 -0.060382999 4294967295
4.8274002 15.655904 -0.060380999 4294967295
4.828826 15.579762 -0.13652299 4294967295
4.8172011 15.655904 -0.13652299 4294967295
4.770308 15.655904 -0.18206 4294967295
4.8273711 15.579762 -0.212666 4294967295
4.7698088 15.636712 -0.21114101 4294967295
4.770308 15.622293 -0.28880799 4294967295
4.8231359 15.579762 -0.28880799 4294967295
4.770308 15.608764 -0.36495 4294967295
4.8164692 15.579762 -0.36495 4294967295
4.770308 15.595346 -0.441093 4294967295
4.804781 15.579762 -0.441093 4294967295
4.7709851 15.580126 -0.52819997 4294967295
4.770308 15.732046 -0.179213 4294967295
4.8232598 15.732046 -0.13652299 4294967295
4.770308 15.808188 -0.192623 4294967295
4.8273172 15.808188 -0.13652299 4294967295
4.8277168 15.818009 -0.060206 4294967295
4.8278999 15.732046 -0.060380999 4294967295
4.829237 15.884331 -0.13652299 4294967295
4.8264532 15.960473 -0.13652299 4294967295
4.770308 15.884331 -0.20559099 4294967295
4.770555 15.957828 -0.219044 4294967295
4.7905169 15.960473 -0.212666 4294967295
4.770308 16.036615 -0.232899 4294967295
4.809742 16.036615 -0.212666 4294967295
4.770308 16.112759 -0.247393 4294967295
4.8201132 16.112759 -0.212666 4294967295
4.8281622 16.112759 -0.13652299 4294967295
4.828207 16.036615 -0.13652299 4294967295
4.8278708 15.994383 -0.060350001 4294967295
4.827877 16.209467 -0.149519 4294967295
4.8252501 16.1889 -0.212666 4294967295
4.8279719 16.265043 -0.212666 4294967295
4.770308 16.1889 -0.2604 4294967295
4.770308 16.265043 -0.27281401 4294967295
4.770308 16.341185 -0.286264 4294967295
4.8290572 16.341185 -0.212666 4294967295
4.770926 16.406458 -0.298343 4294967295
4.7987309 16.417328 -0.28880799 4294967295
4.829989 16.417328 -0.212666 4294967295
4.828815 16.492088 -0.21220601 4294967295
4.8280129 16.569708 -0.211702 4294967295
4.8134341 16.493469 -0.28880799 4294967295
4.8212781 16.569613 -0.28880799 4294967295
4.770308 16.493469 -0.31343001 4294967295
4.770308 16.569613 -0.326922 4294967295
4.7691522 16.652353 -0.342513 4294967295
4.8263311 16.645754 -0.28880799 4294967295
4.770308 16.721897 -0.35324499 4294967295
4.828639 16.721897 -0.28880799 4294967295
4.8277998 16.658207 -0.218081 4294967295
4.7702951 15.722004 -0.00063800003 4294967295
4.8278322 16.835257 -0.2036 4294967295
4.8265972 16.798038 -0.28880799 4294967295
4.8283682 16.874182 -0.28880799 4294967295
4.7765012 16.79332 -0.36534101 4294967295
4.804853 16.874182 -0.36495 4294967295
4.770308 16.874182 -0.380575 4294967295
4.770308 16.950323 -0.39402899 4294967295
4.8165088 16.950323 -0.36495 4294967295
4.770308 17.026466 -0.40745801 4294967295
4.8230729 17.026466 -0.36495 4294967295
4.8287129 17.026466 -0.28880799 4294967295
4.8284192 16.950323 -0.28880799 4294967295
4.8272061 17.102608 -0.36495 4294967295
4.828804 17.178751 -0.36495 4294967295
4.770308 17.102608 -0.420802 4294967295
4.770308 17.178751 -0.43361899 4294967295
4.7707338 17.250469 -0.44695199 4294967295
4.7900739 17.254892 -0.441093 4294967295
4.8298168 17.254892 -0.36495 4294967295
4.770308 17.331036 -0.461025 4294967295
4.8094659 17.331036 -0.441093 4294967295
4.770308 17.407177 -0.474437 4294967295
4.8189731 17.407177 -0.441093 4294967295
4.8279471 17.407158 -0.36457199 4294967295
4.8288441 17.331036 -0.36495 4294967295
4.8278332 17.505411 -0.369726 4294967295
4.8245888 17.48332 -0.441093 4294967295
4.8280659 17.559464 -0.441093 4294967295
4.770308 17.48332 -0.487865 4294967295
4.770308 17.559464 -0.50116599 4294967295
4.770308 17.635605 -0.51328599 4294967295
4.824398 17.635605 -0.441093 4294967295
4.770308 17.711748 -0.50212902 4294967295
4.8281641 17.711748 -0.441093 4294967295
4.8278298 17.681646 -0.351201 4294967295
4.827951 17.788183 -0.060385998 4294967295
4.770206 17.78804 -0.000439 4294967295
4.8279691 17.787516 -0.36312899 4294967295
4.7700171 17.848867 -0.060694002 4294967295
4.7704792 17.845604 -0.360488 4294967295
4.770308 17.841587 -0.441093 4294967295
4.8253512 17.787889 -0.441093 4294967295
4.7703018 17.788368 -0.489252 4294967295
4.8279462 17.126505 -0.28608501 4294967295
4.7001219 16.313631 -0.28437501 4294967295
4.6753101 15.352104 -0.55086201 4294967295
4.648098 15.2753 -0.556081 4294967295
4.7704148 15.254038 -0.59214598 4294967295
4.770308 15.240349 -0.66952002 4294967295
4.7701259 15.226998 -0.74548799 4294967295
4.770308 15.213434 -0.82180399 4294967295
4.635963 15.198685 -0.90520298 4294967295
4.6941652 15.177424 -0.97408903 4294967295
4.6942229 15.12294 -1.005615 4294967295
4.6953321 14.826246 -0.95352697 4294967295
4.8278661 14.155836 -0.217729 4294967295
4.8278999 14.361485 -0.28880799 4294967295
4.828125 14.437136 -0.289527 4294967295
4.7982702 14.361485 -0.36495 4294967295
4.8132138 14.437627 -0.36495 4294967295
4.770308 14.361485 -0.375781 4294967295
4.770308 14.437627 -0.427609 4294967295
4.7701578 14.285542 -0.36206701 4294967295
4.8275709 14.285342 -0.28880799 4294967295
4.7700138 14.21057 -0.34928599 4294967295
4.8280892 14.2092 -0.28880799 4294967295
4.8278871 14.057527 -0.136134 4294967295
4.8277731 14.056915 -0.212666 4294967295
4.8189549 14.056915 -0.28880799 4294967295
4.824687 14.133058 -0.28880799 4294967295
4.770308 14.056915 -0.32214999 4294967295
4.770308 14.133058 -0.33571401 4294967295
4.770308 13.980773 -0.30874699 4294967295
4.8094678 13.980773 -0.28880799 4294967295
4.7898741 13.904631 -0.28880799 4294967295
4.8301978 13.980773 -0.212666 4294967295
4.8296528 13.904631 -0.212666 4294967295
4.7702541 13.675836 -0.00025799999 4294967295
4.8280892 13.675692 -0.060408 4294967295
4.8277612 13.784195 -0.1455 4294967295
4.8264351 13.752345 -0.212666 4294967295
4.8287058 13.828487 -0.212666 4294967295
4.770308 13.752345 -0.26764601 4294967295
4.770308 13.828487 -0.28117499 4294967295
4.770308 13.676203 -0.255898 4294967295
4.8237491 13.676203 -0.212666 4294967295
4.770308 13.614157 -0.212666 4294967295
4.8289642 13.676203 -0.13652299 4294967295
4.7706079 13.611763 -0.12931401 4294967295
4.7704182 13.612531 -0.059912998 4294967295
4.770606 13.900428 -0.29465699 4294967295
4.6943722 14.280936 -0.36516199 4294967295
4.769608 14.442786 -0.44053599 4294967295
4.7701631 14.437387 -0.470754 4294967295
4.7934179 14.437627 -0.51723498 4294967295
4.7701759 14.407064 -0.64324403 4294967295
4.811029 14.437627 -0.59337699 4294967295
4.8198552 14.437627 -0.66952002 4294967295
4.7701631 14.389566 -0.74488801 4294967295
4.8247652 14.437627 -0.74566197 4294967295
4.770308 14.376569 -0.82180399 4294967295
4.827682 14.437627 -0.82180399 4294967295
4.770308 14.437627 -0.88005501 4294967295
4.5418811 14.437627 -0.432641 4294967295
4.5418811 14.361485 -0.39253801 4294967295
4.4672432 14.362098 -0.405541 4294967295
4.543128 14.269946 -0.378232 4294967295
4.4645329 14.072057 -0.35568199 4294967295
4.555305 13.938338 -0.31901699 4294967295
4.534801 13.675895 -0.27455401 4294967295
4.4535828 13.901431 -0.32837501 4294967295
4.465734 13.676199 -0.28572601 4294967295
4.5418811 13.607691 -0.212666 4294967295
4.4658189 13.60522 -0.212524 4294967295
4.4983749 13.608577 -0.060392 4294967295
4.5045061 13.91253 0.002023 4294967295
4.488039 14.147505 0.0020689999 4294967295
4.522687 14.974499 3.3e-05 4294967295
4.5445042 15.575455 -1.6e-05 4294967295
4.5418811 15.655904 -0.000166 4294967295
4.4777031 15.757001 1.1e-05 4294967295
4.4573669 15.903634 0.00095399999 4294967295
4.4586301 16.121651 0.001183 4294967295
4.499629 16.46121 0.001754 4294967295
4.4771118 16.592737 0.001526 4294967295
4.4836612 16.787357 0.0021840001 4294967295
4.5033522 17.07226 0.0022400001 4294967295
4.4036078 17.113937 0.002353 4294967295
4.4368272 17.282036 -0.00014800001 4294967295
4.4967909 17.477613 0.00318 4294967295
4.4542551 17.543657 0.002784 4294967295
4.5392299 17.838425 -0.060182001 4294967295
4.4643388 17.83189 -0.059854001 4294967295
4.5209961 17.831541 -0.44078001 4294967295
4.4657378 17.787889 -0.48501199 4294967295
4.5433798 17.558788 -0.51655602 4294967295
4.4658589 17.635324 -0.51592201 4294967295
4.4656591 17.558872 -0.52659899 4294967295
4.3901281 17.481531 -0.525015 4294967295
4.389596 17.559464 -0.529378 4294967295
4.4634228 16.491158 -0.33909199 4294967295
4.2426119 17.02602 -0.47514799 4294967295
4.1825132 17.174149 -0.51623499 4294967295
4.2381392 17.409512 -0.54438198 4294967295
4.3121438 17.207588 -0.49175999 4294967295
4.2447109 17.488424 -0.54185498 4294967295
4.3145719 17.483755 -0.54008198 4294967295
4.0126891 17.635893 -0.51583099 4294967295
4.2373109 17.711748 -0.50247598 4294967295
4.3134542 17.711748 -0.50249398 4294967295
4.2373109 17.787889 -0.45489001 4294967295
4.3134542 17.787889 -0.47120601 4294967295
4.2066431 17.788818 -0.44117299 4294967295
4.2165289 17.793365 -0.327299 4294967295
4.2927432 17.808748 -0.059705999 4294967295
4.2373109 17.787889 -0.028228 4294967295
4.3134542 17.787889 -0.014682 4294967295
4.2373109 17.711748 0.00063700002 4294967295
4.3134542 17.711748 0.00014600001 4294967295
4.2547379 17.462734 5.5e-05 4294967295
4.272984 17.315796 0.0032909999 4294967295
4.264698 17.09992 0.0026169999 4294967295
4.2736311 16.794765 0.002391 4294967295
4.0737228 16.731035 0.002111 4294967295
4.0747428 16.49535 0.0019990001 4294967295
4.264389 16.106733 0.001351 4294967295
4.0614181 15.904733 0.001339 4294967295
4.039865 14.301977 -3.5000001e-05 4294967295
4.1977921 14.16361 0.002231 4294967295
4.0603309 13.908257 0.0023960001 4294967295
4.2373109 13.676203 0 4294967295
4.3134542 13.676203 0 4294967295
4.242939 13.599579 -0.056499999 4294967295
4.2452412 13.59712 -0.29216 4294967295
4.1209412 13.592614 -0.17728999 4294967295
4.2246122 13.67728 -0.34453601 4294967295
4.3134542 13.676203 -0.318984 4294967295
4.2375722 13.824566 -0.365154 4294967295
4.3101311 13.851706 -0.35008499 4294967295
4.3897538 14.360421 -0.421186 4294967295
4.2367668 14.24598 -0.43970501 4294967295
4.2373109 14.361485 -0.45848101 4294967295
4.3133788 14.37212 -0.44108999 4294967295
4.3866491 13.876389 -0.33652499 4294967295
4.1557279 13.676153 -0.36464301 4294967295
4.390306 13.676715 -0.30065799 4294967295
4.389596 13.609851 -0.28880799 4294967295
4.1611691 13.60006 -0.31489199 4294967295
4.117867 13.60006 -0.36495 4294967295
4.3282208 13.59925 -0.28847501 4294967295
4.1597309 13.592656 -0.29027399 4294967295
4.1611691 13.60006 -0.042934 4294967295
4.3127761 13.600257 -0.230607 4294967295
4.335927 13.603334 -0.061126001 4294967295
4.1611691 13.676203 0 4294967295
4.0722671 13.817632 0.000139 4294967295
4.3676772 13.907985 0.001854 4294967295
4.3677211 14.116274 0.0017040001 4294967295
4.094656 14.061348 0.0018119999 4294967295
4.3367252 16.32317 -5.6000001e-05 4294967295
4.0552969 16.080185 -2.1e-05 4294967295
4.3303819 16.48914 0.001884 4294967295
4.16254 16.594723 0.001148 4294967295
4.386807 16.829248 0.001528 4294967295
4.1125441 16.831219 9.5000003e-05 4294967295
4.1638021 17.094728 0.00053399999 4294967295
4.1254902 17.334845 -1.3e-05 4294967295
4.3487778 17.420851 0.00072200003 4294967295
4.4222941 17.715044 3.1e-05 4294967295
4.1611691 17.711748 0.00092700002 4294967295
4.405293 17.787354 -0.005196 4294967295
4.1712928 17.788038 -0.061558001 4294967295
4.1611691 17.779102 -0.441093 4294967295
4.3740101 17.821495 -0.058694001 4294967295
4.3601551 17.813454 -0.44069499 4294967295
4.389596 17.787889 -0.47979099 4294967295
4.4197788 17.716642 -0.50149 4294967295
4.1611691 17.711748 -0.50189799 4294967295
4.1611691 17.407177 -0.55653602 4294967295
4.1629028 17.334415 -0.55043298 4294967295
4.1611691 17.026466 -0.49422699 4294967295
4.0831332 16.951582 -0.50582701 4294967295
4.2388291 16.357891 -0.358679 4294967295
4.1670842 16.332663 -0.37282199 4294967295
4.1676388 15.887023 -0.29369 4294967295
4.0745401 15.655516 -0.28009099 4294967295
4.1595688 15.656043 -0.257283 4294967295
4.008884 15.655904 -0.303554 4294967295
4.0850272 15.639506 -0.28880799 4294967295
4.0850272 15.607911 -0.36495 4294967295
4.008884 15.607454 -0.36495 4294967295
4.0850272 15.568485 -0.59337699 4294967295
