# .PCD v0.7 - Point Cloud Data file format
VERSION 0.7
FIELDS x y z rgba
SIZE 4 4 4 4
TYPE F F F U
COUNT 1 1 1 1
WIDTH 1160
HEIGHT 1
VIEWPOINT 0 0 0 1 0 0 0
POINTS 1160
DATA ascii
6.9508438 3.643739 -1.179799 4294967295
7.2449908 3.9152279 -0.665824 4294967295
-9.234355 4.4393482 -1.903366 4294967295
-9.357358 4.435802 -2.013988 4294967295
-9.3209362 4.751955 -1.976125 4294967295
-9.321701 4.7688169 -1.916609 4294967295
-8.8584661 4.8143668 -1.441991 4294967295
-9.1370153 4.9882832 -1.687748 4294967295
-8.7147293 5.6714458 -1.026901 4294967295
-8.8847256 5.3365092 -1.328761 4294967295
-6.9886651 5.073864 -2.370003 4294967295
-6.6914158 5.2653441 -2.1764619 4294967295
-6.8435779 4.4781971 -1.981207 4294967295
-5.0969801 4.8557458 -2.046706 4294967295
-5.8543978 4.548172 -1.788476 4294967295
-5.412302 4.894423 -1.706181 4294967295
-6.293613 5.5836201 -1.918087 4294967295
-5.8372469 5.0985761 -1.626989 4294967295
-4.9436221 5.17345 -1.706475 4294967295
-4.5057001 5.4935818 -1.900013 4294967295
7.005569 4.6071262 -1.2754461 4294967295
6.8161359 5.3988509 -1.9031399 4294967295
7.1595702 5.371789 -1.247249 4294967295
-8.8516273 5.816556 -1.1385339 4294967295
-8.006217 6.2059312 -3.294184 4294967295
-8.2187452 6.361372 -2.347363 4294967295
-5.889679 7.7442002 -2.1200371 4294967295
-6.039072 7.724484 -2.4120369 4294967295
-6.070106 8.2767067 -2.8875051 4294967295
-6.9827561 6.3189011 -3.263762 4294967295
-6.6975622 6.0623989 -2.586432 4294967295
-6.498189 7.7090449 -3.491735 4294967295
-6.8008699 6.7372808 -3.2884409 4294967295
-6.9433908 7.0552092 -3.989032 4294967295
-5.7270031 5.809639 -1.4716949 4294967295
-5.4242129 6.3946719 -1.15649 4294967295
-5.2880788 6.8522921 -0.97676402 4294967295
-5.8105192 7.3133922 -1.78982 4294967295
-5.7852068 7.0619178 -1.669518 4294967295
-5.934371 7.2851572 -1.984885 4294967295
-4.6851459 5.534956 -1.3581131 4294967295
-4.9691019 5.814548 -1.0399801 4294967295
-4.307148 5.8836441 -0.99895602 4294967295
-3.8674641 6.176506 -1.400121 4294967295
-3.850544 6.1824698 -0.77221203 4294967295
-3.253897 7.0687141 -1.328295 4294967295
-3.4602029 6.517385 -0.81134999 4294967295
-3.1559629 6.9503598 -0.87885702 4294967295
1.761338 6.8783121 -2.088532 4294967295
2.015846 6.9945931 -1.541773 4294967295
2.4060669 6.836195 -1.217531 4294967295
2.856447 7.0187788 -2.2857561 4294967295
2.9958391 6.8741698 -1.741364 4294967295
2.83635 6.7010269 -1.2659039 4294967295
3.322521 6.8363299 -1.202127 4294967295
7.1851211 7.2265749 -2.252569 4294967295
7.4488502 7.0490971 -1.5893511 4294967295
-5.7786942 8.604846 -2.430516 4294967295
-5.7253232 8.1373062 -1.992282 4294967295
-5.7211261 8.5043163 -2.2107141 4294967295
-5.349699 7.2880149 -1.060485 4294967295
-5.6073751 7.5896239 -1.535675 4294967295
-5.5228219 7.8557048 -1.4681571 4294967295
-5.637784 8.2030354 -1.8401639 4294967295
-2.940963 7.2707629 -0.79554701 4294967295
-2.9404769 7.8926692 -1.344005 4294967295
-2.7121761 7.9990749 -0.88653702 4294967295
1.65272 7.4564838 -1.6428241 4294967295
1.685143 7.8868089 -1.314641 4294967295
1.191335 8.2236786 -2.1527359 4294967295
1.399446 7.928277 -1.821943 4294967295
3.181186 7.380095 -2.1532309 4294967295
3.274595 7.8890939 -2.3852341 4294967295
1.90521 7.7271342 -0.99597698 4294967295
2.0821991 7.3132281 -1.016911 4294967295
3.5994351 9.1014299 -2.0914249 4294967295
3.456743 8.0446968 -2.1056681 4294967295
3.744998 7.3203402 -1.171731 4294967295
3.746984 8.1788502 -1.615712 4294967295
4.007 8.2169428 -1.150239 4294967295
5.4795151 9.1036654 -0.86931503 4294967295
5.1804562 9.17204 -1.590439 4294967295
7.4064941 7.408123 -1.948027 4294967295
6.8726912 7.852396 -2.167367 4294967295
7.009407 7.9326038 -1.269037 4294967295
6.2035952 8.6494188 -0.64786398 4294967295
-3.0532501 9.7334471 -2.0378361 4294967295
-2.777458 9.9181919 -1.393366 4294967295
-2.559191 9.6112986 -0.93373799 4294967295
-2.5108459 8.7158527 -0.73480397 4294967295
-2.907305 10.115119 -1.649444 4294967295
-2.1411359 10.262669 -1.8860281 4294967295
1.204429 9.5947771 -2.2387431 4294967295
1.283497 8.8621492 -1.905689 4294967295
1.411217 9.7804232 -1.790982 4294967295
1.52569 10.38342 -1.789093 4294967295
4.1367021 9.1253147 -0.95907903 4294967295
3.958123 9.8095179 -1.242417 4294967295
4.0513778 9.7835159 -1.024603 4294967295
4.9456091 9.3754606 -1.0672311 4294967295
4.64886 9.4765806 -1.399619 4294967295
4.5935431 9.5673199 -0.90423101 4294967295
4.1243858 9.7798824 -0.86460203 4294967295
-2.6251359 10.271621 -0.96368802 4294967295
-2.355828 10.27925 -1.493034 4294967295
-2.36059 10.338825 -0.98951501 4294967295
-1.660345 10.449111 -1.261112 4294967295
-0.974482 10.487943 -1.6084861 4294967295
-0.86706603 10.570451 -1.029121 4294967295
-0.806454 10.614723 -0.44878399 4294967295
-0.086661004 10.632227 -0.71709502 4294967295
0.69178802 -10.630525 -0.42464101 4294967295
-0.22556201 -10.635909 -0.68223298 4294967295
0.00154 -10.664483 0.0096220002 4294967295
0.193524 -10.635341 0.65130198 4294967295
-0.66198999 -10.631054 0.435736 4294967295
-4.2234979 -9.7529964 -0.63508701 4294967295
-4.2762589 -9.0613565 -0.67253298 4294967295
-4.383729 -9.1195736 -0.438775 4294967295
-2.334578 -10.386923 0.237508 4294967295
-2.2378559 -9.8300581 0.16351201 4294967295
-1.650638 -9.4677801 -1.139567 4294967295
-2.113507 -10.172809 -0.219478 4294967295
-1.869874 -9.8949013 -0.71842402 4294967295
-1.986481 -10.443409 -0.63622099 4294967295
1.996246 -10.442711 0.61281002 4294967295
1.907871 -10.04317 0.67072803 4294967295
2.4093609 -9.3799982 -0.60132599 4294967295
2.355464 -10.380286 -0.289058 4294967295
2.2737851 -9.8625393 -0.24208 4294967295
2.1402471 -10.193703 0.162273 4294967295
4.353447 -9.70683 0.35538 4294967295
4.446918 -9.6601191 0.55663598 4294967295
-6.8691578 -8.1580172 -0.23497701 4294967295
-6.3231101 -8.5381832 0.81124699 4294967295
-5.7455668 -8.909256 1.091035 4294967295
-5.5097809 -9.1226854 0.19797499 4294967295
-4.9468212 -9.4021502 0.87765503 4294967295
-4.5354052 -9.1184311 -0.119933 4294967295
-4.7457042 -8.9634256 0.27842799 4294967295
-5.0596561 -8.3738918 0.74823397 4294967295
-4.2688789 -8.2220449 -0.67952102 4294967295
-4.4199719 -8.8102903 -0.406847 4294967295
-4.4566479 -8.207325 -0.35197899 4294967295
-4.552527 -8.760253 -0.153743 4294967295
-2.1358321 -9.0067577 -0.046484999 4294967295
-2.1128731 -8.2370796 -0.30235401 4294967295
-2.1238461 -7.6005712 -0.66201001 4294967295
-2.340554 -7.628418 -0.192873 4294967295
-1.8184659 -9.0914497 -0.74319601 4294967295
-1.970471 -8.6943159 -0.466216 4294967295
-1.840499 -8.3404627 -0.83218801 4294967295
1.833815 -9.2199192 0.70012701 4294967295
2.020678 -8.7362833 0.34714201 4294967295
2.1954899 -9.0328817 -0.090697996 4294967295
2.197078 -8.2650032 0.115816 4294967295
2.396744 -7.7010512 0.023566 4294967295
2.5960989 -7.560595 -0.29379901 4294967295
4.4693809 -8.9436045 0.29972899 4294967295
4.4639382 -8.1837139 0.34199199 4294967295
5.5558462 -8.216588 -1.673781 4294967295
5.1243601 -8.7138491 -0.994102 4294967295
4.9069772 -8.4401407 -0.480634 4294967295
4.6509981 -8.3304625 0.013569 4294967295
4.5299678 -9.6414118 -0.024898 4294967295
4.7683029 -9.5107145 -0.51502699 4294967295
5.4494681 -8.965024 -1.841826 4294967295
5.66504 -8.7371778 -2.2415309 4294967295
5.9611359 -8.6991615 -1.5036269 4294967295
-8.5020838 -6.420743 0.46538499 4294967295
-8.0547132 -6.9528718 -0.47332701 4294967295
-7.10602 -7.9375482 0.30259299 4294967295
-7.89219 -7.0342259 1.353682 4294967295
-7.3863831 -7.6149759 1.030375 4294967295
-5.1128602 -7.7015138 0.74019301 4294967295
-4.651732 -7.1008101 0.15767699 4294967295
-4.4162269 -7.5932789 -0.31160101 4294967295
-3.7350421 -6.8028688 -0.68458802 4294967295
-4.1682062 -6.8200941 -0.247538 4294967295
-3.7596681 -6.4825358 -0.155711 4294967295
-2.7130129 -6.7901788 -0.71569198 4294967295
-2.5611501 -7.2114878 -0.183336 4294967295
-3.3580439 -6.5127778 0.041271999 4294967295
-2.939414 -6.7764759 -0.137421 4294967295
2.5954361 -7.237556 0.071843997 4294967295
2.9045391 -6.8003168 0.163523 4294967295
2.995995 -6.8710399 -0.27858001 4294967295
4.3797479 -7.4738841 0.33258 4294967295
4.0766449 -6.7616148 0.291522 4294967295
3.2845039 -6.551374 0.048772 4294967295
3.5957079 -6.3815889 -0.294074 4294967295
3.6669731 -6.498415 0.217614 4294967295
4.8020072 -7.4237671 -0.28432399 4294967295
4.4954062 -6.9183888 -0.044024002 4294967295
4.7936931 -6.5502968 -0.521694 4294967295
8.0366163 -6.9727492 0.515333 4294967295
7.0411191 -7.9875088 -0.47243601 4294967295
7.4788098 -7.5112848 -1.144442 4294967295
6.8603148 -7.8429451 -2.2473249 4294967295
8.0012131 -6.97785 -0.94040799 4294967295
8.3553123 -6.4844918 -1.332967 4294967295
8.5196695 -6.3818121 -0.503874 4294967295
-7.9722161 -3.8470781 0.55456299 4294967295
-7.4274502 -3.8408129 -0.32178101 4294967295
-7.1104779 -3.422365 -0.82797998 4294967295
-8.0449171 -2.9919629 0.87013298 4294967295
-7.4776702 -3.1900821 -0.087605998 4294967295
-7.8621459 -2.792398 0.65372998 4294967295
-7.6602411 -2.5045769 0.39905199 4294967295
-7.1453671 -1.906751 -0.69952601 4294967295
-7.4898429 -1.975201 0.20215601 4294967295
7.7754688 -2.3566279 -0.63135701 4294967295
7.7204161 -2.4499249 -0.512375 4294967295
7.5856709 -2.115289 -0.35222101 4294967295
-7.2929358 -1.542115 -0.248492 4294967295
-7.228683 -1.0060329 -0.69532597 4294967295
-7.392478 -1.017043 0.162021 4294967295
7.3160372 -1.144222 -0.54119402 4294967295
7.4758749 -1.473248 -0.28180501 4294967295
7.3957152 -1.0348099 -0.176604 4294967295
-7.337893 -0.38448599 0.049532 4294967295
-7.340529 -0.037160002 -0.45286301 4294967295
-7.337543 -0.003181 -0.001321 4294967295
7.3379598 0.050127 -0.386269 4294967295
7.3404388 -0.45171401 -0.037135001 4294967295
7.3375378 -0.0011399999 -0.0040549999 4294967295
-7.337657 0.37740299 -0.048390999 4294967295
-7.3285289 1.142841 -0.50254798 4294967295
-7.3895559 0.99300098 -0.15679 4294967295
7.2840238 0.931826 -0.346342 4294967295
7.3403959 0.449121 0.034170002 4294967295
7.3942938 1.023699 0.173365 4294967295
-8.0351133 2.7481351 -0.92115903 4294967295
-7.8607502 2.7932739 -0.651703 4294967295
-7.7638059 2.3355491 -0.62085599 4294967295
-7.656754 2.4974501 -0.39410201 4294967295
-7.297029 1.521587 0.236922 4294967295
-7.484911 1.953375 -0.19597 4294967295
7.717092 2.437166 0.51008499 4294967295
7.472342 1.456282 0.276218 4294967295
7.3104491 1.961346 -0.243036 4294967295
7.5777249 2.1100471 0.33812299 4294967295
-8.0489759 2.9902079 -0.87682903 4294967295
-7.9710741 3.8478751 -0.55247402 4294967295
-8.2530231 3.181483 -1.101359 4294967295
-7.429194 3.8348141 0.31785399 4294967295
-7.4802728 3.183455 0.081759997 4294967295
-8.3855257 6.4136572 -1.4834009 4294967295
-8.5451775 6.347291 -0.55351001 4294967295
-6.9875112 7.7395892 -2.256644 4294967295
-7.9683089 7.0094352 -1.048648 4294967295
-7.5287242 7.4827552 -0.97370899 4294967295
-8.042902 6.9661751 0.50132197 4294967295
-4.9674368 7.0884681 -0.55477703 4294967295
-4.5557122 7.111052 -0.035432 4294967295
-4.1377058 6.8270359 0.28440201 4294967295
-3.672375 6.345161 -0.30346301 4294967295
-3.7243321 6.5002279 0.205452 4294967295
-3.045774 6.8844399 -0.45076099 4294967295
-3.318465 6.5326862 -0.0016749999 4294967295
-2.8982561 6.8286219 0.095435999 4294967295
2.9493921 6.7530289 -0.19326399 4294967295
2.7356579 6.7743011 -0.723418 4294967295
3.7088239 6.7873549 -0.69112498 4294967295
4.1198888 6.7506528 -0.239099 4294967295
3.3329189 6.5270739 0.0034729999 4294967295
3.7161009 6.472949 -0.14545099 4294967295
4.5860071 6.8916798 0.158571 4294967295
7.494935 7.5185518 0.94633299 4294967295
8.0337763 6.9741859 -0.520239 4294967295
8.5240145 6.3796391 0.51093602 4294967295
7.8565049 7.121347 1.165158 4294967295
-7.058764 7.9733329 -0.437994 4294967295
-5.6249442 8.7817268 -2.1730299 4294967295
-5.981607 8.7046785 -1.389513 4294967295
-5.46105 8.3686056 -1.546728 4294967295
-5.3858871 9.0300703 -1.736087 4294967295
-5.0883641 8.738409 -0.92576301 4294967295
-4.9189129 8.3877401 -0.49011999 4294967295
-4.8196859 7.80896 -0.27581501 4294967295
-4.706141 9.5493689 -0.395181 4294967295
-4.3991199 7.5701442 0.332773 4294967295
-4.4723592 8.2665548 0.332533 4294967295
-4.6701078 8.4300022 -0.027417 4294967295
-2.165483 8.3090343 0.166576 4294967295
-2.3492489 7.8263431 0.033728998 4294967295
-2.522505 7.8644438 -0.372926 4294967295
-2.5429201 7.3844428 0.0096150003 4294967295
-2.0137861 8.6877747 0.37353799 4294967295
1.8141741 8.4350004 -0.85229099 4294967295
1.974355 8.7475109 -0.44479799 4294967295
2.143651 8.2005701 -0.25156599 4294967295
2.1337471 7.58039 -0.658714 4294967295
2.3656459 7.5291591 -0.22656301 4294967295
2.617696 7.122293 -0.184571 4294967295
4.3957138 7.5096421 -0.31838 4294967295
4.451231 8.1431913 -0.358441 4294967295
4.2638688 8.1654396 -0.68021601 4294967295
5.5296388 9.1116266 0.222497 4294967295
5.0225358 9.3413715 1.03616 4294967295
4.5574098 8.7385874 -0.148461 4294967295
4.7972622 8.8424797 0.34762999 4294967295
5.129632 8.602622 0.957479 4294967295
5.0593262 7.3309999 0.65453202 4294967295
7.124311 7.9186049 0.35974601 4294967295
6.7234802 8.2586966 -0.34625 4294967295
6.258719 8.5712776 0.92435998 4294967295
5.6618252 8.9498844 1.175494 4294967295
-4.5019088 9.6535826 0.033218 4294967295
-4.459199 9.0502481 0.30196199 4294967295
-4.3566761 9.7057667 0.34591299 4294967295
-2.165132 9.0185652 -0.015644001 4294967295
-2.2254629 9.7871256 -0.141655 4294967295
-2.350955 9.3311043 -0.46051699 4294967295
-1.835992 9.0424433 0.70364499 4294967295
-2.108952 10.153935 0.223516 4294967295
-1.863374 9.8750181 0.72718197 4294967295
-1.964027 10.444788 0.692366 4294967295
1.980858 10.444862 -0.65274203 4294967295
1.643132 9.9197063 -1.2701 4294967295
1.88658 10.040032 -0.721668 4294967295
1.798889 9.2617884 -0.78266102 4294967295
2.1645801 8.9811592 0.014449 4294967295
2.2369571 9.792614 0.16801099 4294967295
2.1253231 10.176969 -0.19236501 4294967295
4.4260249 8.8152504 -0.39876699 4294967295
4.2076082 9.3909702 -0.76714098 4294967295
4.2592201 9.7461414 -0.55269599 4294967295
4.3272128 9.4272385 -0.49373499 4294967295
4.5749798 9.0924482 -0.042077001 4294967295
-2.2910249 10.395178 -0.131854 4294967295
-2.0303421 10.453996 -0.120342 4294967295
-2.4380109 10.357798 -0.49556601 4294967295
2.304368 10.391779 0.165398 4294967295
2.0453839 10.450333 0.155007 4294967295
1.46706 -10.459154 1.374205 4294967295
-2.7888131 -9.9345388 1.416554 4294967295
-2.6328599 -10.271767 0.97983003 4294967295
-2.5559189 -9.6676874 0.92361999 4294967295
-2.3399301 -9.3521252 0.44146901 4294967295
-2.9137731 -10.109982 1.66495 4294967295
-2.413363 -10.263914 1.499007 4294967295
1.674724 -9.9225388 1.190554 4294967295
1.6231101 -10.406682 1.550154 4294967295
1.443691 -9.8858318 1.742672 4294967295
4.2640872 -9.4023352 0.64158702 4294967295
4.0548201 -9.7902632 1.017445 4294967295
-5.7341728 -7.9082861 1.8957011 4294967295
-5.5335732 -8.8779469 2.0062239 4294967295
-5.6650791 -8.4016533 2.013967 4294967295
-5.5929341 -8.003624 1.6565371 4294967295
-5.372509 -7.9881768 1.231443 4294967295
-5.6395121 -7.39784 1.536159 4294967295
-5.5322781 -7.6015158 1.410634 4294967295
-2.4872551 -8.7179604 0.68667501 4294967295
-2.4952099 -7.9501119 0.35812199 4294967295
-2.674763 -7.914721 0.75017399 4294967295
1.867732 -8.3566275 0.76417398 4294967295
1.759163 -7.9068041 1.168574 4294967295
1.275032 -8.7293949 1.915611 4294967295
1.45743 -8.0624313 1.679489 4294967295
2.0273521 -7.620563 0.831025 4294967295
2.2291269 -7.6871939 0.38731101 4294967295
3.618495 -8.2466202 1.885721 4294967295
3.7472301 -8.0737906 1.583325 4294967295
4.2529521 -8.0699272 0.69824302 4294967295
4.1874371 -9.015048 0.8682 4294967295
4.0271478 -8.0019741 1.066448 4294967295
4.9156752 -9.3571577 1.308547 4294967295
5.3497171 -9.1713896 0.910182 4294967295
5.0856352 -9.3572226 0.14375 4294967295
5.8626351 -8.8731947 0.63072097 4294967295
6.4928608 -8.4476528 0.024137 4294967295
6.816618 -8.0715342 1.387794 4294967295
-8.2511568 -6.5464258 1.659507 4294967295
-8.2097206 -6.3635311 2.3699701 4294967295
-5.8226271 -8.3440886 2.3430641 4294967295
-5.9187021 -7.4879341 2.049871 4294967295
-6.005126 -7.8062758 2.3884461 4294967295
-6.1293569 -7.949235 2.782038 4294967295
-6.7638731 -7.8296442 2.5323529 4294967295
-6.5115428 -7.6609988 3.4959731 4294967295
-6.8338251 -6.7308788 3.357038 4294967295
-6.9450798 -7.05088 3.9923999 4294967295
-5.4421029 -6.3623338 1.177664 4294967295
-5.3371358 -6.7856321 1.039219 4294967295
-5.4315519 -7.1210289 1.165526 4294967295
-5.081244 -7.016798 0.70685798 4294967295
-5.8214359 -7.2018299 1.771173 4294967295
-5.800487 -6.999629 1.676249 4294967295
-5.9597359 -7.204329 1.994936 4294967295
-4.9865952 -5.7906752 1.0621459 4294967295
-4.3191419 -5.8726048 1.0127701 4294967295
-3.8663819 -6.1702709 0.788324 4294967295
-3.6975679 -6.330267 0.331956 4294967295
-3.0661311 -6.8564272 0.44755101 4294967295
-2.952414 -7.2303648 0.77266997 4294967295
-3.472923 -6.5068302 0.82421398 4294967295
-3.1668739 -6.9335799 0.88006502 4294967295
1.763423 -7.2497492 1.636929 4294967295
3.3910229 -7.3796291 1.781293 4294967295
3.081867 -6.864501 1.5847501 4294967295
2.6309609 -6.9285579 0.512514 4294967295
2.293102 -7.2764959 0.65525299 4294967295
2.495841 -6.8313699 1.06034 4294967295
2.651783 -6.712111 1.54058 4294967295
2.1755149 -6.8340712 1.605407 4294967295
3.8515689 -7.6132212 1.198406 4294967295
3.470082 -7.008503 1.267498 4294967295
3.7152381 -6.8322511 0.74372202 4294967295
7.3758311 -7.4130478 2.0174811 4294967295
7.4829359 -7.1397529 1.589096 4294967295
-9.2679195 -4.7283201 1.874118 4294967295
-9.1430893 -4.9754071 1.697196 4294967295
-8.716877 -5.6754279 1.028495 4294967295
-8.8528957 -5.8172088 1.140687 4294967295
-8.8870888 -5.3343349 1.332062 4294967295
-6.7392201 -6.0424242 2.635803 4294967295
-6.7695632 -5.2332568 2.236136 4294967295
-5.4320989 -4.838326 1.742082 4294967295
-6.3516302 -5.4755869 1.942668 4294967295
-5.7541652 -5.7517471 1.4963861 4294967295
-5.888947 -4.9878378 1.6636879 4294967295
-4.9505119 -5.1574502 1.725472 4294967295
-4.6918478 -5.5244522 1.370441 4294967295
7.1608262 -5.3755598 1.245855 4294967295
-9.2263746 -4.4511542 1.89371 4294967295
-8.9552441 -3.129482 1.87293 4294967295
-8.9670715 -3.254323 1.861953 4294967295
-8.8423615 -3.2327271 1.747108 4294967295
-8.7663279 -3.181334 1.807905 4294967295
-8.7849426 -3.134768 1.709053 4294967295
-8.6776819 -3.1263599 1.6029 4294967295
-8.8672657 -4.8103981 1.452693 4294967295
-8.4722023 -3.19524 1.364925 4294967295
-8.2934904 -2.978683 1.200666 4294967295
-8.2502232 -3.1909039 1.095696 4294967295
-6.6079102 -3.572067 1.782784 4294967295
-7.0682349 -4.4441609 2.0917189 4294967295
-7.3878579 -3.7373071 1.8249381 4294967295
-7.097126 -3.517947 1.672623 4294967295
-7.8410921 -3.1960461 1.456947 4294967295
-6.1584702 -3.957907 1.903471 4294967295
-5.862833 -4.4422588 1.8306659 4294967295
7.2437282 -3.9136131 0.66795498 4294967295
7.0053 -4.6096969 1.2767299 4294967295
6.9342322 -3.6512771 1.212629 4294967295
-7.9304042 -2.971772 1.208142 4294967295
-8.0200529 -2.7315409 0.90216202 4294967295
-7.7742548 -2.356962 0.63202 4294967295
-7.8272061 -2.725323 0.973441 4294967295
-7.040031 -3.0792379 1.536287 4294967295
-7.4485612 -2.611269 1.097904 4294967295
-7.1308751 -2.4606731 1.301677 4294967295
7.3568811 -1.913902 0.116017 4294967295
6.9441299 -2.636982 1.170611 4294967295
7.0272422 -2.0615201 1.0625089 4294967295
-7.182446 -1.811905 1.074809 4294967295
-7.3315549 -1.183593 0.50932199 4294967295
-7.1965232 -1.170874 0.99324298 4294967295
7.286273 -0.93624401 0.331379 4294967295
7.1090622 -1.429449 1.089227 4294967295
7.1931062 -1.012521 1.152174 4294967295
-7.2842121 -0.34550899 0.93185502 4294967295
-7.3404102 0.034499001 0.44942999 4294967295
-7.394248 0.173536 1.023456 4294967295
7.3376389 -0.048101 0.376728 4294967295
7.328743 -0.50191402 1.143482 4294967295
7.3896561 -0.157052 0.99340099 4294967295
-7.3137012 0.54203498 1.124436 4294967295
-7.2323079 1.000303 0.670874 4294967295
-7.1512341 1.137187 1.254416 4294967295
7.3138418 1.124774 0.541825 4294967295
7.2323389 0.67128801 0.99990201 4294967295
7.151114 1.2558039 1.1374871 4294967295
-7.0314131 1.5654221 1.337289 4294967295
-7.154079 1.864462 0.67619699 4294967295
-6.9289432 2.1575489 1.313437 4294967295
7.7661362 2.337326 0.62083298 4294967295
7.303371 2.599488 1.19481 4294967295
7.0022802 1.799413 1.460219 4294967295
6.9994521 2.3806069 1.438539 4294967295
7.7241321 2.742167 1.039862 4294967295
8.0365772 2.7501321 0.92470402 4294967295
8.8630981 3.1616499 1.856858 4294967295
-6.8371611 2.8320191 1.394397 4294967295
-7.1261482 3.4212451 0.79854202 4294967295
-6.770103 3.6762691 1.539901 4294967295
7.1969399 3.7999711 1.812143 4294967295
6.8533201 3.0126939 1.6316611 4294967295
6.5790911 3.604032 1.793344 4294967295
6.7169132 3.9891109 1.809001 4294967295
6.2594638 4.1156321 1.834397 4294967295
8.7985945 3.172704 1.816896 4294967295
8.7747698 3.1351011 1.699177 4294967295
8.7542953 3.3281729 1.641978 4294967295
7.9126291 2.962688 1.204795 4294967295
7.7609801 3.300673 1.553411 4294967295
8.4749689 3.2384379 1.357914 4294967295
8.3198309 2.9929099 1.229071 4294967295
8.2441921 3.258461 1.070881 4294967295
8.9454679 3.129936 1.863071 4294967295
8.9931545 3.219131 1.893162 4294967295
8.9074917 3.291003 1.800705 4294967295
-6.761054 4.6118612 1.741447 4294967295
-6.784863 5.4088631 1.9711159 4294967295
-7.0412102 5.24931 1.420454 4294967295
4.969274 5.2120242 1.620779 4294967295
5.8823328 4.5837412 1.771201 4294967295
5.4449692 4.953598 1.653653 4294967295
5.8954501 5.2177129 1.629274 4294967295
6.8388858 4.4732251 1.977893 4294967295
6.3381829 5.7639332 2.006695 4294967295
6.7016101 5.346848 2.221153 4294967295
8.8560162 4.4014239 1.536973 4294967295
9.3162241 4.787612 1.913785 4294967295
8.6189795 5.6888719 0.90285099 4294967295
8.9062452 5.2528191 1.382045 4294967295
9.3686543 3.5247231 2.1728339 4294967295
9.492836 4.0566969 2.194062 4294967295
-7.1538882 6.9558139 2.105845 4294967295
-7.4680719 6.99647 1.517047 4294967295
-3.744791 6.8540988 0.73729599 4294967295
-3.5039129 7.0442648 1.265415 4294967295
-3.1127801 6.883976 1.5822279 4294967295
-2.616818 6.9532928 0.48861599 4294967295
-2.5088601 6.827425 1.045457 4294967295
-2.6700151 6.7122931 1.529083 4294967295
-2.203176 6.8283348 1.578757 4294967295
3.0879481 6.986197 0.75328201 4294967295
3.023149 6.8369112 0.275056 4294967295
4.6713061 5.5786872 1.296389 4294967295
4.2632279 5.8959222 1.022621 4294967295
3.812223 6.2048941 0.833404 4294967295
3.633235 6.358285 0.34162799 4294967295
3.421031 6.5609918 0.808801 4294967295
5.9658461 6.089427 1.694214 4294967295
5.6805992 6.377161 1.425175 4294967295
5.70439 7.020462 1.5446661 4294967295
5.6103401 6.7871671 1.377669 4294967295
4.7638569 5.9054122 0.90869498 4294967295
5.2735982 6.218123 1.054551 4294967295
4.890276 6.445621 0.65347499 4294967295
5.8750582 7.3387122 1.903164 4294967295
5.9614191 7.0401769 1.929747 4294967295
6.015306 7.6388612 2.306448 4294967295
6.140594 8.1728563 2.9761429 4294967295
7.0869942 7.6276569 2.2830291 4294967295
6.698966 6.2520118 2.709717 4294967295
6.5795069 7.6077819 3.5732391 4294967295
6.845674 7.176897 3.867949 4294967295
8.8276405 5.8582129 1.097208 4294967295
8.399456 6.434195 1.2897331 4294967295
8.2078362 6.4230428 2.2609229 4294967295
7.4420462 6.8230438 3.422406 4294967295
-7.4321251 7.4038749 1.8887399 4294967295
-6.4986758 8.4426203 0.077575997 4294967295
-6.8144112 8.0565901 1.484731 4294967295
-5.0501342 9.3745289 0.218703 4294967295
-5.860693 8.8697958 0.69856298 4294967295
-5.358696 9.1621675 0.95486701 4294967295
-3.8368609 7.558599 1.184424 4294967295
-3.8132679 8.6850615 1.6122611 4294967295
-4.251174 8.0579653 0.69658297 4294967295
-4.054719 8.4301615 1.108156 4294967295
-2.297282 7.2859998 0.63530701 4294967295
-2.21436 7.7216601 0.391927 4294967295
-3.5865591 8.6125221 2.0501299 4294967295
-3.4392371 7.510787 1.810692 4294967295
-1.894691 8.2327785 0.75361699 4294967295
-2.0771329 7.5917521 0.75997001 4294967295
-1.811777 7.2429919 1.563557 4294967295
-1.803802 7.6318579 1.238281 4294967295
-1.5554169 7.9610939 1.532162 4294967295
2.5984311 7.4663391 0.21104901 4294967295
2.886838 7.1860619 0.55017698 4294967295
2.691581 7.882967 0.76419401 4294967295
5.6227379 7.0483961 1.431155 4294967295
5.6835952 7.3192048 1.587674 4294967295
5.4338732 7.8842249 1.315199 4294967295
5.572556 7.4139481 1.42873 4294967295
5.8401661 8.2944384 2.348675 4294967295
5.5232649 8.8896465 1.985112 4294967295
5.7283678 7.8977842 1.877791 4294967295
5.6743808 8.3440208 2.0007861 4294967295
5.6032991 7.9286132 1.645746 4294967295
-4.8956432 9.361064 1.3572 4294967295
-4.44876 9.6575069 0.58157098 4294967295
-4.524559 9.5769091 1.10753 4294967295
-4.1921139 8.9966984 0.86401701 4294967295
-4.286438 9.4203072 0.58922303 4294967295
-4.1109519 9.611661 0.930161 4294967295
-4.0967722 9.7880545 0.91834599 4294967295
-1.417693 8.6918077 1.620878 4294967295
-1.652709 9.42173 1.123646 4294967295
-1.514421 10.37964 1.8235019 4294967295
-1.4779429 9.7747307 1.622633 4294967295
2.9140949 10.110355 1.665738 4294967295
2.806725 9.9696999 1.449082 4294967295
2.6102271 9.6675529 1.044224 4294967295
2.6134601 8.7867556 0.98298198 4294967295
2.390538 9.3043003 0.55357301 4294967295
2.3655651 10.274291 1.509729 4294967295
1.670787 10.445296 1.276019 4294967295
0.866229 10.568586 1.051909 4294967295
0.81048697 10.612751 0.47571701 4294967295
0.086452 10.630336 0.74186099 4294967295
2.453115 10.352014 0.53349799 4294967295
2.376276 10.332484 1.017511 4294967295
2.647548 10.261246 1.0165 4294967295
-1.181173 -10.447927 1.724008 4294967295
0.203015 -10.521681 1.64574 4294967295
-0.44194201 -10.428689 2.135231 4294967295
0.216553 -10.450517 2.050992 4294967295
1.255003 -10.40819 1.876024 4294967295
0.73742998 -10.44045 1.9757791 4294967295
-3.058686 -9.7273178 2.05109 4294967295
-3.2927141 -9.6384726 2.5727389 4294967295
-3.5267389 -9.4299164 3.095119 4294967295
-3.251272 -9.6923714 2.9813049 4294967295
-2.1794441 -10.256083 1.876811 4294967295
-1.357927 -10.35087 2.1346691 4294967295
-1.270311 -10.261172 2.5628691 4294967295
-2.1040621 -9.8862925 3.3625021 4294967295
-1.02563 -10.083677 3.285857 4294967295
-0.041540999 -10.148065 3.2419069 4294967295
0.77570599 -9.9840946 3.6415069 4294967295
0.34932801 -10.352238 2.488487 4294967295
0.61195999 -10.187537 3.050529 4294967295
1.223122 -9.7582016 2.250174 4294967295
1.161937 -10.321716 2.3415821 4294967295
1.170009 -10.113578 2.5984399 4294967295
0.94023597 -10.241329 2.7577569 4294967295
3.051686 -9.5874262 3.300149 4294967295
-3.52054 -8.9865971 3.0675509 4294967295
-3.513211 -8.2648335 2.878834 4294967295
-2.9426279 -7.8513212 1.3223341 4294967295
-3.3233831 -8.7098722 2.573174 4294967295
-3.10693 -8.3618679 1.969231 4294967295
-3.172662 -9.1748581 2.30918 4294967295
0.68246299 -9.4465818 3.516362 4294967295
0.54452801 -8.5630417 3.4957359 4294967295
1.190111 -8.2055321 2.159049 4294967295
1.019925 -9.5179882 2.668386 4294967295
0.93931299 -8.6510773 2.6449611 4294967295
0.75094098 -8.7162333 3.0606461 4294967295
3.1328089 -9.1549902 3.107614 4294967295
3.246172 -8.4995909 2.72686 4294967295
3.378032 -7.7866569 2.1301041 4294967295
3.0981231 -7.6778522 2.5939169 4294967295
3.0818069 -9.6666136 3.226357 4294967295
3.24312 -9.3254623 2.8749051 4294967295
3.176651 -9.7042284 3.009901 4294967295
3.9591219 -9.7344074 1.716182 4294967295
3.652458 -9.8132725 1.9294519 4294967295
3.4813991 -9.4397173 2.345269 4294967295
3.6275189 -9.0718632 2.0326991 4294967295
4.040874 -9.6446629 2.011971 4294967295
4.3608131 -9.5495844 1.782517 4294967295
5.0892148 -9.1972876 1.729074 4294967295
4.5860419 -9.4092035 1.960835 4294967295
5.2240219 -9.0173092 2.21629 4294967295
5.9110751 -8.4936686 2.5775819 4294967295
6.8877358 -7.8584199 2.096843 4294967295
6.7521858 -7.7428389 2.8237391 4294967295
-8.0044327 -6.194654 3.318907 4294967295
-7.4965162 -6.160306 4.4142418 4294967295
-7.1751041 -5.9132171 3.2719541 4294967295
-7.3223701 -6.1376829 3.8706989 4294967295
-7.0074329 -6.3141432 3.312742 4294967295
-3.534493 -7.3835421 2.4209249 4294967295
-3.6229081 -6.817462 2.037689 4294967295
-3.8749249 -6.1687231 1.405286 4294967295
-3.8988061 -6.3539648 2.143419 4294967295
-3.1882401 -7.5354538 1.665681 4294967295
-3.378314 -7.293612 1.918561 4294967295
-3.2602601 -7.0579929 1.330884 4294967295
0.54069799 -7.4195309 3.4700351 4294967295
0.92405099 -7.0012889 3.0533249 4294967295
1.077741 -7.5487151 2.5512249 4294967295
1.7871571 -6.8296452 2.1363621 4294967295
1.368703 -6.8414841 2.6238 4294967295
1.773778 -6.579474 2.7153349 4294967295
2.754041 -6.8407311 2.0809309 4294967295
2.8642969 -7.2453151 2.616374 4294967295
2.156286 -6.648818 2.8503439 4294967295
2.542402 -6.8637481 2.6173019 4294967295
7.1851611 -7.2342038 2.258925 4294967295
7.0189691 -7.480247 2.8534629 4294967295
6.8699312 -6.927958 2.6866069 4294967295
6.5872431 -6.6834469 3.1345911 4294967295
-9.3454056 -4.4724879 1.996672 4294967295
-8.2216597 -5.806972 3.4883001 4294967295
-8.5944357 -5.2170982 3.5176749 4294967295
-8.8694115 -3.957062 4.4066582 4294967295
-9.5730009 -4.088131 2.2522061 4294967295
-9.3486319 -4.7081509 1.9540271 4294967295
-9.299346 -4.4448552 2.691586 4294967295
-8.0904646 -4.6374278 3.530654 4294967295
-7.6291718 -4.8972182 3.0238631 4294967295
-7.3629279 -4.8557549 2.623646 4294967295
-7.182333 -5.4486299 2.871716 4294967295
-7.0740538 -5.0926909 2.4724009 4294967295
-5.1025329 -4.835731 2.0767341 4294967295
-4.9093132 -4.9299011 2.675662 4294967295
-4.49438 -5.5058641 1.895366 4294967295
-4.170969 -5.988307 2.3828189 4294967295
-4.665246 -5.294517 2.809582 4294967295
-4.4265709 -5.6603079 2.690933 4294967295
6.2425661 -5.2673569 3.0191431 4294967295
6.4665699 -5.33605 2.5782261 4294967295
6.6772399 -6.1374111 2.5545061 4294967295
6.8171048 -5.4001851 1.9022141 4294967295
-9.0371456 -3.18187 2.1629021 4294967295
-9.4313641 -3.683996 2.197835 4294967295
-9.279108 -3.0545321 2.1606531 4294967295
-9.1740437 -3.2429619 2.0483019 4294967295
-8.6550293 -3.2391059 1.842098 4294967295
-8.6037607 -3.32816 1.984303 4294967295
-8.4734945 -3.4433639 2.0845981 4294967295
-8.4406118 -3.6748769 2.477787 4294967295
-8.9795218 -3.3002181 2.445575 4294967295
-8.7046547 -3.745214 3.109704 4294967295
-7.6148882 -3.969331 2.106215 4294967295
-8.0487309 -3.8250761 2.2818849 4294967295
-7.5839901 -4.464303 2.5284581 4294967295
-6.2582369 -3.510875 2.0083499 4294967295
-6.1003318 -3.42504 2.251205 4294967295
-5.7728429 -4.0911808 2.1064129 4294967295
-5.785038 -3.8165121 2.3762801 4294967295
-5.1934381 -4.5687609 2.4943521 4294967295
-5.453701 -4.2792168 2.3562701 4294967295
5.9564118 -4.6786199 3.3705821 4294967295
5.87325 -4.0295682 3.3560481 4294967295
6.5781651 -3.3870549 1.923696 4294967295
6.2692351 -4.7239251 2.7492759 4294967295
6.279779 -3.9347639 2.5498381 4294967295
6.078311 -4.325511 3.019244 4294967295
-6.2779579 -2.78089 2.599525 4294967295
-6.291544 -3.104238 2.207289 4294967295
-6.5762868 -2.531863 2.0815289 4294967295
-6.8978219 -2.25967 1.594533 4294967295
-6.0703559 -3.0365579 2.936254 4294967295
-5.9025688 -3.4363301 2.690892 4294967295
5.8242621 -3.224864 3.417011 4294967295
6.0816731 -2.905129 3.0246761 4294967295
6.2988448 -3.1251681 2.532335 4294967295
6.33919 -2.502291 2.701874 4294967295
6.676003 -2.001405 2.3070641 4294967295
6.8844681 -1.7987061 1.785503 4294967295
-6.8579311 -1.83611 1.847096 4294967295
-7.1006269 -1.1137511 1.4582011 4294967295
-7.0173869 -1.102882 2.042048 4294967295
7.3784099 -1.135815 2.586251 4294967295
6.918839 -1.592666 2.0650661 4294967295
7.176455 -1.066246 1.701014 4294967295
7.109107 -1.302467 2.3618901 4294967295
7.7470708 -1.025561 2.7379651 4294967295
-7.716773 0.50950199 2.4359839 4294967295
-7.472095 0.275994 1.455384 4294967295
-7.3100281 -0.24448501 1.960868 4294967295
-7.5768929 0.33696201 2.108762 4294967295
7.7635241 -0.620489 2.335057 4294967295
7.6570559 -0.39484 2.4975181 4294967295
7.2975039 0.235388 1.522264 4294967295
7.4853649 -0.196611 1.953902 4294967295
8.0358849 -0.92204702 2.7489779 4294967295
7.8606162 -0.65149301 2.793412 4294967295
-8.0357313 0.92397702 2.748873 4294967295
-8.8624067 1.856138 3.161658 4294967295
-7.7660899 0.62069398 2.3369019 4294967295
-7.7246141 1.038805 2.7413111 4294967295
-7.3038468 1.193791 2.59797 4294967295
-7.0021191 1.460886 1.798526 4294967295
-6.998662 1.439636 2.3800709 4294967295
7.0315251 1.337963 1.5639091 4294967295
7.153945 0.67625201 1.8645591 4294967295
6.9290118 1.313501 2.1571219 4294967295
-8.9242859 1.870687 3.1409941 4294967295
-8.7930412 1.886732 3.2021689 4294967295
-8.790143 1.904521 3.210402 4294967295
-6.2447529 2.659451 2.8080001 4294967295
-6.5561562 2.1593881 2.478086 4294967295
-6.6807351 2.322757 1.96378 4294967295
-6.7605438 1.8882771 2.1739061 4294967295
-6.049582 2.9381931 3.0727999 4294967295
6.0488262 3.0753181 2.93506 4294967295
6.243845 2.809711 2.6594181 4294967295
6.5566139 2.4788129 2.1575539 4294967295
6.6808491 1.963653 2.3214879 4294967295
6.7607179 2.1745031 1.8877439 4294967295
8.7942333 3.2016921 1.886765 4294967295
8.9240112 3.141346 1.871358 4294967295
8.7917929 3.2097969 1.904821 4294967295
-6.3088222 4.990252 2.7577469 4294967295
-6.2410378 3.2646501 2.6224871 4294967295
-6.235415 4.151545 2.667577 4294967295
-6.4660368 3.910156 2.1737959 4294967295
-5.836493 3.160496 3.4044089 4294967295
-6.0770311 4.4251232 3.0449531 4294967295
-5.846539 3.9468369 3.3912959 4294967295
5.9370279 3.4381421 2.577733 4294967295
5.8736262 4.1429019 1.982471 4294967295
5.879077 3.743228 2.3028281 4294967295
5.5884061 4.1275511 2.3409691 4294967295
6.4077759 3.2691109 1.96085 4294967295
6.136837 3.4543381 2.1712129 4294967295
6.3633418 2.948209 2.186897 4294967295
7.687582 3.584846 1.800028 4294967295
8.7095566 3.1754129 1.741622 4294967295
8.7050695 3.2146859 1.828059 4294967295
8.5664673 3.2388539 1.766727 4294967295
8.2184811 3.396363 1.815825 4294967295
8.4979887 3.3399429 1.915241 4294967295
8.9881506 3.162457 1.8979011 4294967295
8.9702797 3.1271031 1.886495 4294967295
8.9702225 3.128412 1.887489 4294967295
8.8421288 3.1989059 1.9305331 4294967295
-6.1184602 5.4176502 3.3583231 4294967295
-5.9596639 4.7725892 3.396457 4294967295
4.4774842 5.5112128 2.35358 4294967295
4.5362892 5.466413 1.85665 4294967295
5.2479181 4.5092111 2.4572589 4294967295
5.1270862 4.8519478 1.997173 4294967295
4.9438181 4.8783889 2.6760609 4294967295
4.7187281 5.2100949 2.803566 4294967295
7.5299129 4.4333129 2.4465749 4294967295
7.6163559 3.895833 2.042578 4294967295
7.2471619 4.6554179 2.3547449 4294967295
6.9861088 5.0138822 2.3339319 4294967295
9.3124142 4.5874729 2.383527 4294967295
9.0217972 3.7390089 4.2695079 4294967295
8.8601685 3.4676371 2.6941719 4294967295
8.8168373 3.2505929 2.0364909 4294967295
8.1576567 4.324039 3.1502039 4294967295
7.6792789 4.5961719 2.774348 4294967295
9.5474014 3.1363659 2.3492651 4294967295
9.306715 3.045459 2.1860681 4294967295
9.2671328 3.1098349 2.1443689 4294967295
-2.547292 6.8693051 2.6201279 4294967295
-2.768513 6.8511591 2.083447 4294967295
-1.816141 6.8297601 2.1000929 4294967295
-1.390422 6.8434458 2.5952821 4294967295
-2.159395 6.650928 2.853245 4294967295
-1.783679 6.5803661 2.709003 4294967295
-0.94969201 7.0090852 3.0127499 4294967295
3.201822 7.1475439 1.292562 4294967295
3.3715911 7.3507771 1.956045 4294967295
3.651464 6.8100252 2.1124499 4294967295
3.878135 6.1726089 1.448809 4294967295
3.9682381 6.260879 2.201561 4294967295
4.267952 5.8181391 2.308181 4294967295
7.1298161 5.2532492 2.646153 4294967295
7.1373582 5.792604 3.0944531 4294967295
7.0689368 6.2300959 3.370712 4294967295
8.631134 5.3690958 3.195605 4294967295
8.1232729 6.1725578 3.0727119 4294967295
7.5800319 6.0150661 4.4690518 4294967295
7.3358378 6.1400661 3.9088681 4294967295
-6.7799191 7.9049482 2.2642641 4294967295
-6.62921 7.7930598 2.9683061 4294967295
-5.2126198 9.1176262 1.789917 4294967295
-4.7338309 9.278264 2.233557 4294967295
-6.131609 8.2757025 2.7441931 4294967295
-5.378953 8.8596535 2.4882939 4294967295
-3.622762 9.2982569 2.0436139 4294967295
-4.076932 9.5586348 2.341604 4294967295
-3.543751 9.8052549 2.1735001 4294967295
-3.1281619 9.4893894 3.1279941 4294967295
-3.1688161 9.7033358 3.027602 4294967295
-3.5825059 9.6563644 2.717952 4294967295
-3.2093539 9.3561029 2.9468379 4294967295
-3.123049 9.0079575 3.1023819 4294967295
-3.1959009 8.8399763 2.913795 4294967295
-3.339653 8.2641478 2.4331901 4294967295
-3.093689 7.909709 2.748214 4294967295
-2.8585801 7.2414551 2.6179831 4294967295
-1.119876 7.5898089 2.463413 4294967295
-1.0381629 8.74471 2.4415059 4294967295
-1.281127 8.2782583 1.967325 4294967295
-0.56502199 7.4524102 3.4213271 4294967295
-0.84733301 9.2936172 3.0157499 4294967295
-0.57742602 8.7294054 3.4702849 4294967295
2.8688109 8.2568512 1.377534 4294967295
3.0991311 8.5473928 2.016413 4294967295
3.149652 7.682683 1.691296 4294967295
3.5657439 7.4044342 2.520865 4294967295
3.5279801 8.3201599 2.933111 4294967295
3.3232479 8.7881861 2.589951 4294967295
-4.3577452 9.5220909 1.938915 4294967295
-4.5035992 9.5239353 1.551762 4294967295
-3.9329519 9.8135061 1.283012 4294967295
-4.1601739 9.6618977 1.656719 4294967295
-3.7102909 9.8197851 1.790439 4294967295
-1.045416 9.5445433 2.615133 4294967295
-1.225788 10.266683 2.5430751 4294967295
-1.321129 10.039042 2.143466 4294967295
-0.67149699 9.4363413 3.5420771 4294967295
-0.47454101 10.208268 3.0091071 4294967295
-0.78385103 9.997426 3.6230831 4294967295
2.1461091 10.261551 1.888322 4294967295
0.43904999 10.186849 3.1122279 4294967295
1.255033 10.268404 2.549474 4294967295
1.260743 10.075075 3.23665 4294967295
3.1756699 9.276351 2.320905 4294967295
3.0712149 9.7729521 2.071548 4294967295
3.288192 9.6613369 2.5605819 4294967295
3.2531791 9.7066431 2.930114 4294967295
2.2589459 9.8827868 3.2649181 4294967295
3.519809 9.02526 3.069427 4294967295
3.520129 9.4520845 3.0795929 4294967295
0.97147799 10.487291 1.614357 4294967295
0.28396299 10.446762 2.0830081 4294967295
1.273585 10.373578 2.075798 4294967295
-3.7124579 -9.2184715 3.5001979 4294967295
-3.9093001 -9.0979414 3.918432 4294967295
-3.3198249 -9.2358789 4.1452212 4294967295
-2.574929 -9.4592123 4.1830301 4294967295
-2.658191 -9.6928377 3.5538361 4294967295
-0.54025197 -9.8726444 3.9733779 4294967295
-0.36908701 -9.6691303 4.4645648 4294967295
-1.521051 -9.6279507 4.3286042 4294967295
0.415216 -9.6579781 4.4926229 4294967295
0.57455403 -9.8074532 4.10641 4294967295
0.313494 -9.3021317 4.4844508 4294967295
3.025115 -9.2349815 3.3531151 4294967295
2.973556 -9.612896 3.475184 4294967295
2.9314051 -9.4473886 3.5728731 4294967295
-4.17314 -8.7257204 4.4556499 4294967295
-3.9204719 -8.9305553 3.934854 4294967295
-4.0173421 -8.2916899 4.052124 4294967295
-3.7320819 -7.8716011 3.229177 4294967295
-3.86099 -8.7722797 4.6501918 4294967295
-3.634506 -9.0331221 4.3160462 4294967295
0.277179 -8.0710621 3.969614 4294967295
0.14468201 -8.4900341 4.4081678 4294967295
0.011098 -7.8488612 4.4813051 4294967295
2.7652371 -8.7016869 3.8452289 4294967295
2.9146831 -8.9299765 3.560514 4294967295
2.79667 -8.0993443 3.5165589 4294967295
2.884244 -7.6372948 2.998178 4294967295
2.779773 -9.4898338 3.942234 4294967295
2.857857 -9.5496998 3.7393031 4294967295
3.2174489 -9.6240759 3.232733 4294967295
2.928519 -9.4550381 3.9343879 4294967295
3.31549 -9.3349247 3.9264009 4294967295
6.275548 -7.2760768 4.6014462 4294967295
5.9394689 -7.6699128 4.4086509 4294967295
5.421567 -8.3679056 3.7823241 4294967295
4.4341421 -8.8892822 3.8613851 4294967295
5.2704749 -8.7312927 3.089221 4294967295
6.7858958 -7.4722171 3.413023 4294967295
6.5920401 -7.4165869 3.862576 4294967295
6.3066168 -7.669095 3.8619289 4294967295
-7.4501891 -5.9499888 3.961139 4294967295
-7.2979879 -5.7057109 3.3107989 4294967295
-7.420042 -5.7616291 3.6326649 4294967295
-3.909992 -7.432508 3.4188621 4294967295
-4.0149512 -6.804915 3.1814921 4294967295
-4.2108812 -6.955502 3.854254 4294967295
0.70598799 -6.5911279 3.5849459 4294967295
0.49551401 -6.253859 4.033844 4294967295
-0.100769 -7.0187149 4.5589089 4294967295
0.15228 -6.2869272 4.3445821 4294967295
0.88783801 -6.1653509 3.8670621 4294967295
1.270124 -6.1541018 3.963532 4294967295
1.656545 -6.3852258 3.7466969 4294967295
1.845055 -6.5039868 3.2309861 4294967295
2.459295 -7.0153861 3.170759 4294967295
2.663275 -7.4449382 3.292695 4294967295
2.050765 -6.7240758 3.6637189 4294967295
2.2877569 -6.969018 3.539001 4294967295
-7.5448489 -5.8044572 4.006341 4294967295
-7.8582411 -5.5692511 4.5855322 4294967295
-7.7945871 -5.13484 3.6267929 4294967295
-7.726933 -5.5457592 4.1083951 4294967295
-7.4951038 -5.5908022 3.585546 4294967295
-4.8853369 -5.0173488 3.2275701 4294967295
-4.9334769 -5.1953902 3.9764841 4294967295
-4.482316 -5.8385639 3.3947821 4294967295
-4.41856 -6.599762 4.1334109 4294967295
-4.8314972 -5.7315741 4.4254889 4294967295
-4.6436071 -6.0699801 4.2448282 4294967295
-4.825048 -6.218482 4.9022899 4294967295
0.43765101 -5.9019752 4.370028 4294967295
0.71998799 -5.7985339 4.462388 4294967295
0.967462 -5.9623709 4.239923 4294967295
5.7003012 -5.188313 4.1569219 4294967295
-5.0854001 -4.715632 3.4766309 4294967295
-5.2531662 -4.396554 2.9201491 4294967295
-5.3403282 -4.2832289 3.647058 4294967295
5.6260438 -3.7917891 3.782948 4294967295
5.4989271 -4.485323 4.230494 4294967295
5.3349719 -3.532093 4.2726159 4294967295
-6.307034 -2.5346749 3.0431321 4294967295
-6.2755871 -2.554024 3.915993 4294967295
-5.8316088 -3.3933301 3.3297789 4294967295
-5.6243119 -3.7930391 3.832902 4294967295
-6.0736198 -3.03158 4.3376842 4294967295
-5.872098 -3.366884 4.0675349 4294967295
-5.9565568 -3.374454 4.689002 4294967295
5.9398761 -2.6963069 3.3765781 4294967295
5.8503761 -2.3092389 3.784657 4294967295
5.2475572 -2.9583509 4.4110212 4294967295
5.5157652 -2.3570199 4.212409 4294967295
6.160593 -2.225853 3.35144 4294967295
6.3998318 -2.0942061 3.006079 4294967295
8.654767 -1.948321 3.2882891 4294967295
8.4992657 -2.026907 3.399169 4294967295
8.0810547 -2.185179 3.73119 4294967295
8.4595222 -2.435874 3.639796 4294967295
8.9917192 -2.4333 3.2891829 4294967295
9.0434895 -2.158587 3.1775739 4294967295
9.2812357 -2.162466 3.053798 4294967295
-6.6259751 -1.828458 3.2625151 4294967295
-6.980413 -1.0810061 2.770828 4294967295
-7.2451291 -0.66541803 3.914845 4294967295
-6.9509702 -1.1793979 3.6431849 4294967295
5.8441191 -1.992635 4.1602001 4294967295
7.715445 -1.952158 3.738107 4294967295
7.229537 -1.842405 3.843488 4294967295
6.9012852 -1.599841 3.0094459 4294967295
6.453423 -1.9225971 3.258028 4294967295
6.5970011 -1.787066 3.594156 4294967295
6.7262731 -1.809891 3.9912529 4294967295
6.2535949 -1.83569 4.1150932 4294967295
8.7547979 -1.794134 3.180613 4294967295
8.6165867 -1.808494 3.238488 4294967295
8.7549601 -1.679788 3.133146 4294967295
8.6825342 -1.581109 3.2574699 4294967295
7.9284778 -1.17775 2.940336 4294967295
7.7824941 -1.559572 3.3034279 4294967295
8.4687624 -1.359475 3.201133 4294967295
8.300458 -1.208339 2.9810481 4294967295
9.1753168 -2.0492859 3.2441831 4294967295
8.9494896 -1.867467 3.130188 4294967295
8.9626541 -1.85702 3.2593069 4294967295
8.8251743 -1.728272 3.243947 4294967295
7.4293518 0.317772 3.836549 4294967295
7.4805951 0.081242003 3.1833391 4294967295
8.2536602 -1.102182 3.181942 4294967295
8.0493755 -0.87723398 2.9903541 4294967295
7.9718351 -0.55326098 3.8499701 4294967295
-8.9450083 1.86265 3.129986 4294967295
-8.9925451 1.892506 3.2194581 4294967295
-8.9067469 1.79989 3.291059 4294967295
-8.7977934 1.816147 3.1727481 4294967295
-8.7745314 1.6988699 3.135056 4294967295
-8.7537537 1.641274 3.3283269 4294967295
-7.9128318 1.203899 2.9620841 4294967295
-8.4744081 1.357427 3.2383389 4294967295
-8.3191175 1.2283241 2.9924819 4294967295
-8.243701 1.070177 3.2585919 4294967295
-7.7593021 1.553914 3.301764 4294967295
-7.1910601 1.809472 3.797406 4294967295
-6.8538918 1.6312799 3.010088 4294967295
-6.5746231 1.794963 3.5985439 4294967295
-6.7091808 1.806458 3.9777069 4294967295
-6.2490911 1.839399 4.0983782 4294967295
6.837018 1.394805 2.8320341 4294967295
7.1255488 0.79950798 3.4202311 4294967295
6.7708449 1.539006 3.676661 4294967295
-8.9871712 1.896899 3.1627679 4294967295
-8.9698238 1.886078 3.127106 4294967295
-8.9695435 1.886767 3.128484 4294967295
-8.7090921 1.741992 3.175698 4294967295
-8.7039051 1.827937 3.215097 4294967295
-8.567234 1.7676311 3.2390571 4294967295
-8.4985857 1.914456 3.339319 4294967295
-8.8418674 1.930135 3.1989241 4294967295
-6.4085231 1.96149 3.265182 4294967295
-6.3624611 2.1878941 2.949275 4294967295
-8.2163935 1.816292 3.397332 4294967295
-7.68398 1.7988091 3.584949 4294967295
-5.9404969 2.5847919 3.427906 4294967295
-6.1333389 2.178261 3.451529 4294967295
-5.8652892 1.998536 4.1273618 4294967295
-5.8836622 2.313045 3.7269399 4294967295
-5.5717239 2.3956709 4.1130118 4294967295
5.8448968 3.3946769 3.945914 4294967295
5.830853 3.414319 3.159353 4294967295
6.4661379 2.1737771 3.911654 4294967295
6.241097 2.622596 3.264101 4294967295
6.3092728 2.7572081 4.9911199 4294967295
6.2353458 2.6675279 4.1509628 4294967295
6.0771108 3.0445499 4.4246039 4294967295
-5.3896952 2.810447 4.2057009 4294967295
-5.5986929 3.400023 3.7999101 4294967295
-5.3482261 3.6322391 4.267467 4294967295
5.3999562 4.1731992 2.947602 4294967295
5.592339 3.8131549 3.4163351 4294967295
5.3578558 4.2566299 3.6591311 4294967295
-5.8946662 5.2838321 3.7749169 4294967295
-5.9165168 5.8704791 4.1079001 4294967295
-5.3786788 4.5253181 4.5093632 4294967295
-5.6617131 5.254632 4.284122 4294967295
-0.74036598 5.805356 4.4578481 4294967295
4.7432408 6.2592411 4.714416 4294967295
4.5958538 5.9786811 3.984169 4294967295
4.5018249 5.694386 3.177618 4294967295
5.1250472 4.7499352 3.857913 4294967295
4.9036379 5.0025811 3.3164141 4294967295
4.939682 5.2563748 4.111495 4294967295
4.8094339 5.752728 4.377799 4294967295
7.4216752 5.195158 3.014406 4294967295
7.6129851 5.209259 3.3633511 4294967295
7.4597921 5.414587 3.3085461 4294967295
-2.313251 6.9715419 3.4705811 4294967295
-2.461879 7.0144911 3.161037 4294967295
-0.985937 5.967123 4.24227 4294967295
-1.280557 6.156673 3.970746 4294967295
-1.660926 6.3881421 3.758296 4294967295
-1.849687 6.5059919 3.242486 4294967295
-2.0968499 6.7870698 3.7020731 4294967295
-0.74268103 6.565475 3.5650139 4294967295
-0.91813898 6.1597071 3.8650379 4294967295
-0.47758901 5.9082112 4.3459072 4294967295
-0.55254197 6.234869 4.001739 4294967295
-0.218465 6.2994919 4.2691588 4294967295
4.1526198 6.3481941 3.029171 4294967295
4.3499031 6.2419319 3.5362611 4294967295
4.153564 6.9249501 3.689976 4294967295
7.3326721 5.4848838 3.1505091 4294967295
7.2153001 5.7434292 3.189939 4294967295
7.4076691 5.9224739 3.804342 4294967295
7.3486009 5.765666 3.479326 4294967295
7.5291328 5.6309972 3.712883 4294967295
-6.2371669 7.2517171 4.6883359 4294967295
-5.9752932 7.610467 4.458117 4294967295
-6.2406149 7.6634512 3.970876 4294967295
-5.6575761 8.1186838 3.960382 4294967295
-5.455636 8.5476341 3.2902019 4294967295
-2.927247 9.33426 3.576514 4294967295
-3.312005 9.578023 3.2790091 4294967295
-2.832288 9.5393877 3.8026519 4294967295
-4.6615558 8.7399244 3.956399 4294967295
-3.4954109 9.2773476 3.9206009 4294967295
-2.761462 9.0544519 3.925041 4294967295
-2.7623739 8.5457602 3.791158 4294967295
-2.908195 8.621417 3.483237 4294967295
-2.783659 8.0101547 3.4853981 4294967295
-2.6594169 7.4205632 3.2722399 4294967295
-2.9076171 7.6412849 2.949249 4294967295
-0.059285 7.1510081 4.2941751 4294967295
-0.283894 7.946929 3.9349501 4294967295
-0.073778003 8.3519888 4.5305429 4294967295
3.910243 8.7801933 4.5925879 4294967295
4.153625 8.7528782 4.4134889 4294967295
4.0412431 8.4895153 4.1443419 4294967295
4.0603151 7.791513 3.9845541 4294967295
3.7817891 7.9735012 3.39709 4294967295
-0.118307 8.9852991 4.8179221 4294967295
-0.511406 9.7487593 4.2638688 4294967295
-0.29828101 9.5234728 4.754529 4294967295
1.5112979 9.9172916 3.598495 4294967295
-0.007034 9.6574821 4.4930978 4294967295
0.88777399 9.7237253 4.2746582 4294967295
3.6175411 9.0590496 4.276402 4294967295
3.2873781 9.2761412 4.0805702 4294967295
2.54456 9.5298805 4.036201 4294967295
