# .PCD v0.7 - Point Cloud Data file format
VERSION 0.7
FIELDS x y z rgba
SIZE 4 4 4 4
TYPE F F F U
COUNT 1 1 1 1
WIDTH 1138
HEIGHT 1
VIEWPOINT 0 0 0 1 0 0 0
POINTS 1138
DATA ascii
-4.8878808 4.868196 -0.81700897 4294967295
-3.353019 5.0336871 -0.924806 4294967295
-3.234565 5.3537788 -0.78875798 4294967295
3.2350769 5.3522182 -0.92486501 4294967295
3.353081 5.033648 -0.634624 4294967295
4.887383 4.8681092 -0.70368701 4294967295
5.336226 4.967566 -0.75002497 4294967295
5.8346682 5.0739589 -0.75281298 4294967295
6.3360028 5.168026 -0.760732 4294967295
6.831646 5.24296 -0.81819201 4294967295
7.3035822 5.2939649 -0.94921601 4294967295
7.6470461 5.3166862 -0.58458 4294967295
8.6275635 5.3063588 -1.0023251 4294967295
9.0066853 5.2668061 -0.69152302 4294967295
9.5390339 5.1658559 -0.80700999 4294967295
-8.2402449 5.3251328 -0.73061401 4294967295
-7.951045 5.3261752 -0.81234401 4294967295
-3.1613359 5.769227 -0.73605299 4294967295
3.161572 5.7674861 -0.79273099 4294967295
7.9714899 5.3264408 -0.71527898 4294967295
8.2833729 5.32407 -0.83902502 4294967295
-3.1057501 6.2895489 -0.73932999 4294967295
3.1061239 6.2855392 -0.74843103 4294967295
-3.051892 6.8476262 -0.75759202 4294967295
3.052037 6.845983 -0.75748998 4294967295
-2.993196 7.358994 -0.75974798 4294967295
2.994046 7.3520718 -0.76703799 4294967295
-2.9243259 7.8334012 -0.70631099 4294967295
2.9252901 7.827261 -0.75129801 4294967295
-2.851737 8.2357798 -0.587345 4294967295
2.852788 8.2302465 -0.69867802 4294967295
-2.768172 8.6231394 -0.95743197 4294967295
-2.6746681 8.9875908 -0.80080801 4294967295
2.68929 8.9326706 -0.94983703 4294967295
2.776674 8.5851812 -0.58842802 4294967295
-2.585248 9.2858601 -0.68523902 4294967295
2.595274 9.2528801 -0.79713398 4294967295
-2.3509669 9.9137173 -1.212553 4294967295
-2.4085169 9.7806406 -0.78521103 4294967295
2.3289249 9.9679184 -1.170228 4294967295
2.4395089 9.6995964 -0.99486601 4294967295
-2.2002809 10.253474 -1.018424 4294967295
-2.038008 10.480597 -0.91788 4294967295
-2.01141 10.599394 -0.77715498 4294967295
-1.397508 10.497455 -0.96987998 4294967295
-0.75406098 10.44386 -1.042321 4294967295
-0.25073099 10.439319 -1.059718 4294967295
0.25049201 10.423717 -1.0691119 4294967295
0.65847999 10.370567 -1.090027 4294967295
1.103906 10.496922 -0.99133003 4294967295
1.714211 10.484054 -0.94761997 4294967295
2.08937 10.457083 -0.92129397 4294967295
2.271297 10.094331 -0.86009502 4294967295
-1.842443 10.776275 -0.75465298 4294967295
-1.3104171 10.777363 -0.79847902 4294967295
-1.022789 10.989985 -0.68022501 4294967295
-0.873128 10.755466 -0.84102201 4294967295
-0.40968701 10.752972 -0.86034799 4294967295
0.083838999 10.746826 -0.86922503 4294967295
0.63103199 10.713322 -0.87906897 4294967295
1.0615129 10.828262 -0.78325403 4294967295
1.510236 10.840378 -0.74125898 4294967295
1.854562 10.824475 -0.71948099 4294967295
-0.61289299 11.039054 -0.66835701 4294967295
-0.126066 11.048703 -0.67269498 4294967295
0.38834 11.036931 -0.67682999 4294967295
0.83709401 11.008387 -0.67859602 4294967295
-5.7422948 -10.036655 -0.33252501 4294967295
-5.8032351 -10.048368 -0.117725 4294967295
-6.072258 -10.044857 -0.201813 4294967295
-5.3570819 -9.9930649 -0.47366899 4294967295
-5.524601 -10.020049 -0.22968499 4294967295
-5.245832 -9.9655323 -0.122306 4294967295
5.4705958 -10.003251 -0.44162601 4294967295
5.4805112 -10.013169 -0.121368 4294967295
5.2001119 -9.9534702 -0.351758 4294967295
5.9481139 -9.9999685 -0.27841201 4294967295
5.769289 -10.05027 -0.27684399 4294967295
6.1019959 -10.054514 -0.122596 4294967295
-6.8111501 -9.4338627 -0.27024499 4294967295
-6.9337492 -9.8046618 -0.0081160003 4294967295
-7.1191449 -9.4062319 -0.15225101 4294967295
-6.2244401 -9.540247 -0.44386399 4294967295
-6.4415979 -9.9872627 -0.101869 4294967295
-5.6791582 -9.6344948 -0.58402699 4294967295
-5.0004621 -9.9064941 -0.577815 4294967295
-4.4268742 -9.6741333 -0.53361303 4294967295
-4.0263462 -9.4633999 -0.103303 4294967295
4.39537 -9.6601458 -0.122388 4294967295
4.0448942 -9.4731388 -0.49185699 4294967295
4.815712 -9.8367739 -0.42374 4294967295
5.8419662 -9.5165815 -0.59518999 4294967295
6.4970942 -9.9589491 -0.094701998 4294967295
6.4627352 -9.3459806 -0.463314 4294967295
7.0343719 -9.2273235 -0.29317099 4294967295
6.8060279 -9.5808754 -0.184884 4294967295
7.2246828 -9.5684853 -0.013703 4294967295
-7.2522488 -9.0439606 -0.30078799 4294967295
-7.4954729 -9.3028164 -0.032232001 4294967295
-7.6653562 -8.8902016 -0.20226 4294967295
-6.806149 -8.9130936 -0.56441599 4294967295
-3.7091651 -9.269105 -0.26571599 4294967295
-3.4137421 -9.0665522 -0.45693201 4294967295
-3.0949199 -8.8233156 -0.13530099 4294967295
3.386338 -9.0457935 -0.087030999 4294967295
3.0968289 -8.8247395 -0.38267201 4294967295
3.701962 -9.2637863 -0.29801399 4294967295
6.9164639 -8.8200455 -0.56699997 4294967295
7.5020709 -9.1727905 -0.119562 4294967295
7.6154461 -8.8777008 -0.23655599 4294967295
7.6541581 -8.952179 -0.14500099 4294967295
-7.4863381 -8.4161997 -0.53047597 4294967295
-7.8047671 -8.5042648 -0.310868 4294967295
-2.8169391 -8.5924387 -0.380703 4294967295
-2.5450661 -8.3493013 -0.126361 4294967295
2.814847 -8.5906677 -0.128318 4294967295
2.543257 -8.3476686 -0.38545901 4294967295
7.3963661 -8.5619478 -0.49421901 4294967295
7.780035 -8.6041231 -0.27056801 4294967295
-7.8612118 -8.123168 -0.47594899 4294967295
-7.8540092 -8.0989513 -0.033911999 4294967295
-7.8652582 -7.8736 -0.16493601 4294967295
-2.284831 -8.1011105 -0.379834 4294967295
-2.0320859 -7.8460479 -0.12658501 4294967295
2.2842281 -8.100482 -0.126304 4294967295
2.0316219 -7.845582 -0.37973601 4294967295
7.8669572 -7.7736378 -0.376766 4294967295
7.8628678 -8.0602055 -0.47935301 4294967295
7.8651171 -7.8731589 -0.087503001 4294967295
-7.8671222 -7.7381792 -0.35989001 4294967295
-7.8492141 -7.3516178 -0.49026299 4294967295
-1.7865371 -7.5860829 -0.38020101 4294967295
-1.5422291 -7.3177481 -0.12681501 4294967295
1.786206 -7.585763 -0.126403 4294967295
1.542201 -7.3177142 -0.37953401 4294967295
7.8530979 -7.387691 -0.48558399 4294967295
7.865911 -7.6833329 0.017331 4294967295
-7.776123 -6.8425179 -0.35573 4294967295
-1.291624 -7.0358429 -0.37998199 4294967295
-1.033368 -6.7450619 -0.126351 4294967295
1.291406 -7.0356231 -0.125975 4294967295
1.0332201 -6.7449002 -0.37999699 4294967295
7.7767239 -6.8481059 -0.36533299 4294967295
-7.6610398 -6.3557048 -0.192233 4294967295
-0.76631701 -6.4569712 -0.36609599 4294967295
-0.47147301 -6.1835361 -0.055323001 4294967295
0.76617098 -6.4568429 -0.140288 4294967295
0.47159901 -6.1836238 -0.45089799 4294967295
7.662004 -6.3608041 -0.25733 4294967295
-7.5186229 -5.9002819 -0.074304998 4294967295
-0.156672 -6.0042729 -0.19741 4294967295
0.15670501 -6.0042658 -0.308817 4294967295
7.519959 -5.9041271 -0.187822 4294967295
-7.3824372 -5.5330901 -0.42644 4294967295
-7.2378392 -5.1859541 -0.258398 4294967295
7.2385459 -5.1875119 -0.419184 4294967295
7.380187 -5.5274072 -0.074739002 4294967295
-7.0745201 -4.8308668 -0.087908998 4294967295
7.074687 -4.8312631 -0.25063401 4294967295
-6.9027529 -4.487967 -0.41735899 4294967295
-6.7326279 -4.16956 -0.25495601 4294967295
6.7326841 -4.1696391 -0.417041 4294967295
6.9035649 -4.489532 -0.083798997 4294967295
-6.5501351 -3.8443899 -0.089139998 4294967295
6.5502601 -3.844651 -0.250135 4294967295
-6.352757 -3.505095 -0.42539799 4294967295
-6.146976 -3.1556699 -0.26273099 4294967295
-2.1643629 -3.3384471 -0.40917099 4294967295
-1.882751 -3.3535049 -0.233641 4294967295
-1.5890909 -3.2797971 -0.070666 4294967295
1.58911 -3.279788 -0.43565401 4294967295
1.882581 -3.353471 -0.272607 4294967295
2.1636691 -3.3385501 -0.101114 4294967295
6.1468921 -3.1555021 -0.42908901 4294967295
6.353714 -3.506736 -0.087664001 4294967295
-5.944952 -2.800163 -0.099849999 4294967295
-2.609309 -2.8784881 -0.41614601 4294967295
-2.427331 -3.1977201 -0.135047 4294967295
-1.275888 -3.122046 -0.370341 4294967295
-0.96935201 -2.8961401 -0.125754 4294967295
0.969329 -2.896111 -0.38056201 4294967295
1.275911 -3.1220701 -0.135965 4294967295
2.426677 -3.198297 -0.41471499 4294967295
2.6091111 -2.8796389 -0.27611899 4294967295
5.9439821 -2.7984729 -0.26699799 4294967295
-5.7758989 -2.456501 -0.44687799 4294967295
-5.6769161 -2.138319 -0.32901999 4294967295
-2.6259861 -2.398262 -0.23495001 4294967295
-0.674366 -2.6175721 -0.353789 4294967295
-0.35561299 -2.2548699 -0.036718 4294967295
0.355661 -2.25491 -0.46968099 4294967295
0.67434698 -2.6175859 -0.15260801 4294967295
2.626179 -2.39907 -0.208672 4294967295
5.6767368 -2.1358531 -0.37253001 4294967295
5.7746291 -2.4538281 -0.090810001 4294967295
-5.6899228 -1.856409 -0.253245 4294967295
-2.493309 -1.906489 -0.074335001 4294967295
-0.100398 -2.0069931 -0.183314 4294967295
0.100354 -2.006984 -0.32309499 4294967295
2.492588 -1.9043061 -0.16408999 4294967295
5.6903019 -1.856781 -0.094904996 4294967295
-6.1117358 -1.410331 -0.061857 4294967295
-6.4487739 -1.232204 -0.40833399 4294967295
-5.8406181 -1.614949 -0.185206 4294967295
-2.30056 -1.484562 -0.46357101 4294967295
-2.0183761 -1.009515 -0.35787699 4294967295
2.298286 -1.480165 -0.071286999 4294967295
2.0173011 -1.007737 -0.38249201 4294967295
5.8387942 -1.616798 -0.270096 4294967295
6.1093121 -1.411629 -0.43540499 4294967295
6.447927 -1.232645 -0.098754004 4294967295
-7.2178559 -0.890477 -0.079109997 4294967295
-7.5721331 -0.73393798 -0.420059 4294967295
-6.8240361 -1.061787 -0.24438199 4294967295
-1.863728 -0.66491699 -0.266004 4294967295
1.8648829 -0.66633803 -0.139236 4294967295
6.8240762 -1.061739 -0.26226801 4294967295
7.2177339 -0.89047998 -0.42742699 4294967295
7.5719581 -0.73401499 -0.085979 4294967295
-8.2627268 -0.40633401 -0.089074999 4294967295
-8.5952387 -0.232383 -0.42046201 4294967295
-7.9165139 -0.575324 -0.25681001 4294967295
-2.451165 -0.27728 -0.42596099 4294967295
-2.0132411 -0.46934 -0.100976 4294967295
2.0086269 -0.471964 -0.37833199 4294967295
2.448746 -0.27823901 -0.07508 4294967295
7.9163952 -0.57544398 -0.24926101 4294967295
8.2623014 -0.40648201 -0.41722301 4294967295
8.5959864 -0.23197 -0.084995002 4294967295
-9.2375984 0.14537901 -0.081772 4294967295
-9.5359564 0.34467599 -0.374235 4294967295
-8.9218359 -0.048131999 -0.25547901 4294967295
-3.566365 0.43416399 -0.44100001 4294967295
-3.2244599 0.139149 -0.103039 4294967295
-2.8718281 -0.079163998 -0.26232001 4294967295
2.870929 -0.079692997 -0.254107 4294967295
3.224771 0.139348 -0.49019799 4294967295
3.5661769 0.43383801 -0.35842499 4294967295
8.9234657 -0.047293998 -0.25113001 4294967295
9.2386894 0.14606801 -0.42376399 4294967295
9.5323124 0.342143 -0.13717601 4294967295
-9.8221045 0.55405098 -0.123962 4294967295
-10.12084 0.79617703 -0.40841201 4294967295
-3.828614 0.850815 -0.277051 4294967295
3.828856 0.85146999 -0.29179499 4294967295
9.8298941 0.559533 -0.417216 4294967295
10.118855 0.79482198 -0.173254 4294967295
-10.398597 1.0490659 -0.121243 4294967295
-10.748635 1.423684 -0.464479 4294967295
-3.8228109 1.297092 -0.095445998 4294967295
3.8225009 1.298196 -0.21260799 4294967295
10.411661 1.064193 -0.51563901 4294967295
10.685456 1.351404 -0.280608 4294967295
-11.009532 1.765061 -0.57741398 4294967295
-10.936667 1.666741 -0.109134 4294967295
-11.102495 1.916375 -0.342078 4294967295
-3.5048831 1.6165659 -0.372143 4294967295
-3.099437 1.746488 -0.093019001 4294967295
-2.2085891 1.743387 -0.055992998 4294967295
-2.5566411 1.774888 -0.40512401 4294967295
-1.615518 1.616017 -0.219568 4294967295
-1.248435 1.565348 -0.41350001 4294967295
-1.084824 1.705976 -0.25200099 4294967295
1.2455389 1.5653909 -0.115173 4294967295
1.0856529 1.706674 -0.412204 4294967295
1.613553 1.615505 -0.28968701 4294967295
2.208358 1.743369 -0.450322 4294967295
2.556648 1.774892 -0.101094 4294967295
3.5032411 1.617462 -0.071925998 4294967295
3.0982709 1.74665 -0.403348 4294967295
10.925017 1.651924 -0.38043299 4294967295
11.077628 1.872964 -0.54729599 4294967295
11.065657 1.85831 -0.218582 4294967295
-11.118608 1.981227 -0.51780498 4294967295
-11.2824 2.237015 -0.349141 4294967295
-2.810987 1.77487 -0.263798 4294967295
-1.0297509 2.1486111 -0.200734 4294967295
1.030383 2.14065 -0.28670201 4294967295
2.810621 1.7748621 -0.24258 4294967295
11.077442 2.3195541 -0.49254501 4294967295
11.258326 2.1758759 -0.36108899 4294967295
-11.035148 2.5394239 -0.488693 4294967295
-11.443821 2.6965101 -0.188171 4294967295
-0.95277798 2.7732141 -0.17968699 4294967295
0.95416999 2.7669351 -0.24012899 4294967295
11.000541 2.904917 -0.45220199 4294967295
11.434218 2.650254 -0.199156 4294967295
-10.914311 3.176868 -0.46005899 4294967295
-11.522464 3.3412559 -0.019361001 4294967295
-0.83786899 3.1841941 -0.079604 4294967295
0.83868802 3.1822519 -0.200038 4294967295
10.825104 3.4794431 -0.45733699 4294967295
11.507728 3.266691 -0.038004 4294967295
-10.942583 3.777318 -0.31328201 4294967295
-11.3575 3.8872931 -0.004617 4294967295
-10.532296 3.6868689 -0.60040599 4294967295
-0.68231702 3.525301 -0.365502 4294967295
-0.45923001 3.816401 -0.064551003 4294967295
0.68247002 3.5251751 -0.087401003 4294967295
0.45883 3.8166959 -0.43575299 4294967295
10.457577 3.8716359 -0.60546201 4294967295
10.848242 4.060328 -0.307751 4294967295
11.343345 3.798028 -0.030877 4294967295
-10.982037 4.1524081 -0.193544 4294967295
-10.828439 4.5546398 -0.18803 4294967295
-10.501805 4.3253088 -0.466616 4294967295
-0.163194 3.996563 -0.200303 4294967295
0.162974 3.9965889 -0.306164 4294967295
10.403271 4.513042 -0.478071 4294967295
10.864107 4.5083132 -0.18480401 4294967295
11.201401 4.1961112 -0.024123 4294967295
-10.531039 4.76192 -0.33259001 4294967295
-10.572299 4.7382908 -0.045598999 4294967295
-10.121311 4.9439611 -0.53712702 4294967295
-4.5080471 4.7905798 -0.42592701 4294967295
-4.1490002 4.7368369 -0.13097 4294967295
-3.8117659 4.7347388 -0.38084599 4294967295
-3.54059 4.8266821 -0.133174 4294967295
3.5401559 4.826931 -0.37707201 4294967295
3.811568 4.7347579 -0.125457 4294967295
4.1490788 4.7368231 -0.37531301 4294967295
4.5079889 4.790606 -0.080458999 4294967295
9.9940233 4.9997001 -0.59874803 4294967295
10.361189 4.8626862 -0.401198 4294967295
10.607532 4.722096 -0.268206 4294967295
-10.252778 4.913209 -0.256055 4294967295
-9.8661976 5.0795169 -0.60670602 4294967295
-9.2973089 5.2181001 -0.266693 4294967295
-8.9377003 5.2756848 -0.45272201 4294967295
-8.5608034 5.311255 -0.089033999 4294967295
-7.6432552 5.3164639 -0.42973301 4294967295
-7.2717199 5.2910662 -0.079842001 4294967295
-6.8347802 5.2433858 -0.20243099 4294967295
-6.341898 5.1690602 -0.25654301 4294967295
-5.8356838 5.0741711 -0.26136401 4294967295
-5.33602 4.9675369 -0.26278201 4294967295
-4.8874421 4.8681102 -0.309158 4294967295
-3.35303 5.033669 -0.41852799 4294967295
-3.2345791 5.3537502 -0.28246701 4294967295
3.23507 5.3522358 -0.41857201 4294967295
3.3530569 5.033689 -0.128282 4294967295
4.8873382 4.8681002 -0.197208 4294967295
5.3363938 4.9675932 -0.24360301 4294967295
5.835186 5.0740199 -0.246402 4294967295
6.3372941 5.1682372 -0.25385401 4294967295
6.8290992 5.242579 -0.30550399 4294967295
7.2725019 5.2911139 -0.42683399 4294967295
7.6365132 5.3161821 -0.082033999 4294967295
8.5782557 5.3103628 -0.47276399 4294967295
8.9565029 5.2730398 -0.112904 4294967295
9.4250393 5.1924629 -0.27027601 4294967295
9.9814119 5.0295968 -0.331168 4294967295
10.352578 4.8623939 -0.114433 4294967295
-8.2398005 5.3251748 -0.21781801 4294967295
-7.9490552 5.3262129 -0.304333 4294967295
-3.161361 5.769104 -0.229589 4294967295
3.161593 5.7674551 -0.28646901 4294967295
7.9488478 5.3261881 -0.207056 4294967295
8.2425814 5.325089 -0.30994001 4294967295
-3.10571 6.2899461 -0.233758 4294967295
3.106066 6.2861142 -0.243194 4294967295
-3.05161 6.85045 -0.251266 4294967295
3.0516491 6.8501949 -0.25082201 4294967295
-2.9929781 7.3605251 -0.25152901 4294967295
2.9931531 7.3592148 -0.25862601 4294967295
-2.924479 7.8324442 -0.198846 4294967295
2.924612 7.831521 -0.243735 4294967295
-2.8519299 8.2346802 -0.079550996 4294967295
2.8522379 8.2331495 -0.192094 4294967295
-2.7746179 8.5942106 -0.42868599 4294967295
-2.6824689 8.9580841 -0.30371499 4294967295
2.684334 8.9508877 -0.427701 4294967295
2.775604 8.5898142 -0.081591003 4294967295
-2.558187 9.3703413 -0.233872 4294967295
2.5636041 9.3532324 -0.339811 4294967295
-2.414279 9.7637863 -0.091476999 4294967295
2.424432 9.7380075 -0.220644 4294967295
-2.237731 10.166549 -0.45335701 4294967295
-2.116745 10.401653 -0.165113 4294967295
2.1247721 10.386657 -0.44049799 4294967295
2.26758 10.102654 -0.13026699 4294967295
-1.748185 10.991386 -0.59903598 4294967295
-1.891729 10.779305 -0.13574301 4294967295
-1.446337 11.031475 -0.62203199 4294967295
1.2472759 11.114904 -0.58242798 4294967295
1.631318 11.131775 -0.53322399 4294967295
1.9127589 10.748013 -0.387849 4294967295
-1.663885 11.084812 -0.249559 4294967295
-1.468684 11.306151 -0.057082001 4294967295
-1.504276 11.279461 -0.440788 4294967295
-0.96774101 11.343431 -0.447027 4294967295
-0.39158499 11.403502 -0.42930299 4294967295
0.148211 11.410057 -0.42890301 4294967295
0.775011 11.37204 -0.43802401 4294967295
1.3586839 11.410527 -0.37660801 4294967295
1.484166 11.287928 -0.24792799 4294967295
1.6677819 11.080964 -0.110455 4294967295
-1.1520849 11.60078 -0.230781 4294967295
-0.76394802 11.809855 -0.134087 4294967295
-0.134498 11.952073 -0.038504001 4294967295
0.44627899 11.953475 -0.037934002 4294967295
1.007745 11.696985 -0.19212 4294967295
1.285995 11.477358 -0.135986 4294967295
-5.7693472 -10.050307 0.27690801 4294967295
-6.101903 -10.054416 0.122811 4294967295
-5.4804888 -10.013158 0.121411 4294967295
-5.2001219 -9.9534435 0.35181499 4294967295
5.5246339 -10.020047 0.229669 4294967295
5.2459002 -9.9655342 0.122361 4294967295
5.803319 -10.048325 0.117842 4294967295
6.071878 -10.044804 0.201397 4294967295
-6.8068552 -9.5770969 0.186811 4294967295
-7.2331901 -9.5615292 0.014339 4294967295
-6.4968801 -9.9590397 0.094824001 4294967295
-4.8157248 -9.8367596 0.42372599 4294967295
-4.3955588 -9.6603107 0.122192 4294967295
-4.0451851 -9.4733028 0.49206999 4294967295
4.4267511 -9.6740007 0.53359401 4294967295
4.026154 -9.463233 0.103205 4294967295
5.0003648 -9.9066048 0.57792997 4294967295
6.4412389 -9.9872847 0.101861 4294967295
6.9331112 -9.8054657 0.0079140002 4294967295
7.1066718 -9.4148455 0.152769 4294967295
-7.5080872 -9.1648779 0.121626 4294967295
-7.6745901 -8.9255114 0.15288 4294967295
-3.7019341 -9.2638245 0.29848599 4294967295
-3.3862579 -9.0457087 0.087312996 4294967295
-3.096894 -8.8248978 0.38277301 4294967295
3.413996 -9.0667295 0.45701 4294967295
3.0948501 -8.8232689 0.135304 4294967295
3.70927 -9.2692118 0.265688 4294967295
7.4920268 -9.3087873 0.030397 4294967295
7.7030711 -8.8358574 0.200343 4294967295
-7.8144579 -8.406868 0.38455999 4294967295
-2.814595 -8.5904589 0.128323 4294967295
-2.543144 -8.3475666 0.38533801 4294967295
2.8170099 -8.5924921 0.38062301 4294967295
2.545018 -8.3493176 0.12660199 4294967295
7.7924509 -8.5231581 0.303828 4294967295
-7.8599401 -8.0046396 0.29923701 4294967295
-7.8655372 -7.8584399 0.100256 4294967295
-2.2844801 -8.100728 0.126399 4294967295
-2.0316839 -7.8456659 0.379704 4294967295
2.2849491 -8.1011553 0.37983799 4294967295
2.032083 -7.8460302 0.12634499 4294967295
7.8487201 -8.2117634 0.394559 4294967295
7.8650532 -7.869751 0.25011501 4294967295
-7.8654418 -7.6748848 0.0062040002 4294967295
-7.855752 -7.4199572 0.300984 4294967295
-1.786268 -7.5857911 0.126405 4294967295
-1.542205 -7.317739 0.379493 4294967295
1.786352 -7.585917 0.380119 4294967295
1.542286 -7.3178101 0.12691499 4294967295
7.8497968 -7.3587499 0.268273 4294967295
7.8659019 -7.7129111 0.37875 4294967295
-7.7815199 -6.8725328 0.374331 4294967295
-1.291517 -7.0357699 0.12595101 4294967295
-1.033083 -6.7446599 0.38016 4294967295
1.291486 -7.0356669 0.38033199 4294967295
1.033484 -6.7451959 0.126552 4294967295
7.7729678 -6.8321218 0.31396401 4294967295
-7.6708169 -6.3906021 0.380054 4294967295
-0.76623702 -6.456965 0.140397 4294967295
-0.47155201 -6.1836228 0.45099401 4294967295
0.76639003 -6.4570851 0.36626199 4294967295
0.47153401 -6.1835961 0.055287 4294967295
7.661799 -6.3592248 0.29827401 4294967295
-7.5301681 -5.9320569 0.458639 4294967295
-0.156693 -6.0042701 0.30887499 4294967295
0.156692 -6.004262 0.197448 4294967295
7.5212741 -5.9071951 0.35517499 4294967295
-7.3796902 -5.5261712 0.089381002 4294967295
-7.2387609 -5.1879902 0.249173 4294967295
7.2374849 -5.1852012 0.088701002 4294967295
7.382709 -5.5338588 0.44498101 4294967295
-7.0773721 -4.8367281 0.420616 4294967295
7.075417 -4.8326302 0.25817099 4294967295
-6.9029298 -4.4882379 0.089013003 4294967295
-6.7327318 -4.169805 0.25148901 4294967295
6.7326169 -4.1695328 0.089323997 4294967295
6.9033952 -4.4891539 0.42444 4294967295
-6.5502892 -3.8447289 0.41749299 4294967295
6.5501189 -3.844403 0.25617599 4294967295
-6.3528581 -3.5052559 0.080750003 4294967295
-6.1469979 -3.155689 0.24348301 4294967295
-2.1643081 -3.3384631 0.097157001 4294967295
-1.8827111 -3.3534999 0.27266201 4294967295
-1.589088 -3.2797921 0.43566799 4294967295
1.589097 -3.279804 0.070664003 4294967295
1.882609 -3.353461 0.233696 4294967295
2.1637189 -3.3385489 0.40518999 4294967295
6.1469421 -3.155576 0.077353999 4294967295
6.353569 -3.50651 0.41856799 4294967295
-5.9449711 -2.8001959 0.40636399 4294967295
-2.6093099 -2.8784859 0.090172999 4294967295
-2.42733 -3.197746 0.37127 4294967295
-1.275916 -3.1220751 0.135988 4294967295
-0.96937102 -2.8961561 0.38057101 4294967295
0.96935803 -2.896122 0.125788 4294967295
1.275897 -3.122076 0.37036601 4294967295
2.426662 -3.1983221 0.091619998 4294967295
2.6091149 -2.8795919 0.230193 4294967295
5.9439621 -2.7984121 0.239372 4294967295
-5.7759051 -2.456502 0.059475001 4294967295
-5.6769309 -2.1383569 0.177342 4294967295
-2.625993 -2.3982251 0.27137199 4294967295
-0.67440403 -2.617604 0.152567 4294967295
-0.35557899 -2.2548251 0.469724 4294967295
0.35562801 -2.254853 0.036616001 4294967295
0.67439598 -2.6176159 0.35374701 4294967295
2.6261771 -2.3990459 0.29767999 4294967295
5.6767349 -2.135818 0.133798 4294967295
5.774601 -2.453768 0.41556799 4294967295
-5.6899128 -1.8564759 0.25314099 4294967295
-2.4933181 -1.9065 0.431977 4294967295
-0.100359 -2.0069809 0.32313201 4294967295
0.100375 -2.0069871 0.183245 4294967295
2.492589 -1.904319 0.34226999 4294967295
5.6903009 -1.8568341 0.411461 4294967295
-6.1118188 -1.41022 0.44449601 4294967295
-6.4487262 -1.2323281 0.098035999 4294967295
-5.840497 -1.615005 0.32107699 4294967295
-2.300535 -1.484542 0.042739999 4294967295
-2.018383 -1.009514 0.14842001 4294967295
2.2983119 -1.4802051 0.43505099 4294967295
2.0172999 -1.00774 0.123795 4294967295
5.8387799 -1.6167819 0.23632 4294967295
6.1094661 -1.411577 0.070917003 4294967295
6.4480472 -1.232555 0.40753201 4294967295
-7.2177882 -0.89046699 0.42767301 4294967295
-7.5719948 -0.73400199 0.085988 4294967295
-6.8238492 -1.061818 0.262198 4294967295
-1.8637249 -0.66489601 0.240311 4294967295
1.864885 -0.66632903 0.36708599 4294967295
6.8239789 -1.061811 0.244142 4294967295
7.2178898 -0.89044201 0.078716002 4294967295
7.5723581 -0.73383802 0.420322 4294967295
-8.26229 -0.406526 0.417353 4294967295
-8.5963287 -0.23179799 0.084905997 4294967295
-7.916328 -0.57543701 0.24958199 4294967295
-2.451201 -0.27727801 0.080417998 4294967295
-2.0132539 -0.469349 0.40536699 4294967295
2.0086081 -0.47196701 0.12799799 4294967295
2.4487939 -0.27824599 0.431308 4294967295
7.9165359 -0.57533902 0.25678399 4294967295
8.2625055 -0.406418 0.089009002 4294967295
8.5948572 -0.23257101 0.42076001 4294967295
-9.2386827 0.14604101 0.423935 4294967295
-9.5324926 0.342291 0.137196 4294967295
-8.9232769 -0.047332998 0.25106499 4294967295
-3.5664001 0.43415299 0.065356001 4294967295
-3.224499 0.13918699 0.403301 4294967295
-2.8717909 -0.079195999 0.244 4294967295
2.870892 -0.079705998 0.25223199 4294967295
3.2246871 0.13932499 0.016084 4294967295
3.5661919 0.433835 0.147891 4294967295
8.9223042 -0.047926001 0.25557399 4294967295
9.2376871 0.14545999 0.082029 4294967295
9.5359058 0.344639 0.37419599 4294967295
-9.829812 0.55947101 0.41718099 4294967295
-10.118986 0.79494399 0.17325599 4294967295
-3.828614 0.85083097 0.229289 4294967295
3.8288541 0.85152203 0.214533 4294967295
9.8221798 0.55411398 0.124064 4294967295
10.120222 0.79561502 0.40830499 4294967295
-10.411796 1.064347 0.51567799 4294967295
-10.685534 1.351447 0.27964699 4294967295
-3.8228109 1.29713 0.410871 4294967295
3.8224919 1.2982039 0.29372299 4294967295
10.397997 1.048535 0.12127 4294967295
10.747299 1.422351 0.462924 4294967295
-10.930979 1.659398 0.36587799 4294967295
-11.109292 1.924687 0.112611 4294967295
-3.5048239 1.616581 0.134174 4294967295
-3.099453 1.7464859 0.41325799 4294967295
-2.2085471 1.743395 0.45038801 4294967295
-2.5566399 1.774884 0.101168 4294967295
-1.615499 1.616026 0.2868 4294967295
-1.248427 1.565353 0.092834003 4294967295
-1.084825 1.705979 0.254327 4294967295
1.245557 1.565384 0.39117301 4294967295
1.085652 1.7066751 0.094137996 4294967295
1.613572 1.615513 0.21665201 4294967295
2.208411 1.743386 0.056060001 4294967295
2.55654 1.774884 0.40511 4294967295
3.5031919 1.617504 0.43439299 4294967295
3.0982671 1.746659 0.102876 4294967295
10.931812 1.660238 0.080224 4294967295
11.12395 1.94965 0.218641 4294967295
-11.32327 2.307477 0.30154201 4294967295
-2.8110139 1.77487 0.24247199 4294967295
-1.029744 2.148618 0.30559 4294967295
1.030381 2.1406331 0.21962801 4294967295
2.810595 1.774853 0.26359701 4294967295
11.35076 2.38467 0.28269699 4294967295
-11.451867 2.820431 0.16543099 4294967295
-0.95279098 2.773232 0.326657 4294967295
0.95416999 2.766897 0.266222 4294967295
11.463061 2.897928 0.14471599 4294967295
-11.265163 3.4118891 0.172226 4294967295
-0.83785498 3.184212 0.42674899 4294967295
0.83867598 3.1822381 0.30630699 4294967295
11.412501 3.5717161 0.034233999 4294967295
-11.117819 3.807302 0.184938 4294967295
-0.682262 3.5253739 0.14084999 4294967295
-0.45922601 3.816412 0.44180399 4294967295
0.68249702 3.52513 0.41894001 4294967295
0.45888099 3.816674 0.070592001 4294967295
11.304149 3.9465351 0.022131 4294967295
-11.218947 4.211647 0.012024 4294967295
-10.825447 4.556623 0.188411 4294967295
-0.16317099 3.996573 0.30604899 4294967295
0.16300599 3.996582 0.200192 4294967295
10.810569 4.5822029 0.171921 4294967295
11.053393 4.2658672 0.125112 4294967295
-10.539006 4.7608371 0.311474 4294967295
-4.508069 4.7906098 0.080472 4294967295
-4.1490521 4.7368269 0.37536699 4294967295
-3.8117881 4.7347398 0.125499 4294967295
-3.54059 4.826704 0.37315199 4294967295
3.540138 4.8269382 0.129281 4294967295
3.8115909 4.7347298 0.38088599 4294967295
4.149045 4.736825 0.130964 4294967295
4.5079961 4.790607 0.425841 4294967295
10.507311 4.7760801 0.114261 4294967295
-10.34972 4.8640208 0.14937399 4294967295
-9.9762421 5.0312381 0.34328899 4294967295
-9.4251022 5.192482 0.27004701 4294967295
-8.9562826 5.2730761 0.112902 4294967295
-8.5783405 5.3104138 0.47240201 4294967295
-7.6370139 5.3161969 0.08461 4294967295
-7.26689 5.2906151 0.43583301 4294967295
-6.8291211 5.242589 0.30536401 4294967295
-6.337173 5.168179 0.25398499 4294967295
-5.8350868 5.0740561 0.246581 4294967295
-5.336452 4.9676208 0.24371 4294967295
-4.8874359 4.8681078 0.19716901 4294967295
-3.3530619 5.0335879 0.087825 4294967295
-3.23457 5.3537259 0.22384 4294967295
3.23508 5.3522182 0.087739997 4294967295
3.3530519 5.0337148 0.37802601 4294967295
4.8873081 4.8680782 0.30908999 4294967295
5.3361201 4.967535 0.262692 4294967295
5.8358469 5.074244 0.26132101 4294967295
6.340713 5.1688442 0.25490499 4294967295
6.8317499 5.2429361 0.201546 4294967295
7.2704139 5.2909398 0.079380997 4294967295
7.6390491 5.316277 0.426617 4294967295
8.5609541 5.3112841 0.088886999 4294967295
8.9385633 5.2756028 0.45264399 4294967295
9.2972746 5.2179732 0.26680699 4294967295
9.866663 5.0795178 0.60631299 4294967295
10.240622 4.9182239 0.279948 4294967295
-8.2451324 5.3250051 0.30923599 4294967295
-7.9526162 5.3262138 0.20649999 4294967295
-3.1613679 5.769093 0.276676 4294967295
3.1615939 5.767427 0.219887 4294967295
7.949326 5.3261971 0.304041 4294967295
8.23979 5.3251228 0.21781901 4294967295
-3.1057091 6.2899079 0.272396 4294967295
3.1060669 6.2861619 0.26319599 4294967295
-3.051615 6.8503628 0.25489801 4294967295
3.05163 6.8502979 0.255447 4294967295
-2.992996 7.3605232 0.254738 4294967295
2.993098 7.3595591 0.24769001 4294967295
-2.9244699 7.8324318 0.30733401 4294967295
2.9245131 7.832221 0.26256499 4294967295
-2.852052 8.2340889 0.42656299 4294967295
2.8521121 8.2338409 0.31448099 4294967295
-2.775203 8.5914364 0.076504998 4294967295
-2.681325 8.9628878 0.197184 4294967295
2.6813481 8.9626999 0.077647999 4294967295
2.774832 8.5932198 0.43061301 4294967295
-2.555789 9.3769989 0.31224799 4294967295
2.5545239 9.3803511 0.206049 4294967295
-2.4224169 9.742918 0.51047403 4294967295
2.410145 9.7737217 0.311158 4294967295
-2.2748661 10.08654 0.18688001 4294967295
-2.1008551 10.432783 0.39294699 4294967295
2.0950739 10.4431 0.072258003 4294967295
2.2586751 10.122363 0.479637 4294967295
-1.8770829 10.799745 0.46540499 4294967295
1.864074 10.818663 0.21747801 4294967295
-1.6722831 11.075569 0.1288 4294967295
-1.484367 11.287882 0.249993 4294967295
1.4686739 11.305993 0.058525 4294967295
1.658888 11.090445 0.26100501 4294967295
-1.2858469 11.477455 0.13595299 4294967295
-1.007579 11.697 0.192284 4294967295
-0.446504 11.953364 0.037967 4294967295
0.134552 11.951893 0.038419999 4294967295
0.76431102 11.809589 0.13417099 4294967295
1.151998 11.600928 0.23075899 4294967295
-5.9482932 -9.9999151 0.278494 4294967295
-5.470541 -10.003186 0.44135299 4294967295
5.3568201 -9.9929647 0.47341901 4294967295
5.7419071 -10.036585 0.332461 4294967295
-7.0364938 -9.2221937 0.295165 4294967295
-6.460259 -9.3457565 0.464362 4294967295
-5.839407 -9.5175695 0.59548599 4294967295
-5.5167789 -9.5540466 0.68367499 4294967295
-5.065774 -9.9039078 0.63565201 4294967295
-4.666028 -9.774704 0.82000297 4294967295
-4.3817878 -9.6510248 0.69592899 4294967295
-4.0954099 -9.5005007 0.91854501 4294967295
4.4310369 -9.6790924 0.92174298 4294967295
4.134954 -9.5234385 0.71767002 4294967295
4.7549462 -9.8043175 0.77603 4294967295
5.09551 -9.8773022 0.636765 4294967295
5.6824551 -9.6335297 0.58366001 4294967295
5.5576892 -9.4207525 0.74623001 4294967295
6.225832 -9.5404539 0.44354799 4294967295
6.8124461 -9.4338284 0.26967299 4294967295
-7.4050188 -8.8517246 0.33720601 4294967295
-6.910284 -8.819994 0.56980401 4294967295
-6.5060382 -8.8898525 0.69384301 4294967295
-6.1160231 -9.0810671 0.73896402 4294967295
-5.7460561 -9.2717381 0.764745 4294967295
-3.774982 -9.3108463 0.947541 4294967295
-3.3973119 -9.0541916 0.64268601 4294967295
-3.1375711 -8.8573055 0.96324003 4294967295
3.44591 -9.0889111 1.046581 4294967295
3.117379 -8.841301 0.65458697 4294967295
3.8413041 -9.353816 0.94145602 4294967295
5.990798 -9.1851978 0.72780198 4294967295
6.3939142 -8.9947987 0.68132001 4294967295
6.7992282 -8.9260283 0.56006402 4294967295
6.6261368 -8.7324076 0.72940099 4294967295
7.2755289 -9.0580883 0.28247899 4294967295
-7.3309202 -8.5309601 0.53930402 4294967295
-7.0498152 -8.4617844 0.69555801 4294967295
-6.735909 -8.6327181 0.73736298 4294967295
-2.8191929 -8.5944576 0.68086499 4294967295
-2.53339 -8.3387041 0.927553 4294967295
2.8410821 -8.6137276 0.90707999 4294967295
2.5480859 -8.3522377 0.63492 4294967295
6.938642 -8.5577679 0.693515 4294967295
7.7117882 -8.497036 0.39445499 4294967295
7.2359948 -8.2495384 0.72283101 4294967295
-7.866653 -7.7618942 0.308963 4294967295
-7.8700871 -7.890162 0.61111498 4294967295
-7.434979 -8.2159653 0.65217602 4294967295
-2.2824669 -8.0988007 0.63705701 4294967295
-2.0347281 -7.848763 0.896222 4294967295
2.2884181 -8.1046572 0.888197 4294967295
2.0326791 -7.846643 0.63287199 4294967295
7.8152838 -8.0584965 0.56105602 4294967295
7.8671989 -7.9248362 0.56453902 4294967295
7.8631992 -7.718122 0.69934398 4294967295
-7.847403 -7.294518 0.88788801 4294967295
-1.7865959 -7.5861449 0.63467401 4294967295
-1.541484 -7.3170161 0.89117801 4294967295
1.7884901 -7.5882049 0.88731301 4294967295
1.542563 -7.3181539 0.63329399 4294967295
7.829699 -7.1686192 0.94946301 4294967295
-7.7666168 -6.8086252 0.80488598 4294967295
-1.291243 -7.0353932 0.63262099 4294967295
-1.032915 -6.744617 0.88647997 4294967295
1.291728 -7.0360031 0.88664401 4294967295
1.033536 -6.7452559 0.632828 4294967295
7.7546611 -6.7510982 0.83128601 4294967295
-7.676816 -6.4169769 0.93322301 4294967295
-0.76623702 -6.4568772 0.64668202 4294967295
-0.47146201 -6.1835499 0.95726103 4294967295
0.76655602 -6.4572401 0.87254798 4294967295
0.471641 -6.1836638 0.561665 4294967295
7.655746 -6.3385119 0.89596701 4294967295
-7.5511889 -5.996501 1.0630389 4294967295
-0.15669601 -6.0042639 0.81511199 4294967295
0.156736 -6.00425 0.70377302 4294967295
7.5192089 -5.9023738 0.91333199 4294967295
-7.3891048 -5.549262 0.60796398 4294967295
-7.2481499 -5.2078199 0.74838197 4294967295
7.2418828 -5.1950102 0.63156998 4294967295
7.4137669 -5.6139221 1.0317301 4294967295
-7.1001148 -4.88234 0.96859998 4294967295
7.080821 -4.8432412 0.79839802 4294967295
-6.90451 -4.4912438 0.59805298 4294967295
-6.734725 -4.1733098 0.75841397 4294967295
6.7332249 -4.170619 0.59698999 4294967295
6.906867 -4.495841 0.95050001 4294967295
-6.5535579 -3.850276 0.92685097 4294967295
6.5511918 -3.846266 0.76457602 4294967295
-6.3529348 -3.505394 0.58754599 4294967295
-6.147162 -3.1559711 0.75011802 4294967295
-2.164372 -3.3384449 0.603504 4294967295
-1.882756 -3.353514 0.77901202 4294967295
-1.589113 -3.2798109 0.94198698 4294967295
1.58911 -3.279794 0.57699001 4294967295
1.882593 -3.353462 0.74002099 4294967295
2.1636901 -3.338553 0.911529 4294967295
6.146852 -3.155431 0.58354503 4294967295
6.3536639 -3.5066381 0.92710203 4294967295
-5.9450378 -2.8003149 0.91279399 4294967295
-2.609324 -2.878381 0.59649301 4294967295
-2.427351 -3.1977301 0.87760597 4294967295
-1.2759219 -3.122067 0.642308 4294967295
-0.96940303 -2.8961639 0.886917 4294967295
0.96934199 -2.8961179 0.63209701 4294967295
1.2758861 -3.122062 0.87667501 4294967295
2.4266889 -3.1982789 0.59794098 4294967295
2.609113 -2.879638 0.736516 4294967295
5.943851 -2.7982261 0.74567097 4294967295
-5.7758899 -2.456517 0.56570703 4294967295
-5.6769381 -2.1384001 0.68363202 4294967295
-2.6259789 -2.3982279 0.77769899 4294967295
-0.67439401 -2.61762 0.658952 4294967295
-0.35559699 -2.2548261 0.97599697 4294967295
0.35561201 -2.254889 0.542988 4294967295
0.67441499 -2.617619 0.86007601 4294967295
2.6261721 -2.399034 0.80397099 4294967295
5.6767302 -2.13586 0.64013302 4294967295
5.7745562 -2.4536309 0.92184001 4294967295
-5.689898 -1.856675 0.759552 4294967295
-2.4933369 -1.906534 0.93831402 4294967295
-0.100354 -2.0069859 0.82940602 4294967295
0.100391 -2.0069921 0.68959302 4294967295
2.4925849 -1.90435 0.84855503 4294967295
5.6903162 -1.856782 0.91781598 4294967295
-6.111897 -1.4102319 0.950728 4294967295
-6.4487438 -1.23234 0.60435802 4294967295
-5.8404779 -1.615003 0.82746202 4294967295
-2.3005099 -1.484491 0.549043 4294967295
-2.0183589 -1.009477 0.65472198 4294967295
2.2983539 -1.480274 0.94132602 4294967295
2.0172851 -1.007715 0.63012201 4294967295
5.8387952 -1.6167459 0.74261701 4294967295
6.1094499 -1.4115731 0.577209 4294967295
6.44839 -1.2324229 0.91389602 4294967295
-7.2178311 -0.89047498 0.93337601 4294967295
-7.571743 -0.73411202 0.59242702 4294967295
-6.8240361 -1.06173 0.76834798 4294967295
-1.863728 -0.664886 0.74663299 4294967295
1.864894 -0.66632003 0.87341201 4294967295
6.824347 -1.0616241 0.750848 4294967295
7.2181292 -0.89030898 0.585563 4294967295
7.5698328 -0.73496598 0.92764801 4294967295
-8.2614441 -0.40699399 0.92612302 4294967295
-8.5961304 -0.231912 0.59185803 4294967295
-7.9161162 -0.57555699 0.75564802 4294967295
-2.451206 -0.27726001 0.586775 4294967295
-2.0132871 -0.46931699 0.911686 4294967295
2.0086391 -0.47194299 0.63433599 4294967295
2.44873 -0.27824801 0.93750799 4294967295
7.913836 -0.57662398 0.76518703 4294967295
8.2617416 -0.40683299 0.59608698 4294967295
8.5947742 -0.23244099 0.922557 4294967295
-9.2421026 0.14820901 0.93490201 4294967295
-9.539794 0.34735101 0.64594799 4294967295
-8.9233456 -0.04733 0.760382 4294967295
-3.5664179 0.43421999 0.57168102 4294967295
-3.2245629 0.139204 0.90966702 4294967295
-2.8717899 -0.079201996 0.75035697 4294967295
2.8707891 -0.079754002 0.75846702 4294967295
3.2246239 0.139257 0.522425 4294967295
3.566205 0.433846 0.65427899 4294967295
8.9107828 -0.054687001 0.75976801 4294967295
9.2381811 0.145715 0.58798802 4294967295
9.5506096 0.35472301 0.87865102 4294967295
-9.819438 0.55178303 0.948376 4294967295
-10.166775 0.83638 0.835343 4294967295
-3.8285999 0.850793 0.73563701 4294967295
3.8288629 0.85151899 0.72088599 4294967295
9.8449249 0.570903 0.65252399 4294967295
10.24573 0.89875299 1.130228 4294967295
-10.442547 1.090898 0.99234998 4294967295
-10.604292 1.256839 0.87283897 4294967295
-3.8228121 1.297142 0.917189 4294967295
3.822479 1.2982889 0.80000597 4294967295
10.444118 1.095275 0.73472297 4294967295
10.659218 1.322684 0.87217301 4294967295
-11.096577 1.901386 0.53117102 4294967295
-10.827668 1.526359 0.75116199 4294967295
-3.5048721 1.616558 0.64046699 4294967295
-3.099406 1.746514 0.91961801 4294967295
-2.2085021 1.743382 0.95670998 4294967295
-2.5565801 1.7748801 0.60755903 4294967295
-1.615537 1.6160229 0.793154 4294967295
-1.2484241 1.5653501 0.59915602 4294967295
-1.084826 1.705984 0.76066297 4294967295
1.245542 1.565403 0.89748597 4294967295
1.085658 1.706665 0.60047698 4294967295
1.61356 1.615507 0.72293401 4294967295
2.2084329 1.743381 0.56234199 4294967295
2.556587 1.774884 0.91148198 4294967295
3.503248 1.617449 0.94071102 4294967295
3.0983429 1.74666 0.60923702 4294967295
11.013318 1.769483 0.57062298 4294967295
10.88342 1.629562 0.71070302 4294967295
-11.071453 2.3953471 0.48647699 4294967295
-10.75207 2.0500879 0.74188 4294967295
-2.8110001 1.774869 0.74886698 4294967295
-1.029747 2.148586 0.81191897 4294967295
1.0303839 2.1405749 0.72597402 4294967295
2.8106041 1.774864 0.76999199 4294967295
11.134316 2.0071809 0.50445801 4294967295
10.711096 2.3353801 0.73064202 4294967295
-10.954124 2.9839251 0.46908 4294967295
-10.635676 2.6516199 0.73182398 4294967295
-0.95279098 2.7732191 0.832986 4294967295
0.95418203 2.7669051 0.77259701 4294967295
11.036485 2.607888 0.47747299 4294967295
10.596302 2.9094059 0.71342802 4294967295
-10.790448 3.529901 0.469089 4294967295
-10.536129 3.153615 0.70687199 4294967295
-0.837865 3.1841781 0.93305999 4294967295
0.83868402 3.182236 0.81267101 4294967295
10.869579 3.2672009 0.47178301 4294967295
10.485744 3.324017 0.70445299 4294967295
-10.83042 4.081778 0.31368601 4294967295
-10.437485 3.506644 0.69739503 4294967295
-10.452205 3.882359 0.60651702 4294967295
-10.23616 3.7429211 0.77054101 4294967295
-0.68228197 3.5253389 0.64719802 4294967295
-0.45921499 3.816395 0.94810599 4294967295
0.68248498 3.5250981 0.925282 4294967295
0.458913 3.816633 0.57692802 4294967295
10.514729 3.701519 0.60799903 4294967295
10.174666 3.97737 0.75507402 4294967295
10.286589 3.571074 0.77711397 4294967295
10.917943 3.8449459 0.3136 4294967295
-10.382744 4.5286841 0.48670301 4294967295
-10.099482 4.1639118 0.755193 4294967295
-0.16313399 3.9965799 0.81237102 4294967295
0.16302299 3.9965751 0.70651901 4294967295
10.501978 4.3414259 0.46203101 4294967295
10.059996 4.438869 0.70791298 4294967295
-10.336029 4.8736062 0.415252 4294967295
-9.9751883 4.5965719 0.71568799 4294967295
-9.9929428 5.0000148 0.59908301 4294967295
-9.7237024 4.8172178 0.801305 4294967295
-4.5080528 4.790617 0.58688802 4294967295
-4.1491151 4.7368302 0.88164502 4294967295
-3.81179 4.7347288 0.63182598 4294967295
-3.540637 4.8267002 0.87947297 4294967295
3.540056 4.8269768 0.63562602 4294967295
3.811553 4.734745 0.88721001 4294967295
4.148984 4.7368221 0.637312 4294967295
4.5078368 4.7905841 0.932154 4294967295
10.123393 4.943707 0.53580099 4294967295
9.7919006 4.9411192 0.725362 4294967295
9.8430672 4.6847758 0.76937801 4294967295
10.513311 4.7734962 0.33756801 4294967295
-9.540163 5.1657591 0.80651599 4294967295
-9.0060711 5.2667661 0.69130999 4294967295
-8.6294651 5.3062372 1.001882 4294967295
-7.6506519 5.3169188 0.64353198 4294967295
-7.247323 5.289114 1.0120471 4294967295
-6.8267622 5.2423182 0.82503301 4294967295
-6.335722 5.167954 0.76059502 4294967295
-5.8345618 5.0739422 0.75269699 4294967295
-5.3362708 4.967577 0.74992001 4294967295
-4.8873968 4.868094 0.70365202 4294967295
-3.3530991 5.0335331 0.59414899 4294967295
-3.2345741 5.353693 0.730142 4294967295
3.2350719 5.3522482 0.594028 4294967295
3.3530481 5.0337429 0.88434899 4294967295
4.8877649 4.868176 0.81719899 4294967295
5.339447 4.9682512 0.77168399 4294967295
5.8379359 5.0746641 0.77332002 4294967295
6.3533139 5.1711798 0.79455298 4294967295
6.8432689 5.2445412 0.727368 4294967295
7.2777681 5.2916088 0.60007501 4294967295
7.6647568 5.317389 0.95031202 4294967295
8.5485725 5.3119569 0.63730401 4294967295
8.8946543 5.2854829 1.073163 4294967295
9.3792067 5.2001982 0.88598102 4294967295
-8.2886286 5.3238759 0.850914 4294967295
-7.981998 5.3264809 0.73489398 4294967295
-3.16136 5.7691698 0.78297502 4294967295
3.1615739 5.7675252 0.72617799 4294967295
7.9477658 5.3261762 0.81446999 4294967295
8.2363987 5.3251619 0.730012 4294967295
-3.1056809 6.2901158 0.77874899 4294967295
3.1060531 6.2863212 0.76948601 4294967295
-3.051584 6.850657 0.76126498 4294967295
3.0516009 6.850554 0.76170802 4294967295
-2.992944 7.3607588 0.76106697 4294967295
2.9930429 7.3600612 0.75394398 4294967295
-2.9249139 7.829659 0.81431401 4294967295
2.924387 7.8328891 0.76889098 4294967295
-2.853245 8.2281914 0.943335 4294967295
2.8515129 8.2369337 0.829768 4294967295
-2.7755079 8.5903063 0.58971 4294967295
-2.678689 8.9724646 0.73990101 4294967295
2.6724041 8.9951811 0.617468 4294967295
2.77037 8.6142445 0.98332602 4294967295
-2.5533741 9.384613 0.893098 4294967295
2.5376921 9.4290409 0.78991598 4294967295
-2.40645 9.7816534 1.067319 4294967295
2.3808141 9.8454189 0.85741001 4294967295
-2.23965 10.174276 1.045881 4294967295
-2.032778 10.560947 0.85848898 4294967295
2.062448 10.514229 0.82075101 4294967295
2.258445 10.119708 0.83619398 4294967295
-1.847225 10.835075 0.71223003 4294967295
-1.6322989 11.129709 0.53467298 4294967295
-1.515739 10.849677 0.73464298 4294967295
-1.248072 11.114923 0.58222002 4294967295
-1.073303 10.837864 0.77620101 4294967295
1.4428101 11.036552 0.61888701 4294967295
1.010986 10.98582 0.68370301 4294967295
1.277127 10.772575 0.80411798 4294967295
1.835889 10.772877 0.759031 4294967295
1.750605 10.989166 0.60030401 4294967295
-1.359056 11.410197 0.37687999 4294967295
-0.846744 11.014471 0.67382002 4294967295
-0.77760202 11.371669 0.43813801 4294967295
-0.42879599 11.037195 0.67543602 4294967295
-0.154201 11.409744 0.429198 4294967295
0.077246003 11.04863 0.67305797 4294967295
0.385627 11.402642 0.43023601 4294967295
0.575899 11.039044 0.66998303 4294967295
0.964104 11.344361 0.44674599 4294967295
1.504337 11.279323 0.441089 4294967295
-5.424623 -9.3101158 0.85187298 4294967295
-4.8835478 -9.3910799 0.97236902 4294967295
-4.3289242 -9.617136 1.0033849 4294967295
4.210568 -9.5672779 1.044791 4294967295
4.6327982 -9.4712706 0.99840999 4294967295
5.1951671 -9.4259319 0.86041099 4294967295
-6.3566532 -8.6560745 0.87479001 4294967295
-5.8364811 -8.9402657 0.91386402 4294967295
-5.3890619 -8.8530359 1.108156 4294967295
-4.9738951 -8.9074697 1.2044981 4294967295
-4.5143819 -9.15277 1.202837 4294967295
-3.9524319 -9.4087315 1.210551 4294967295
-3.648226 -9.2287483 1.362923 4294967295
-3.4388781 -9.0836449 1.203882 4294967295
-3.169487 -8.8851099 1.434597 4294967295
3.4705019 -9.1112709 1.452512 4294967295
3.2088931 -8.9125891 1.213021 4294967295
3.6966031 -9.2595949 1.340471 4294967295
4.0468359 -9.4441051 1.172142 4294967295
4.792161 -8.9897127 1.213342 4294967295
5.2131252 -8.9258966 1.125303 4294967295
5.0902138 -8.7479229 1.2511621 4294967295
5.771893 -8.938694 0.93817103 4294967295
6.3227801 -8.7682152 0.828825 4294967295
-6.8863568 -8.2657528 0.863316 4294967295
-6.4358349 -8.1756382 1.082974 4294967295
-5.9130192 -8.467267 1.129959 4294967295
-5.5161881 -8.4783182 1.25491 4294967295
-5.2148428 -8.6359701 1.270404 4294967295
-2.8467979 -8.6183271 1.387085 4294967295
-2.572438 -8.3743076 1.564334 4294967295
2.988414 -8.7427397 1.682515 4294967295
2.56687 -8.3700848 1.163133 4294967295
5.3863039 -8.555109 1.2578681 4294967295
5.7040138 -8.5322704 1.168 4294967295
5.635221 -8.3246603 1.291338 4294967295
6.2498631 -8.3615665 1.062642 4294967295
6.762228 -8.3834925 0.854536 4294967295
-7.436873 -7.7846308 0.85815799 4294967295
-6.8770671 -7.762692 1.103833 4294967295
-6.491631 -7.8515611 1.212016 4294967295
-6.1316662 -8.0487938 1.253401 4294967295
-5.7618299 -8.2282982 1.295629 4294967295
-2.294265 -8.1103287 1.180699 4294967295
-2.0567181 -7.8715792 1.472319 4294967295
2.3151889 -8.1310577 1.408996 4294967295
2.0430851 -7.8574171 1.142234 4294967295
6.0201712 -8.1354914 1.251945 4294967295
6.3831372 -7.9577422 1.203951 4294967295
6.7731962 -7.9002209 1.082643 4294967295
6.6123362 -7.718327 1.226145 4294967295
7.2731919 -7.9715228 0.841919 4294967295
-7.353138 -7.347753 1.088884 4294967295
-6.992619 -7.3909578 1.219679 4294967295
-6.7078071 -7.5907469 1.246154 4294967295
-1.791591 -7.5915618 1.17224 4294967295
-1.542271 -7.317956 1.423028 4294967295
1.8130029 -7.614728 1.413523 4294967295
1.545664 -7.32164 1.142084 4294967295
6.905354 -7.5396991 1.190644 4294967295
7.338161 -7.507688 1.025987 4294967295
7.15873 -7.2633061 1.206035 4294967295
-7.2444148 -7.1146879 1.2323461 4294967295
-7.7582092 -6.8226271 1.137568 4294967295
-1.2898051 -7.0337291 1.142354 4294967295
-1.0346 -6.7464252 1.393402 4294967295
1.295084 -7.039741 1.393739 4294967295
1.033923 -6.7456131 1.138623 4294967295
7.46314 -7.1096201 1.1403511 4294967295
7.7407212 -6.7311888 1.180092 4294967295
-7.6703081 -6.3866601 1.3242 4294967295
-0.76648802 -6.4570999 1.152999 4294967295
-0.47144601 -6.1834869 1.4646879 4294967295
0.76832402 -6.4590349 1.378183 4294967295
0.47190899 -6.183887 1.068014 4294967295
7.6383109 -6.264504 1.377224 4294967295
-7.552031 -6.003685 1.3428741 4294967295
-0.15648501 -6.0041852 1.3214869 4294967295
0.15689901 -6.0042901 1.210146 4294967295
7.5163522 -5.8976288 1.298164 4294967295
-7.4553099 -5.7241921 1.258998 4294967295
-7.3419032 -5.4294591 1.489351 4294967295
7.2843451 -5.292048 1.348788 4294967295
7.4666519 -5.7427831 1.60162 4294967295
-7.112639 -4.908555 1.543175 4294967295
7.0812192 -4.8444791 1.417038 4294967295
-6.9185839 -4.5183988 1.1372 4294967295
-6.7517362 -4.20403 1.30497 4294967295
6.7383718 -4.1799512 1.147274 4294967295
6.9424028 -4.5653238 1.5465569 4294967295
-6.5788131 -3.8937731 1.459744 4294967295
6.5587931 -3.8591831 1.307047 4294967295
-6.3548198 -3.508606 1.096644 4294967295
-6.1489801 -3.1591229 1.257621 4294967295
-2.1643541 -3.338439 1.109812 4294967295
-1.8827879 -3.353502 1.285346 4294967295
-1.589161 -3.279794 1.448331 4294967295
1.589061 -3.279788 1.083321 4294967295
1.882576 -3.3534651 1.246361 4294967295
2.163748 -3.338552 1.417859 4294967295
6.1469469 -3.155602 1.090295 4294967295
6.354434 -3.5080061 1.448675 4294967295
-5.946918 -2.8039191 1.421244 4294967295
-2.6093299 -2.8784139 1.1028219 4294967295
-2.4273939 -3.1976919 1.383937 4294967295
-1.275965 -3.1221111 1.148639 4294967295
-0.96943998 -2.8962049 1.393213 4294967295
0.96933001 -2.896117 1.138415 4294967295
1.275876 -3.1220551 1.382992 4294967295
2.426734 -3.198251 1.104267 4294967295
2.609123 -2.879508 1.242829 4294967295
5.9441161 -2.798764 1.253929 4294967295
-5.7759671 -2.456661 1.072058 4294967295
-5.6769528 -2.138634 1.189957 4294967295
-2.6259601 -2.3981991 1.284021 4294967295
-0.67443401 -2.6176679 1.1652271 4294967295
-0.355636 -2.2548809 1.482373 4294967295
0.355598 -2.254874 1.049322 4294967295
0.67439198 -2.61759 1.366414 4294967295
2.626163 -2.399014 1.310277 4294967295
5.676723 -2.1357279 1.146457 4294967295
5.7742448 -2.4529481 1.431226 4294967295
-5.6898179 -1.85675 1.2657551 4294967295
