# .PCD v0.7 - Point Cloud Data file format
VERSION 0.7
FIELDS x y z
SIZE 4 4 4 
TYPE F F F 
COUNT 1 1 1 
WIDTH 1672
HEIGHT 1
VIEWPOINT 0 0 0 1 0 0 0
POINTS 1672
DATA ascii
-0.202547 0.120221 0.083426
-0.200997 0.140768 0.133959
-0.220663 0.132030 0.172830
-0.213830 0.128595 -0.117431
-0.206590 0.141238 0.034210
-0.209768 0.132659 0.093809
-0.216464 0.162212 0.167988
-0.216813 0.152993 -0.094479
-0.220372 0.152579 -0.072396
-0.203783 0.155715 0.033877
-0.211422 0.174592 0.108832
-0.211382 0.174046 -0.008032
-0.203319 0.155111 0.063658
-0.213604 0.178046 0.072744
-0.218375 0.162099 -0.037231
-0.202147 0.158508 0.044668
-0.207159 0.187037 0.056823
-0.214563 0.206267 0.148671
-0.201900 0.200734 -0.190266
-0.201532 0.204557 -0.108277
-0.208755 0.197571 -0.084554
-0.209153 0.198536 0.098359
-0.210253 0.199444 -0.050598
-0.212324 0.230281 0.041668
-0.210392 0.255213 -0.156282
-0.212684 0.256245 0.047966
-0.216830 0.278789 0.017968
-0.200383 0.298618 -0.008261
-0.214113 0.287533 0.010292
-0.201275 0.336993 -0.086745
-0.209841 0.300138 -0.000609
-0.205815 0.308562 -0.008182
-0.210533 0.312496 0.056766
-0.197104 0.331188 -0.113912
-0.209568 0.330213 -0.072570
-0.203091 0.399408 -0.108609
-0.196010 0.385394 -0.111000
-0.206077 0.403148 -0.078652
-0.204885 -0.317759 -0.025119
-0.200797 -0.320105 -0.046819
-0.197179 -0.327813 0.050728
-0.204393 -0.295504 0.074637
-0.187429 -0.302338 0.113011
-0.194732 -0.263962 -0.124718
-0.205254 -0.273462 0.096224
-0.194556 -0.262650 0.128238
-0.188375 -0.236346 0.045232
-0.189230 -0.217118 0.064102
-0.196486 -0.229829 0.142418
-0.185033 -0.240484 -0.152547
-0.197192 -0.212329 -0.045581
-0.181932 -0.251711 -0.053990
-0.191182 -0.236541 -0.033535
-0.189634 -0.244737 0.017491
-0.196620 -0.225866 -0.008136
-0.179933 -0.225867 0.084314
-0.184116 -0.194134 -0.173315
-0.190263 -0.207248 -0.077158
-0.200142 -0.187827 0.149725
-0.185135 -0.228050 0.152831
-0.197616 -0.167994 -0.167816
-0.194676 -0.163233 -0.099205
-0.191558 -0.186808 0.079993
-0.180017 -0.196364 0.102571
-0.198755 -0.148326 0.155473
-0.184580 -0.167996 -0.115331
-0.201247 -0.121054 -0.108399
-0.189817 -0.151954 0.100410
-0.191055 -0.116552 -0.190078
-0.182701 -0.129992 0.119654
-0.190863 -0.109141 -0.130363
-0.192019 -0.104945 0.108149
-0.195102 -0.080088 0.164405
-0.183512 -0.087079 0.124613
-0.182023 -0.059562 0.128498
-0.196387 -0.040779 0.171721
-0.189810 -0.037771 0.116154
-0.183258 -0.027491 0.135833
-0.196016 -0.025653 0.185739
-0.202176 -0.025917 -0.137332
-0.186696 -0.016057 -0.157470
-0.194970 -0.000680 0.105255
-0.184536 -0.012984 0.141816
-0.194136 0.004642 0.204749
-0.186768 -0.016917 0.129077
-0.191731 0.012193 0.133936
-0.191300 0.043077 -0.212923
-0.205497 0.033437 -0.140257
-0.191384 0.035319 -0.158192
-0.186956 0.032169 0.146069
-0.205004 0.025927 0.197779
-0.189931 0.099337 -0.214600
-0.204707 0.069962 -0.142255
-0.201402 0.051647 0.131929
-0.188827 0.055309 0.146872
-0.195963 0.076664 0.191588
-0.201923 0.057840 0.198610
-0.196849 0.094771 -0.152092
-0.195720 0.031305 0.102913
-0.196457 0.051065 0.112252
-0.201573 0.074676 0.190383
-0.195750 0.084540 0.194246
-0.189893 0.090944 0.196903
-0.192027 0.084876 0.199515
-0.177832 0.076681 0.157279
-0.196793 0.136888 0.188479
-0.207185 0.112205 0.185277
-0.208618 0.107222 -0.133154
-0.191492 0.117607 0.146860
-0.178248 0.160628 -0.218693
-0.175648 0.159925 0.145631
-0.198983 0.168580 0.177882
-0.199806 0.153258 -0.138540
-0.194359 0.199830 -0.129899
-0.206396 0.177193 -0.114449
-0.193913 0.172433 0.127415
-0.177022 0.191942 0.128359
-0.202234 0.218772 0.091630
-0.195444 0.225506 0.149081
-0.202037 0.195324 0.037837
-0.200086 0.200584 0.010701
-0.196638 0.237695 -0.087252
-0.203047 0.220117 0.031653
-0.191543 0.239340 0.082623
-0.196168 0.253941 0.125796
-0.194804 0.244312 -0.183515
-0.195536 0.236303 -0.014960
-0.196801 0.233956 0.005998
-0.203976 0.261997 0.014387
-0.191787 0.283899 -0.166995
-0.189799 0.264513 -0.063568
-0.199644 0.235987 -0.052753
-0.189806 0.263348 -0.024675
-0.200842 0.285002 0.093464
-0.194195 0.268336 -0.006483
-0.203706 0.275280 0.037241
-0.183708 0.259669 0.066328
-0.170618 0.279328 0.110671
-0.190618 0.307754 -0.152179
-0.189387 0.301610 -0.023734
-0.190383 0.301911 0.012871
-0.182857 0.312027 0.069037
-0.180779 0.342947 -0.137580
-0.202050 0.316615 -0.016069
-0.197722 0.324712 -0.023713
-0.188272 0.316548 -0.006318
-0.187785 0.272569 0.049896
-0.187535 0.324141 0.051715
-0.192529 0.332792 -0.032169
-0.190499 0.289487 0.028545
-0.190496 0.353633 0.013397
-0.187946 0.370738 -0.009339
-0.190351 0.341793 0.028779
-0.215684 0.351792 -0.083436
-0.188024 0.357681 -0.102072
-0.195578 0.356076 -0.094909
-0.192859 0.403116 -0.061926
-0.186026 0.419522 -0.122239
-0.183822 0.428099 -0.110158
-0.174187 0.429058 -0.094467
-0.188413 -0.357873 -0.005280
-0.180312 -0.364921 -0.048641
-0.175355 -0.326606 -0.111484
-0.192170 -0.348514 0.017526
-0.173513 -0.356208 -0.085181
-0.157598 -0.334332 -0.134782
-0.170096 -0.307425 0.139803
-0.164777 -0.293511 -0.150496
-0.166791 -0.285576 -0.061515
-0.178071 -0.279175 -0.010014
-0.176045 -0.279306 -0.030567
-0.170969 -0.296557 0.015941
-0.158607 -0.296536 0.075494
-0.160926 -0.261756 -0.170667
-0.169813 -0.265113 -0.076760
-0.173883 -0.280406 0.041681
-0.174174 -0.262539 0.067064
-0.180236 -0.224340 -0.088274
-0.168621 -0.248686 0.095147
-0.185437 -0.258558 0.145056
-0.171950 -0.170426 -0.192735
-0.175262 -0.168317 -0.128946
-0.181720 -0.128238 0.162934
-0.173740 -0.186084 0.118744
-0.166402 -0.114914 -0.211168
-0.168475 -0.128874 0.124566
-0.195687 -0.059281 -0.197912
-0.178153 -0.118511 -0.143770
-0.179800 -0.048254 -0.212780
-0.187504 -0.067131 -0.146661
-0.171152 -0.058238 0.134336
-0.170631 0.017800 -0.226295
-0.180539 -0.011261 0.188850
-0.181502 -0.024636 0.182558
-0.188788 -0.004577 0.202539
-0.182381 0.006988 0.152580
-0.178575 0.021770 0.162634
-0.162021 0.007878 0.155874
-0.166442 0.022870 0.162903
-0.172530 0.035257 0.173281
-0.176456 0.047375 0.162870
-0.182752 0.040712 0.222767
-0.186425 0.060521 0.217978
-0.182435 0.097812 0.198638
-0.178639 0.102985 0.205606
-0.184839 0.088705 0.210367
-0.167609 0.112717 -0.229682
-0.162566 0.102453 0.165757
-0.182934 0.104314 0.200386
-0.179171 0.138540 0.197080
-0.172241 0.111088 0.202348
-0.178352 0.130076 0.153191
-0.160012 0.139578 0.160310
-0.188547 0.137519 -0.157452
-0.180361 0.193375 0.176853
-0.185816 0.180919 -0.151289
-0.179245 0.215240 0.110500
-0.178005 0.207718 -0.210810
-0.176374 0.253811 0.135018
-0.177232 0.249547 -0.199342
-0.184317 0.249202 -0.118232
-0.157504 0.283666 -0.203110
-0.184842 0.263799 -0.099186
-0.182489 0.286534 -0.042907
-0.174729 0.297538 -0.180518
-0.176479 0.244668 0.085310
-0.179670 0.305451 0.077895
-0.173813 0.296163 0.091075
-0.168105 0.342019 -0.158422
-0.181270 0.325970 -0.041872
-0.187469 0.340112 -0.040083
-0.185654 0.326826 -0.019083
-0.175032 0.357356 -0.058295
-0.181542 0.348533 -0.048988
-0.176755 0.348087 -0.044031
-0.181355 0.337926 -0.032756
-0.167722 0.378449 -0.124116
-0.169693 0.386050 -0.122736
-0.183260 0.384835 -0.027310
-0.174652 0.407320 -0.130466
-0.177307 0.397446 -0.043002
-0.170631 0.408037 -0.055902
-0.152090 0.426365 -0.146214
-0.168275 -0.381952 0.063104
-0.170147 -0.395678 -0.012139
-0.172831 -0.388163 0.021084
-0.177980 -0.345357 0.089920
-0.167945 -0.336602 0.120854
-0.145179 -0.355352 0.000853
-0.156502 -0.316282 0.146988
-0.160974 -0.319296 -0.017966
-0.155928 -0.327254 0.031168
-0.154552 -0.320590 0.053797
-0.171415 -0.281362 0.149246
-0.159340 -0.272400 0.096900
-0.143762 -0.276782 -0.117163
-0.150546 -0.273063 0.113323
-0.162601 -0.251029 -0.103790
-0.157609 -0.249340 0.115817
-0.146861 -0.212896 -0.200817
-0.163095 -0.223011 -0.183865
-0.168235 -0.213316 -0.117575
-0.164421 -0.224969 0.117409
-0.181215 -0.199339 0.157669
-0.143989 -0.223122 0.117595
-0.164673 -0.130507 0.165208
-0.147774 -0.154341 0.123379
-0.170338 -0.069247 -0.164361
-0.141088 -0.110830 0.129087
-0.171110 -0.084457 0.171713
-0.150102 -0.038581 -0.233367
-0.162061 -0.090394 0.130468
-0.167221 -0.017506 -0.175347
-0.157946 -0.031300 0.145875
-0.163538 0.007212 0.200315
-0.174597 0.001360 0.204379
-0.171309 0.008002 0.212924
-0.152704 0.024861 0.227340
-0.141680 0.028142 0.170412
-0.168344 0.024082 0.227078
-0.148100 0.078064 -0.241223
-0.170077 0.029077 -0.177551
-0.167627 0.043653 0.180249
-0.146072 0.047230 0.180036
-0.159018 0.053606 0.188609
-0.169837 0.038158 0.231922
-0.159949 0.063118 0.185404
-0.163906 0.069570 0.174236
-0.149815 0.087937 0.181329
-0.168357 0.096129 0.226544
-0.159595 0.079980 0.238747
-0.173829 0.081107 -0.176136
-0.142187 0.119914 0.236654
-0.178320 0.119810 -0.170293
-0.156010 0.118480 -0.188460
-0.174929 0.114140 0.203596
-0.160678 0.123542 0.205724
-0.154170 0.133072 0.208794
-0.134942 0.130699 0.172595
-0.167329 0.159208 0.196834
-0.146597 0.176134 -0.236409
-0.168823 0.161068 -0.174276
-0.145986 0.160141 0.159075
-0.155543 0.185838 0.142222
-0.148053 0.202621 0.132856
-0.156379 0.215301 0.120451
-0.161082 0.214111 0.172059
-0.152151 0.215923 -0.226988
-0.171013 0.212879 -0.159364
-0.165692 0.228143 0.105530
-0.142079 0.239705 0.156061
-0.180658 0.233512 -0.137129
-0.162932 0.250574 -0.153267
-0.159999 0.278577 0.115145
-0.155248 0.272876 0.122406
-0.151180 0.268206 0.128464
-0.167295 0.287383 0.102936
-0.145238 0.325374 -0.193565
-0.161975 0.299013 -0.121110
-0.176847 0.292631 -0.083621
-0.172231 0.308470 -0.069267
-0.173888 0.313240 -0.056513
-0.153159 0.342238 -0.176039
-0.157604 0.335133 -0.085423
-0.167124 0.302871 -0.104401
-0.164228 0.337458 -0.069780
-0.168262 0.348559 -0.063314
-0.160696 0.373519 -0.074651
-0.170619 0.358096 -0.055915
-0.167959 0.365440 -0.066632
-0.145266 0.396048 -0.141370
-0.161567 0.370934 -0.069357
-0.139978 0.405775 -0.142948
-0.163191 0.417665 -0.067317
-0.162861 0.444225 -0.120947
-0.135730 0.457996 -0.124953
-0.151385 0.429676 -0.081181
-0.152727 -0.429549 -0.022613
-0.147664 -0.440295 0.006537
-0.168203 -0.391684 0.042260
-0.142830 -0.388626 -0.115329
-0.147528 -0.393333 0.100153
-0.134891 -0.377317 0.133621
-0.135211 -0.366286 0.041555
-0.139083 -0.344768 0.067107
-0.148284 -0.344903 0.141491
-0.129691 -0.345349 -0.160793
-0.144935 -0.351835 -0.027262
-0.156748 -0.314858 -0.053535
-0.144304 -0.343709 -0.049932
-0.138448 -0.328369 0.089345
-0.141364 -0.295446 -0.174631
-0.136200 -0.313268 0.107482
-0.150943 -0.292262 0.152338
-0.152409 -0.292550 -0.091046
-0.123919 -0.309409 0.106768
-0.144583 -0.291666 0.110821
-0.136381 -0.250658 0.114773
-0.134910 -0.271598 -0.190132
-0.130973 -0.265051 -0.139399
-0.152436 -0.233543 -0.129337
-0.163990 -0.248814 0.156121
-0.146306 -0.201187 0.160245
-0.157604 -0.196139 -0.139746
-0.135962 -0.198745 0.121503
-0.150969 -0.166392 0.162565
-0.148230 -0.170298 -0.211510
-0.160298 -0.159557 -0.150289
-0.154997 -0.122458 -0.166126
-0.131666 -0.136753 0.128580
-0.139711 -0.093214 -0.231755
-0.142991 -0.119009 0.168955
-0.128018 -0.073326 0.138287
-0.150343 -0.060316 -0.182126
-0.158992 -0.058271 0.180612
-0.149465 -0.046952 0.142802
-0.148365 -0.009504 -0.190140
-0.167431 -0.034678 0.185872
-0.134027 0.010035 0.213579
-0.149381 0.041903 0.242397
-0.121593 0.045439 -0.252594
-0.153390 0.075443 -0.191445
-0.151646 0.060341 0.194951
-0.134295 0.065073 0.194485
-0.142859 0.068437 0.201390
-0.145129 0.081170 0.196153
-0.133799 0.075275 0.207620
-0.139862 0.094987 0.188520
-0.132434 0.140094 -0.246807
-0.145622 0.137884 0.209125
-0.158608 0.121780 0.220371
-0.146213 0.142290 0.209361
-0.145298 0.137591 0.217933
-0.133292 0.148536 0.209705
-0.149259 0.154619 -0.190197
-0.153902 0.198001 -0.179953
-0.140289 0.190882 0.143665
-0.123137 0.230625 -0.239322
-0.135040 0.248588 0.150700
-0.148988 0.265060 -0.216211
-0.145920 0.261110 0.136047
-0.141639 0.255038 0.143748
-0.130119 0.309518 -0.211727
-0.159320 0.288845 -0.135084
-0.132051 0.377899 -0.171555
-0.141459 0.391842 -0.093358
-0.152868 0.380750 -0.079409
-0.153061 0.380977 -0.082431
-0.145943 0.387670 -0.086260
-0.145072 0.439592 -0.150253
-0.129783 0.446127 -0.099692
-0.163197 0.439847 -0.134970
-0.133116 0.462111 -0.141580
-0.139568 0.453084 -0.148139
-0.124335 -0.488360 -0.005985
-0.149481 -0.420700 -0.062872
-0.147084 -0.435118 -0.043010
-0.140517 -0.439636 0.050841
-0.146421 -0.413589 -0.082492
-0.112107 -0.446229 -0.114015
-0.143771 -0.417526 0.077522
-0.125920 -0.387898 -0.138886
-0.113828 -0.418983 -0.007707
-0.114577 -0.401599 0.049248
-0.145693 -0.368232 0.128742
-0.125245 -0.391992 0.024780
-0.118593 -0.374759 0.077916
-0.122970 -0.378705 -0.064720
-0.112960 -0.367229 0.096414
-0.136969 -0.340358 -0.076953
-0.136219 -0.338524 0.146142
-0.125608 -0.339319 0.102513
-0.132619 -0.322352 -0.102139
-0.118008 -0.322202 -0.123013
-0.128109 -0.293320 0.150332
-0.122672 -0.278179 0.112459
-0.119114 -0.257132 -0.206219
-0.141765 -0.237287 0.156738
-0.118781 -0.242227 0.121337
-0.132324 -0.206030 0.185177
-0.113389 -0.212336 -0.222186
-0.121800 -0.197690 0.203924
-0.136150 -0.209407 -0.157112
-0.117110 -0.187404 0.133408
-0.145304 -0.161320 0.165002
-0.129287 -0.150297 -0.227506
-0.136018 -0.162885 -0.171306
-0.127795 -0.185272 0.126232
-0.122372 -0.148749 0.132614
-0.113482 -0.143764 0.141206
-0.126091 -0.124055 0.192660
-0.137585 -0.105593 -0.183279
-0.118879 -0.102918 0.138461
-0.134948 -0.087801 0.176110
-0.118626 -0.090137 -0.242624
-0.124568 -0.067727 0.185832
-0.117404 -0.049319 0.147681
-0.111811 -0.023672 -0.252474
-0.140183 -0.038142 0.191840
-0.134292 -0.045870 -0.194699
-0.134542 -0.014146 0.158906
-0.141372 0.014642 -0.242358
-0.127328 0.006445 0.169947
-0.147752 0.022458 0.211021
-0.112360 0.027094 0.181493
-0.127771 0.036834 0.221841
-0.139170 0.026995 -0.198786
-0.108143 0.050940 0.187276
-0.130940 0.072262 -0.204591
-0.106880 0.069942 0.196163
-0.128501 0.097489 0.204403
-0.112808 0.079186 0.204312
-0.117179 0.085940 0.215554
-0.148790 0.070527 0.247518
-0.144621 0.097715 0.244635
-0.130002 0.113659 0.183398
-0.119635 0.147092 0.234372
-0.134602 0.125122 -0.201497
-0.117675 0.149784 0.170745
-0.115722 0.163639 0.217489
-0.117755 0.156689 0.226884
-0.102855 0.149904 -0.257307
-0.123169 0.157061 0.211107
-0.129848 0.173601 0.157104
-0.148677 0.182349 0.194145
-0.147141 0.223323 0.169015
-0.127097 0.253046 -0.184594
-0.121353 0.232239 0.166871
-0.139217 0.219589 -0.185734
-0.127476 0.239168 0.159877
-0.146249 0.256052 -0.168852
-0.141084 0.292672 -0.156329
-0.123530 0.332575 -0.149332
-0.145034 0.330723 -0.122419
-0.141706 0.350432 -0.106519
-0.143552 0.363720 -0.093513
-0.138023 0.394939 -0.093161
-0.129400 0.401666 -0.099963
-0.098124 0.450601 -0.169182
-0.115317 0.454867 -0.109170
-0.140006 0.438898 -0.091656
-0.117592 -0.493548 -0.044539
-0.116176 -0.497870 -0.009770
-0.105270 -0.498432 0.048290
-0.105702 -0.488853 -0.086130
-0.114536 -0.490384 -0.062322
-0.118574 -0.491419 0.027148
-0.124883 -0.423520 0.106915
-0.116210 -0.413036 0.125898
-0.104092 -0.431352 -0.134865
-0.103244 -0.425792 -0.053328
-0.101089 -0.381214 -0.166865
-0.119599 -0.400450 -0.038845
-0.096604 -0.428194 0.056953
-0.123077 -0.381413 0.136758
-0.119452 -0.369071 0.139295
-0.116390 -0.377182 -0.082248
-0.105249 -0.384449 0.091614
-0.110545 -0.329191 -0.184682
-0.108689 -0.334609 0.102644
-0.120667 -0.318742 0.146053
-0.113095 -0.314967 0.167084
-0.106269 -0.328493 -0.132285
-0.095058 -0.319197 0.111647
-0.135269 -0.265873 0.154016
-0.121078 -0.260620 -0.151285
-0.107436 -0.266601 0.121154
-0.103186 -0.278491 0.121176
-0.104897 -0.235891 0.135048
-0.114284 -0.249589 0.203916
-0.117793 -0.203007 0.129862
-0.107676 -0.198627 0.143484
-0.119513 -0.173960 0.207627
-0.096021 -0.145844 -0.243312
-0.105548 -0.175975 0.150940
-0.115183 -0.166684 -0.184896
-0.096931 -0.149115 0.165913
-0.113496 -0.103421 -0.198253
-0.112377 -0.096213 0.205964
-0.107473 -0.104762 0.147609
-0.104603 -0.079366 -0.249497
-0.125955 -0.054678 0.187257
-0.111830 -0.046291 0.195374
-0.101529 -0.046261 0.154782
-0.105117 -0.021114 0.161131
-0.116094 0.001285 0.215710
-0.099154 0.018737 0.182371
-0.091589 0.013640 -0.261233
-0.124643 0.041232 0.236394
-0.136159 0.039686 0.242434
-0.114145 0.058381 0.258545
-0.130114 0.064162 0.256521
-0.100914 0.094476 0.220819
-0.089264 0.092268 0.212538
-0.118813 0.089062 0.259664
-0.104168 0.090953 -0.259149
-0.121656 0.110864 0.194087
-0.116965 0.123047 0.185225
-0.108440 0.136476 0.180015
-0.109619 0.116004 0.206405
-0.104557 0.171200 0.208842
-0.125399 0.169620 -0.202644
-0.126949 0.197596 0.190700
-0.104148 0.212044 0.184233
-0.112970 0.222249 0.175620
-0.116270 0.281588 -0.229547
-0.114725 0.287731 -0.180149
-0.111408 0.341478 -0.207979
-0.114717 0.364267 -0.134308
-0.105667 0.370709 -0.195809
-0.130417 0.367905 -0.109206
-0.123366 0.404462 -0.105798
-0.129338 0.384763 -0.103198
-0.121737 0.412400 -0.154122
-0.117058 0.409714 -0.108007
-0.098724 0.430351 -0.163672
-0.120352 0.455548 -0.160526
-0.107906 0.468689 -0.160207
-0.084275 0.482841 -0.156594
-0.095012 0.477855 -0.143771
-0.102507 -0.495969 -0.080788
-0.105279 -0.491897 0.065246
-0.088109 -0.493598 -0.108989
-0.103767 -0.447305 0.112246
-0.082134 -0.479264 -0.125820
-0.086393 -0.458902 -0.054127
-0.093544 -0.459109 -0.011363
-0.092129 -0.458206 -0.031812
-0.092589 -0.459179 0.009099
-0.088376 -0.459331 0.029977
-0.086383 -0.433841 -0.149515
-0.098168 -0.427566 0.124593
-0.094818 -0.404130 0.127889
-0.095448 -0.426811 -0.072519
-0.089753 -0.414689 -0.094112
-0.098883 -0.398852 0.087235
-0.090738 -0.414657 0.083376
-0.111238 -0.364586 -0.102528
-0.089918 -0.394773 0.087991
-0.102633 -0.378052 0.134453
-0.093331 -0.359156 0.099357
-0.111183 -0.350252 0.140270
-0.080970 -0.358069 0.104917
-0.098198 -0.347198 0.173417
-0.090436 -0.341459 0.189184
-0.093805 -0.328585 0.193793
-0.093834 -0.318259 -0.148803
-0.081909 -0.340810 -0.196666
-0.107883 -0.293325 0.193329
-0.097723 -0.271431 0.214408
-0.100403 -0.293404 -0.204734
-0.096798 -0.277165 -0.163667
-0.101122 -0.285088 0.208290
-0.093256 -0.279425 0.131399
-0.082500 -0.271213 0.160750
-0.102622 -0.234271 0.223792
-0.100751 -0.244237 -0.172744
-0.101078 -0.250498 0.133866
-0.085634 -0.241571 0.169235
-0.108606 -0.207270 0.222276
-0.088562 -0.211706 0.173969
-0.097851 -0.185017 0.235192
-0.089527 -0.159898 0.241861
-0.085279 -0.203501 -0.236119
-0.097528 -0.141913 -0.199263
-0.103869 -0.157359 0.227425
-0.109041 -0.063419 -0.205908
-0.081618 -0.063443 -0.258311
-0.094856 -0.064522 0.158153
-0.113649 -0.027734 -0.207700
-0.098812 -0.028463 0.204399
-0.107606 0.016638 -0.213685
-0.075500 -0.016951 0.172670
-0.075821 0.005443 0.179385
-0.087656 0.051408 -0.263574
-0.110014 0.042683 0.227993
-0.100060 0.053500 0.232977
-0.081763 0.064138 0.196527
-0.081280 0.103913 0.225146
-0.112817 0.112342 0.255865
-0.112194 0.119610 -0.212794
-0.095044 0.134211 0.192508
-0.100118 0.109719 0.215662
-0.105420 0.137018 0.248642
-0.087123 0.180260 0.226027
-0.112483 0.206642 0.186570
-0.098201 0.203451 0.191086
-0.111858 0.192748 -0.249971
-0.118782 0.199026 -0.201927
-0.092467 0.193861 0.194693
-0.085323 0.220416 -0.254434
-0.112111 0.233070 -0.198447
-0.093247 0.267091 -0.198454
-0.093608 0.259621 -0.244317
-0.097142 0.311410 -0.227970
-0.103955 0.327402 -0.168487
-0.095821 0.368638 -0.148549
-0.101093 0.391067 -0.126682
-0.098254 0.401391 -0.180770
-0.096449 0.423084 -0.166069
-0.101684 0.418969 -0.116826
-0.109694 0.414522 -0.112722
-0.083858 0.471852 -0.170842
-0.079711 0.481800 -0.164362
-0.112155 -0.499396 0.018908
-0.093592 -0.495909 0.080331
-0.077836 -0.492192 0.102638
-0.074510 -0.477803 0.110645
-0.091378 -0.456809 0.114931
-0.079071 -0.460972 0.114904
-0.073578 -0.472171 0.109213
-0.071150 -0.458714 -0.085306
-0.079711 -0.453985 0.114367
-0.082826 -0.441184 0.118945
-0.078171 -0.459454 0.056200
-0.087118 -0.427388 0.122223
-0.079539 -0.436412 0.078264
-0.073910 -0.406571 -0.171921
-0.077768 -0.392885 0.167624
-0.094852 -0.374666 -0.116538
-0.086218 -0.388008 0.160096
-0.085941 -0.363031 0.180850
-0.078488 -0.387468 0.092441
-0.082336 -0.374315 0.176150
-0.070241 -0.360297 0.113442
-0.085538 -0.352299 0.182709
-0.082037 -0.364312 0.176030
-0.064494 -0.350955 0.129984
-0.092673 -0.311129 0.201440
-0.078431 -0.332739 0.119925
-0.069164 -0.331571 0.138248
-0.073252 -0.314103 0.145437
-0.083974 -0.311660 0.125031
-0.078335 -0.294946 0.152686
-0.064375 -0.290815 0.152271
-0.083135 -0.219405 0.219916
-0.080092 -0.277686 -0.219324
-0.064062 -0.254517 -0.230732
-0.089618 -0.201131 -0.190424
-0.107207 -0.209253 -0.178964
-0.070873 -0.206333 0.174270
-0.093292 -0.191609 0.233387
-0.076036 -0.171935 0.229948
-0.085217 -0.185266 0.183458
-0.063146 -0.173396 -0.247835
-0.080611 -0.155033 0.190312
-0.082201 -0.141767 0.246826
-0.060078 -0.128557 -0.255279
-0.075442 -0.136110 0.194682
-0.088112 -0.115915 0.174931
-0.089142 -0.102857 0.234143
-0.088389 -0.061083 -0.214266
-0.084258 -0.051529 0.223640
-0.084324 -0.052231 0.166884
-0.073629 -0.080151 0.184904
-0.063037 -0.006532 -0.266371
-0.084409 -0.015708 0.213033
-0.095924 -0.001606 0.218629
-0.069965 0.031080 0.192072
-0.087216 0.032144 -0.221538
-0.079858 0.043830 0.194703
-0.052788 0.060717 0.202568
-0.094789 0.079052 -0.219985
-0.081132 0.070069 0.264266
-0.049365 0.088693 0.206365
-0.098182 0.076553 0.266082
-0.072851 0.088892 0.207204
-0.062456 0.103438 -0.268705
-0.077367 0.131149 -0.264878
-0.062504 0.136024 0.219474
-0.067139 0.148836 0.208083
-0.090641 0.131276 0.208175
-0.080405 0.138605 0.205225
-0.095703 0.175855 -0.214654
-0.079756 0.187577 0.205644
-0.090413 0.194189 0.197700
-0.065624 0.194317 0.208388
-0.069708 0.194942 0.216324
-0.092318 0.307510 -0.184647
-0.075630 0.351057 -0.172019
-0.062029 0.359124 -0.220059
-0.078332 0.362210 -0.213445
-0.065005 0.408418 -0.192750
-0.100960 0.403910 -0.120991
-0.069493 0.436140 -0.172461
-0.092962 0.420630 -0.122770
-0.087979 0.425433 -0.123104
-0.098192 0.464315 -0.118653
-0.057660 0.482136 -0.174444
-0.047168 0.493273 -0.155827
-0.087174 -0.498771 -0.097410
-0.086930 -0.499789 0.078006
-0.060421 -0.493558 -0.134530
-0.071333 -0.491866 0.106304
-0.068917 -0.485856 0.105804
-0.074846 -0.442600 0.130022
-0.066091 -0.453121 -0.153135
-0.021333 -0.458873 -0.035672
-0.066623 -0.459394 0.073892
-0.065413 -0.435176 0.080524
-0.048925 -0.459493 0.079706
-0.058324 -0.456657 0.137794
-0.074431 -0.404802 0.163036
-0.063600 -0.438671 0.146641
-0.049542 -0.448391 -0.163490
-0.072146 -0.422673 -0.109921
-0.068165 -0.425215 0.152991
-0.069332 -0.409880 0.153185
-0.075448 -0.390057 -0.126523
-0.060015 -0.420384 0.087991
-0.051733 -0.401717 0.105980
-0.071377 -0.413896 0.157956
-0.072021 -0.398624 0.158435
-0.067177 -0.380148 -0.137897
-0.076503 -0.382733 0.166431
-0.056800 -0.394150 -0.185195
-0.065420 -0.385988 0.100736
-0.071220 -0.335867 -0.155896
-0.058291 -0.375336 0.118850
-0.058296 -0.317048 0.194199
-0.048141 -0.347545 0.130513
-0.079978 -0.295890 0.202082
-0.070395 -0.290034 -0.173853
-0.054669 -0.336606 -0.208378
-0.047111 -0.278931 0.155685
-0.056656 -0.248865 0.163028
-0.073313 -0.234786 -0.189163
-0.068381 -0.201772 0.219820
-0.050243 -0.196863 0.174476
-0.037053 -0.146889 0.183486
-0.078504 -0.177777 -0.200157
-0.066816 -0.142889 -0.210057
-0.056864 -0.139258 0.187897
-0.075754 -0.127971 0.249968
-0.064396 -0.132540 0.239225
-0.068933 -0.116756 0.198902
-0.077311 -0.100027 -0.213240
-0.060699 -0.097891 0.203054
-0.049842 -0.077604 0.207014
-0.053849 -0.048890 0.194115
-0.052135 -0.073200 -0.263061
-0.066824 -0.029539 0.178255
-0.071064 -0.006384 0.219100
-0.074697 -0.009722 -0.222726
-0.060511 0.008613 0.183057
-0.083943 0.028672 0.232311
-0.044677 0.045577 -0.270982
-0.038649 0.048453 0.200161
-0.068019 0.051511 0.240077
-0.047064 0.079032 0.204527
-0.083760 0.062778 0.253113
-0.055169 0.075805 0.244956
-0.055596 0.115498 0.229194
-0.081899 0.132925 -0.222464
-0.070463 0.137953 0.261628
-0.073801 0.169804 0.244428
-0.085540 0.217810 -0.212302
-0.065329 0.175912 -0.223102
-0.038318 0.205667 0.229221
-0.068498 0.183394 -0.263034
-0.045085 0.242307 -0.258512
-0.063573 0.257175 -0.252621
-0.047419 0.297249 -0.245854
-0.068779 0.300407 -0.196885
-0.038417 0.385789 -0.212882
-0.069762 0.388311 -0.152257
-0.068556 0.411300 -0.136927
-0.039475 0.416078 -0.195899
-0.074636 0.431607 -0.128531
-0.053552 0.465163 -0.179465
-0.050834 0.491201 -0.166995
-0.051216 0.482306 -0.135249
-0.065971 -0.498328 0.100968
-0.052567 -0.497164 0.113689
-0.049122 -0.458567 -0.108340
-0.038006 -0.459259 0.089105
-0.059384 -0.443705 0.139544
-0.029596 -0.419779 0.098606
-0.065964 -0.422340 0.147791
-0.046440 -0.430532 0.095025
-0.052385 -0.402768 0.154387
-0.060552 -0.402325 0.095903
-0.040086 -0.407956 0.102573
-0.069996 -0.345991 0.181032
-0.053348 -0.345988 -0.160088
-0.034678 -0.372949 0.120721
-0.048497 -0.313968 0.143898
-0.047263 -0.300276 -0.178602
-0.039851 -0.285383 -0.227395
-0.062813 -0.274042 0.206473
-0.058403 -0.254845 -0.188988
-0.065173 -0.254568 0.210072
-0.056990 -0.202780 -0.201754
-0.040547 -0.237591 -0.239367
-0.039856 -0.178750 -0.250780
-0.023478 -0.174933 0.179267
-0.039046 -0.118412 0.232716
-0.025385 -0.124254 -0.260016
-0.015894 -0.109722 0.188440
-0.064711 -0.106828 0.254386
-0.062343 -0.096434 0.255992
-0.027420 -0.069038 0.250829
-0.039357 -0.060608 0.209337
-0.053429 -0.056131 0.249400
-0.020072 -0.060466 -0.266968
-0.063061 -0.058022 -0.221549
-0.046827 -0.012950 0.187528
-0.057011 0.004249 0.224540
-0.053558 0.027300 -0.228584
-0.049272 0.001775 0.185045
-0.025408 0.024766 0.192250
-0.060280 0.021192 0.232422
-0.059758 0.089009 -0.228521
-0.076602 0.065056 0.239619
-0.020041 0.093686 -0.272984
-0.058813 0.103726 0.215877
-0.023560 0.113143 0.213698
-0.031457 0.120015 0.221752
-0.071562 0.114935 0.268295
-0.072920 0.099054 0.270442
-0.034812 0.124911 0.230897
-0.020797 0.144817 0.227569
-0.043629 0.147033 -0.269307
-0.038939 0.162140 0.212716
-0.038111 0.194017 0.242500
-0.028033 0.198187 -0.266415
-0.056027 0.219430 -0.219201
-0.048923 0.203885 0.211247
-0.031148 0.211653 0.213681
-0.060103 0.252783 -0.212472
-0.032344 0.320174 -0.241135
-0.050248 0.331558 -0.190151
-0.070999 0.306289 -0.238231
-0.044026 0.351796 -0.227478
-0.032960 0.444099 -0.179969
-0.042556 0.448603 -0.177081
-0.073690 0.474635 -0.128784
-0.030081 0.478582 -0.181533
-0.019547 0.490207 -0.177953
-0.054204 -0.498681 -0.128457
-0.044319 -0.491347 0.121863
-0.054083 -0.471414 0.129700
-0.036034 -0.488938 -0.149363
-0.046624 -0.426068 -0.127327
-0.034881 -0.458527 -0.116970
-0.020635 -0.457512 0.091756
-0.061706 -0.433287 0.143151
-0.035253 -0.443744 0.140211
-0.042156 -0.402211 0.156742
-0.027976 -0.447984 -0.170062
-0.032498 -0.403750 -0.187869
-0.030540 -0.423444 -0.135156
-0.045189 -0.386608 -0.146543
-0.047344 -0.347429 0.183208
-0.035359 -0.350163 -0.164373
-0.022758 -0.356845 0.132292
-0.030748 -0.340676 0.194503
-0.032476 -0.346748 -0.209432
-0.028536 -0.296973 0.154162
-0.044455 -0.306635 0.201580
-0.017268 -0.312866 -0.221873
-0.040774 -0.272448 0.211271
-0.035141 -0.257200 -0.193715
-0.026027 -0.221178 0.221153
-0.019223 -0.227791 0.173343
-0.036340 -0.220876 0.170746
-0.043416 -0.204125 0.219128
-0.010955 -0.172325 -0.253785
-0.042457 -0.157834 -0.212601
0.004630 -0.142876 0.184942
-0.052723 -0.107979 -0.218003
-0.044828 -0.096552 0.245216
-0.042223 -0.050947 -0.225482
-0.022544 -0.079442 0.196202
-0.030826 -0.032160 0.253527
-0.025553 -0.050370 0.261995
-0.041085 -0.071710 0.261407
-0.022605 -0.037974 0.211706
-0.012107 -0.025091 0.211671
-0.027413 0.003574 0.193562
-0.039148 0.017417 0.229968
-0.027389 -0.007244 -0.270273
-0.021604 0.042165 0.239757
-0.033582 0.037201 0.194267
-0.048088 0.043876 0.240505
-0.012969 0.071247 0.205418
-0.053905 0.090188 0.271209
-0.047308 0.136994 -0.228839
-0.005565 0.159858 -0.270786
-0.039106 0.149384 0.265806
-0.027421 0.157267 0.220471
-0.045662 0.168284 0.256149
-0.008371 0.220305 0.221073
-0.015753 0.213750 0.231415
-0.021339 0.261154 -0.257311
-0.047972 0.369540 -0.172480
-0.035857 0.398289 -0.159602
-0.039689 0.421333 -0.143253
0.008177 0.470273 -0.184247
-0.011765 0.499391 -0.166716
-0.022208 -0.496670 -0.146134
-0.023166 -0.497545 0.118225
-0.042387 -0.499924 0.108895
-0.020277 -0.449011 0.145307
-0.008709 -0.489895 -0.153546
-0.018391 -0.458465 -0.122285
0.039054 -0.458572 -0.107299
0.054280 -0.459525 0.075134
-0.003982 -0.459480 0.097403
-0.024549 -0.406849 0.163933
-0.011384 -0.418945 0.105511
-0.014198 -0.421866 -0.139221
0.004359 -0.387609 -0.196205
-0.015928 -0.389554 0.118364
-0.027319 -0.368933 0.183042
-0.010636 -0.389928 -0.195887
-0.001979 -0.369846 0.138647
-0.021704 -0.305947 -0.181511
-0.025755 -0.324641 0.145072
-0.014848 -0.331886 0.208776
-0.029193 -0.308496 0.207462
-0.009562 -0.296713 0.162893
-0.023455 -0.249526 0.220271
-0.014022 -0.276838 0.222168
-0.016598 -0.253532 -0.237865
-0.024279 -0.266332 0.164215
-0.000632 -0.230065 0.180094
-0.024405 -0.200168 -0.207493
-0.007484 -0.210151 -0.247122
-0.005886 -0.188768 0.181227
-0.024484 -0.149619 -0.215893
-0.047824 -0.171243 0.223427
-0.025765 -0.085133 -0.223882
-0.001154 -0.089965 -0.264340
0.019203 -0.074160 0.187311
0.005192 -0.013553 -0.270387
-0.023086 0.009272 0.240056
-0.026132 0.042706 -0.231952
0.003333 0.043573 -0.272814
0.005170 0.062451 0.198078
-0.037505 0.082267 0.245930
-0.031975 0.090377 0.265576
-0.029972 0.106783 -0.231738
-0.005105 0.102200 0.206952
0.009170 0.113539 0.214628
0.005181 0.131436 0.214961
-0.003734 0.140118 0.230534
-0.039283 0.186336 -0.226046
-0.003736 0.176358 0.215298
-0.002511 0.219105 -0.264764
-0.009517 0.219402 0.215151
-0.022441 0.210179 -0.224812
-0.035043 0.263186 -0.214196
0.006914 0.259065 -0.258427
0.005529 0.297269 -0.249672
-0.033567 0.292176 -0.207025
-0.026790 0.320950 -0.198435
-0.000114 0.330682 -0.239639
-0.029125 0.345972 -0.188289
-0.007798 0.370187 -0.224077
-0.022047 0.376041 -0.174903
-0.015595 0.416856 -0.199669
-0.036165 0.438239 -0.138458
0.007312 0.450151 -0.181147
-0.015734 0.489540 -0.141172
-0.003164 0.498160 -0.155690
-0.052823 -0.499627 0.049435
-0.006674 -0.496720 0.127127
0.010625 -0.489013 -0.152762
0.003188 -0.458221 -0.123041
0.019123 -0.458417 -0.118982
0.008700 -0.459224 0.105459
0.002358 -0.432773 0.170284
0.008570 -0.448774 -0.170937
0.003113 -0.415083 0.116975
0.002708 -0.357817 -0.164253
-0.009669 -0.371418 -0.159681
0.029339 -0.321921 -0.215901
-0.001939 -0.309966 -0.180796
-0.002760 -0.331457 0.155757
0.011349 -0.294281 0.179459
0.019770 -0.336204 0.176705
0.002935 -0.317076 0.227137
0.007924 -0.321409 -0.218931
-0.009581 -0.295862 0.222127
0.012354 -0.280753 -0.230421
-0.001177 -0.269424 0.174747
0.011810 -0.219792 -0.244684
-0.007469 -0.225379 -0.203028
0.014090 -0.203492 0.187412
-0.006951 -0.188201 0.226067
-0.025452 -0.181550 0.222895
0.016422 -0.101963 0.186484
0.005536 -0.052629 0.193831
-0.013417 -0.077291 0.238093
0.021658 -0.058816 -0.266341
-0.007550 -0.033415 0.263054
-0.013556 -0.026689 -0.229405
0.000146 -0.028852 0.203058
-0.004467 -0.016073 0.211503
-0.010442 -0.018968 0.257377
-0.033755 -0.005887 -0.229520
0.010768 0.001361 0.209863
0.002450 0.034931 0.238732
-0.004341 0.022293 0.197185
0.022804 0.041534 0.197449
-0.015342 0.032977 0.234501
0.025926 0.055680 0.194933
-0.005827 0.042961 0.195358
-0.025642 0.064267 0.245566
-0.011409 0.095749 -0.232834
0.011253 0.084434 0.203946
-0.019127 0.092131 0.247827
0.013302 0.112576 0.205129
-0.013033 0.148136 -0.230936
-0.024400 0.126225 0.273219
0.022631 0.146214 -0.270892
-0.014323 0.180537 0.257676
-0.008907 0.253534 -0.218222
0.016897 0.410404 -0.204461
-0.011583 0.426124 -0.146933
0.006861 0.481980 -0.183174
0.017892 0.491378 -0.178360
0.024933 0.497809 -0.170698
-0.104069 -0.499133 -0.059829
0.000653 -0.492244 0.133313
0.025849 -0.495988 0.126140
0.054203 -0.458672 -0.092294
0.023788 -0.459582 0.100104
0.014136 -0.433665 0.120281
0.031784 -0.427748 -0.174859
0.007933 -0.407480 -0.144271
0.019255 -0.397951 0.189468
0.016271 -0.392490 0.145403
0.002835 -0.387277 0.197836
0.029346 -0.367988 -0.199803
0.017102 -0.363192 0.162429
0.004657 -0.353768 0.215787
0.016223 -0.313103 -0.178042
0.023213 -0.307005 0.189435
0.017015 -0.257187 0.188519
-0.002026 -0.263079 -0.194273
0.005940 -0.242781 0.235242
0.029980 -0.231662 0.197447
0.018337 -0.206364 0.236721
0.002692 -0.183712 -0.210785
0.020030 -0.168313 0.188356
-0.000164 -0.133336 -0.218804
0.033439 -0.126723 0.187096
0.023767 -0.130697 -0.258458
-0.002083 -0.100922 0.228950
0.011486 -0.045386 0.238423
-0.000683 -0.069565 -0.226066
0.033457 -0.030805 0.186970
0.014627 -0.023038 0.249700
0.013883 -0.012267 0.260576
0.029705 0.023640 -0.270767
0.023663 0.027529 -0.231053
0.003124 0.020434 -0.231735
0.013518 0.080749 -0.232635
0.028744 0.078859 -0.272011
0.033187 0.096746 0.199541
0.038502 0.113298 0.209603
0.000864 0.101341 0.247998
0.006671 0.110023 0.264895
-0.008591 0.118801 0.272531
0.020677 0.151643 0.226642
0.005808 0.138612 0.221172
0.022638 0.154741 0.267447
-0.009513 0.160110 0.266720
0.022204 0.168648 0.221783
0.007615 0.210670 0.242300
0.005933 0.199629 0.250086
0.029276 0.206691 -0.265290
0.024969 0.185487 0.212501
0.017311 0.227117 0.213833
0.037448 0.232740 0.219858
0.038938 0.233497 0.209561
0.040802 0.279186 -0.251894
0.004078 0.287363 -0.210679
0.045925 0.304893 -0.244669
0.028790 0.331012 -0.238405
-0.004116 0.325983 -0.198572
0.000368 0.360211 -0.184539
0.023438 0.371969 -0.222932
-0.004932 0.394756 -0.166811
0.012522 0.427902 -0.147294
0.029746 0.499594 -0.159317
-0.048377 -0.499342 0.000121
0.006633 -0.499972 0.121328
0.024029 -0.498496 -0.140028
0.038325 -0.425211 -0.125587
0.069939 -0.458811 -0.067095
0.081141 -0.459182 0.008836
0.065192 -0.459438 0.059054
0.040816 -0.459503 0.089241
0.014095 -0.464217 0.149648
0.031491 -0.425872 0.169320
0.028141 -0.387033 -0.147864
0.047892 -0.430446 0.104865
0.041123 -0.401761 0.129829
0.030661 -0.377493 0.150248
0.018165 -0.366216 -0.158927
0.035579 -0.301359 -0.177673
0.009948 -0.325882 0.228049
0.033848 -0.340893 0.170329
0.052170 -0.315321 0.175642
0.037706 -0.284516 -0.225445
0.028639 -0.280219 0.198221
0.017260 -0.283635 0.242379
0.035489 -0.255398 0.204194
0.026761 -0.246224 0.248414
0.030087 -0.244352 -0.237133
0.045980 -0.228969 0.207940
0.041838 -0.206405 0.200608
0.047836 -0.197132 -0.243861
0.027398 -0.166537 -0.211531
0.037036 -0.175587 0.193655
0.044540 -0.156037 -0.251721
0.053168 -0.146214 0.192224
0.026023 -0.151879 0.229464
0.031622 -0.101938 -0.220240
0.052518 -0.099194 0.183586
0.016549 -0.119517 0.226421
0.017196 -0.073998 0.229338
0.051190 -0.043099 0.179335
0.025969 -0.042598 0.232261
0.022739 -0.023031 -0.228446
0.043113 -0.019646 -0.267060
0.036319 -0.006808 0.189628
0.031560 0.004664 0.256758
0.026026 0.018091 0.206435
0.016308 0.009928 0.253386
0.039666 0.032088 0.202609
0.049900 0.062537 0.191738
0.012507 0.062491 0.240366
0.022504 0.057255 0.235387
0.038206 0.082044 0.193331
0.010698 0.082466 0.245136
0.045166 0.112707 0.196119
0.017329 0.108033 0.245119
0.008519 0.105568 0.255573
0.031151 0.119130 0.257449
0.011005 0.118776 0.268358
0.022674 0.160995 -0.229453
0.032353 0.149180 0.211096
0.014074 0.198396 -0.226493
0.011656 0.235373 -0.221571
0.055639 0.246482 -0.256561
0.020152 0.320408 -0.200081
0.049754 0.368263 -0.221347
0.028216 0.391072 -0.168072
0.050711 0.409618 -0.200602
0.007209 0.440226 -0.142710
0.059494 0.449362 -0.178684
0.052858 0.488583 -0.174462
0.019130 0.491968 -0.142653
0.043232 -0.492982 -0.138648
-0.023290 -0.498847 -0.097633
0.058113 -0.499893 0.096802
0.041660 -0.489336 0.123723
0.052815 -0.418339 0.165327
0.035424 -0.487753 -0.145675
0.059508 -0.453241 -0.149573
0.065807 -0.420107 -0.105129
0.054926 -0.411724 -0.120759
0.045295 -0.388317 -0.139369
0.043557 -0.382072 0.192087
0.049554 -0.395598 -0.182224
0.046863 -0.340574 -0.159358
0.061500 -0.355073 0.147791
0.037958 -0.348771 0.212340
0.050752 -0.336444 -0.205094
0.061283 -0.328499 0.163829
0.037173 -0.314278 0.227896
0.059923 -0.289668 -0.217651
0.044925 -0.294781 0.187808
0.026070 -0.266785 -0.190302
0.066484 -0.267408 0.187897
0.050934 -0.255984 0.199132
0.033058 -0.250280 0.249110
0.024379 -0.223353 -0.201156
0.067563 -0.212661 0.203103
0.055703 -0.239980 -0.232651
0.044842 -0.212193 0.250548
0.064507 -0.193215 0.208270
0.056072 -0.182678 0.201819
0.043399 -0.163388 0.235910
0.041798 -0.148533 -0.211884
0.035072 -0.109048 0.226275
0.057335 -0.077985 -0.259613
0.044826 -0.069076 0.181786
0.071504 -0.047088 0.172562
0.027565 -0.063089 -0.224933
0.057861 -0.029019 0.220517
0.059877 0.023577 0.181761
0.056407 0.015222 0.237764
0.049430 0.020459 0.251443
0.045235 0.080219 -0.229799
0.052284 0.044806 0.197850
0.027205 0.047185 0.238701
0.054254 0.047553 -0.268519
0.067055 0.100953 0.183617
0.063309 0.113231 0.201476
0.025635 0.126078 -0.231118
0.055476 0.126781 -0.268386
0.047045 0.165171 0.218642
0.061043 0.181132 -0.264081
0.049968 0.181432 0.213271
0.052762 0.194901 0.205452
0.024756 0.182909 0.259377
0.071563 0.213662 -0.258565
0.028912 0.224756 0.231385
0.061578 0.232274 0.225398
0.059551 0.240606 0.203042
0.067027 0.325264 -0.234523
0.028834 0.369317 -0.179264
0.056752 0.388911 -0.163362
0.037241 0.423819 -0.147174
0.047830 0.444118 -0.180899
0.047697 0.473420 -0.182280
0.039951 0.489068 -0.141708
0.066781 0.493159 -0.161375
0.050727 -0.497815 -0.126703
0.064187 -0.489120 -0.126045
0.056397 -0.495705 0.109268
0.072311 -0.432521 -0.086938
0.080967 -0.459003 -0.029906
0.075012 -0.459333 0.036497
0.076789 -0.420590 0.079922
0.071503 -0.417033 0.154869
0.069954 -0.361375 0.192140
0.070048 -0.402755 0.104899
0.065806 -0.394302 -0.174891
0.064508 -0.387197 0.122824
0.069725 -0.324290 -0.153203
0.062811 -0.315953 0.218205
0.074220 -0.331262 -0.197251
0.052667 -0.271822 0.238108
0.053063 -0.247136 -0.188098
0.055276 -0.211648 0.251900
0.079329 -0.224118 -0.228472
0.048634 -0.199865 -0.200877
0.062205 -0.184450 0.249642
0.079322 -0.149989 -0.243809
0.073207 -0.152386 0.197375
0.063945 -0.133268 -0.208553
0.060279 -0.153976 0.238037
0.053961 -0.124851 0.229077
0.075915 -0.103220 -0.251852
0.054193 -0.098755 -0.216306
0.042942 -0.081906 0.223739
0.061370 -0.057673 -0.219270
0.061563 -0.040695 0.218496
0.063795 -0.062688 0.218393
0.050269 -0.012133 -0.225563
0.084375 -0.017960 0.164198
0.067107 -0.033810 -0.261631
0.062347 -0.004870 0.175317
0.036076 -0.011413 0.238923
0.079371 0.036533 -0.263130
0.063359 0.032543 0.246011
0.056390 0.035028 0.189060
0.052491 0.060931 0.234988
0.057084 0.034098 -0.226831
0.066374 0.060014 0.191337
0.086513 0.065211 0.170763
0.053697 0.039096 0.245391
0.050569 0.074256 0.230703
0.044466 0.086830 0.237172
0.075429 0.086414 -0.265063
0.071156 0.112752 0.183174
0.079114 0.179687 0.194585
0.035020 0.116711 0.241963
0.056707 0.141091 -0.226620
0.060035 0.130815 0.244403
0.090178 0.132043 -0.260779
0.065431 0.140663 0.251234
0.066935 0.185130 -0.221375
0.049193 0.158935 0.206573
0.039969 0.142593 0.264261
0.055106 0.172742 0.257844
0.063497 0.169253 0.201394
0.069378 0.178410 0.208975
0.078874 0.194403 0.200491
0.041029 0.191531 -0.225139
0.069631 0.223868 -0.215895
0.080042 0.204333 0.194210
0.043877 0.211901 0.243630
0.047669 0.242338 -0.217238
0.088071 0.247593 0.204182
0.076245 0.283333 -0.244632
0.037277 0.273449 -0.212251
0.037140 0.318743 -0.199066
0.056660 0.323818 -0.193545
0.041777 0.354513 -0.184052
0.074092 0.402749 -0.198124
0.091468 0.431379 -0.174043
0.044966 0.436579 -0.141288
0.091266 0.457519 -0.174239
0.075228 0.472340 -0.176515
0.077909 0.483862 -0.168963
0.067002 0.492735 -0.151861
0.078239 -0.498958 -0.091170
0.076208 -0.498062 0.084061
0.081799 -0.493707 -0.102871
0.069057 -0.491043 0.101838
0.087736 -0.435983 -0.135705
0.093428 -0.434473 -0.016377
0.100393 -0.408243 -0.049180
0.087148 -0.424517 0.054789
0.087769 -0.419769 -0.069983
0.094616 -0.421578 0.036482
0.083984 -0.393121 -0.100906
0.099348 -0.387958 0.074144
0.077509 -0.371679 -0.122672
0.091654 -0.339129 0.190771
0.084260 -0.387780 -0.166010
0.085734 -0.353498 0.126970
0.076561 -0.338044 -0.141950
0.087613 -0.315866 0.150447
0.062220 -0.285653 -0.172702
0.084451 -0.285732 0.168956
0.082057 -0.281682 -0.210927
0.079200 -0.231766 -0.180867
0.068813 -0.246860 0.239161
0.083443 -0.241084 0.186986
0.102652 -0.190752 -0.225665
0.069899 -0.165878 -0.200664
0.089071 -0.181712 0.198051
0.096675 -0.115793 0.186568
0.073198 -0.113032 0.185895
0.071820 -0.094807 0.222388
0.090265 -0.048477 -0.253787
0.077647 -0.078591 0.176675
0.090350 0.008952 0.159392
0.061818 -0.009923 0.221826
0.072731 0.022825 -0.222542
0.078221 0.027813 0.168605
0.077341 0.050818 0.239162
0.076630 0.070853 0.185949
0.089409 0.084461 0.178212
0.075055 0.083048 0.224875
0.101638 0.098053 0.169786
0.073085 0.085609 0.182429
0.065751 0.101717 0.230575
0.090135 0.113177 0.188950
0.058793 0.128302 0.235241
0.074021 0.155726 0.251549
0.083535 0.177079 0.247589
0.086788 0.189680 0.199161
0.073238 0.202119 0.244381
0.075755 0.246461 0.196230
0.109275 0.247880 0.203139
0.067913 0.280301 -0.204731
0.088525 0.252125 0.189786
0.100814 0.303900 -0.231451
0.069352 0.345180 -0.181565
0.086260 0.341998 -0.176530
0.082608 0.379290 -0.159062
0.100386 0.367335 -0.206358
0.064550 0.419627 -0.142470
0.105707 0.436624 -0.168268
0.075610 0.427843 -0.135775
0.100757 0.479274 -0.158895
0.101448 0.482291 -0.146357
0.070808 0.484109 -0.136967
0.096723 -0.499169 -0.049728
0.098506 -0.499550 0.020943
0.045521 -0.499274 -0.013209
0.087222 -0.499710 0.055237
0.095442 -0.495230 0.057988
0.090256 -0.495936 -0.084169
0.098299 -0.450825 0.100650
0.103487 -0.423662 -0.125893
0.130195 -0.356366 -0.013783
0.097789 -0.424108 0.012560
0.093763 -0.428666 0.126023
0.100012 -0.387022 -0.078612
0.100803 -0.414840 -0.032631
0.102800 -0.370506 -0.159331
0.113271 -0.356497 0.081721
0.092721 -0.385509 0.160541
0.096667 -0.340136 -0.120599
0.100593 -0.361801 -0.099913
0.099644 -0.355725 0.107162
0.099706 -0.330746 -0.181496
0.095620 -0.290271 -0.148155
0.111357 -0.307111 0.129561
0.080191 -0.291457 0.219712
0.112859 -0.281419 -0.192466
0.090927 -0.270500 -0.160340
0.100583 -0.232437 -0.166693
0.111822 -0.274210 0.148791
0.085119 -0.262307 0.227274
0.108201 -0.237187 0.168760
0.098220 -0.210197 0.185616
0.079677 -0.210686 0.243100
0.086484 -0.184125 -0.189464
0.108774 -0.140997 -0.232996
0.089506 -0.111708 -0.202252
0.100330 -0.142423 0.197447
0.082947 -0.165054 0.204182
0.084753 -0.172152 0.247474
0.111731 -0.127431 0.191556
0.080423 -0.127105 0.232702
0.115778 -0.123310 0.234204
0.087281 -0.076976 0.216353
0.081736 -0.067763 -0.211795
0.104951 -0.065299 0.167645
0.107628 -0.078566 -0.243716
0.076643 -0.029474 -0.217667
0.112235 -0.005118 -0.249832
0.089379 -0.027263 0.207004
0.110680 0.002753 0.148341
0.089016 0.011020 -0.216617
0.093726 0.004820 0.204347
0.105711 0.035655 0.147475
0.079616 0.016632 0.216962
0.094075 0.015243 -0.257885
0.089430 0.033771 0.215357
0.095558 0.050736 0.219793
0.081500 0.075056 -0.222042
0.108860 0.069845 0.147483
0.109814 0.088731 0.151615
0.082529 0.095180 0.220682
0.097307 0.112774 0.168234
0.085170 0.155938 -0.219111
0.080130 0.139360 0.225459
0.103715 0.156559 0.226780
0.118756 0.144031 -0.250729
0.094726 0.192147 0.186233
0.096190 0.188483 -0.255307
0.103358 0.212943 0.181059
0.100255 0.199831 0.189287
0.096202 0.231903 0.221039
0.094153 0.245613 -0.247902
0.102140 0.259181 0.181827
0.086009 0.351708 -0.218952
0.119646 0.323914 -0.216228
0.106659 0.404883 -0.182642
0.101132 0.401542 -0.133984
0.091031 0.423863 -0.131230
0.092592 0.477338 -0.130655
0.121414 0.471375 -0.131161
0.108943 -0.495434 -0.006476
0.106964 -0.493114 0.026752
0.101576 -0.490109 -0.068416
0.105480 -0.494567 -0.047583
0.114309 -0.483463 -0.026749
0.087847 -0.492422 0.076095
0.097552 -0.480291 -0.088841
0.116179 -0.380094 0.033243
0.118966 -0.364452 0.054354
0.124742 -0.368253 0.011338
0.115690 -0.363486 0.153490
0.117889 -0.362616 -0.062350
0.118030 -0.328998 -0.097588
0.124869 -0.316561 0.100018
0.114673 -0.336826 0.172703
0.108871 -0.306829 -0.126203
0.093764 -0.310631 0.203767
0.131882 -0.261366 -0.122713
0.124331 -0.250974 -0.137653
0.108022 -0.267059 0.211635
0.112870 -0.243126 -0.152583
0.108550 -0.233225 -0.211313
0.134099 -0.217109 -0.198571
0.132542 -0.217321 0.150272
0.102241 -0.207652 0.232566
0.111358 -0.189653 -0.172102
0.115041 -0.233432 0.217855
0.108690 -0.176496 0.185828
0.129440 -0.185112 0.165131
0.089799 -0.153385 0.244870
0.098781 -0.141209 -0.192154
0.118318 -0.085740 -0.191420
0.100268 -0.099512 0.223061
0.134333 -0.097659 0.176411
0.124628 -0.116441 -0.229504
0.103855 -0.074783 -0.201184
0.134030 -0.066789 0.162211
0.109499 -0.040128 0.158684
0.102702 -0.042990 0.204974
0.135417 -0.029087 0.191331
0.106917 0.040045 -0.211441
0.131861 0.067979 -0.245684
0.091822 0.057945 0.232531
0.114619 0.078101 0.218085
0.102522 0.080210 0.223064
0.096132 0.116321 -0.217056
0.125222 0.112781 0.140327
0.113604 0.112311 0.160896
0.119592 0.113254 0.169700
0.105750 0.104424 0.210780
0.111166 0.092346 -0.254590
0.087587 0.114453 0.221087
0.107309 0.160570 -0.210822
0.095706 0.148135 0.216740
0.107301 0.155328 0.209667
0.099774 0.167680 0.238451
0.125210 0.184195 -0.245203
0.093703 0.197438 -0.212477
0.110125 0.206046 0.176499
0.113016 0.211001 0.178250
0.121937 0.219566 0.167787
0.100192 0.199529 0.236191
0.089893 0.235937 -0.208155
0.107858 0.221299 0.223885
0.120326 0.229561 -0.241271
0.100129 0.269153 -0.197049
0.117882 0.260375 0.185679
0.114516 0.266663 -0.236211
0.115821 0.266203 0.172489
0.088969 0.306482 -0.190052
0.132702 0.344872 -0.199910
0.101169 0.360107 -0.159978
0.117528 0.401220 -0.122612
0.117854 0.414341 -0.119845
0.131581 0.442768 -0.159101
0.104979 0.465450 -0.167240
0.125160 0.462017 -0.155854
0.107710 0.471148 -0.124604
0.132017 0.467635 -0.135673
0.128196 -0.448105 0.032770
0.122931 -0.442917 0.060997
0.126173 -0.413501 0.092238
0.123668 -0.393391 -0.120067
0.122646 -0.388013 0.124242
0.126417 -0.356697 -0.041134
0.121446 -0.362445 -0.144560
0.145853 -0.322756 0.001817
0.119686 -0.345178 -0.078932
0.142807 -0.311080 -0.057706
0.144873 -0.320399 -0.027562
0.139482 -0.329898 0.037098
0.138956 -0.314677 0.068191
0.141340 -0.296654 -0.079154
0.148227 -0.295274 -0.152346
0.130559 -0.296362 -0.101824
0.140135 -0.278061 0.103583
0.126859 -0.311884 -0.167112
0.138068 -0.256502 -0.181115
0.130302 -0.255995 0.134877
0.128449 -0.206622 -0.151978
0.139244 -0.202832 0.207349
0.137206 -0.155459 -0.213431
0.123589 -0.152549 -0.173399
0.129663 -0.151108 0.173179
0.112585 -0.143160 0.237385
0.128434 -0.107709 -0.180499
0.124500 -0.111898 0.184026
0.112389 -0.062951 0.208531
0.145700 -0.051436 -0.227925
0.127375 -0.029460 -0.194515
0.150725 -0.035745 0.143822
0.126486 -0.019112 0.146142
0.121652 -0.011131 0.191399
0.133605 -0.010035 -0.239507
0.107889 -0.022558 -0.205968
0.145717 0.029327 0.121410
0.140942 0.027564 0.173155
0.109708 0.003817 0.194920
0.116595 0.035104 0.190395
0.132533 0.042997 -0.198829
0.132686 0.065703 0.123519
0.130807 0.046530 0.127567
0.141464 0.066393 0.170994
0.142688 0.091424 0.112070
0.120607 0.063762 0.194742
0.115698 0.108170 -0.209231
0.140308 0.112834 0.116903
0.117759 0.087698 0.215843
0.119905 0.119159 0.200992
0.120608 0.164873 0.200323
0.121249 0.166498 0.209687
0.122395 0.228551 -0.195418
0.138285 0.238700 0.200716
0.139194 0.280795 0.152754
0.128405 0.273853 0.162425
0.149480 0.279903 0.156730
0.110340 0.306697 -0.179928
0.136710 0.288139 -0.219625
0.122740 0.326376 -0.163109
0.123085 0.367449 -0.139216
0.134760 0.335942 -0.147997
0.124766 0.374007 -0.189797
0.127106 0.419492 -0.159785
0.132819 0.465273 -0.143118
0.124392 0.462960 -0.116166
0.132407 -0.446996 -0.001929
0.126253 -0.425499 -0.085421
0.131050 -0.434882 -0.058827
0.140980 -0.367002 0.114449
0.145990 -0.330393 -0.133338
0.147715 -0.360583 -0.106931
0.143459 -0.338566 0.136146
0.156215 -0.288072 -0.041334
0.158972 -0.290664 0.013213
0.156611 -0.275346 0.062948
0.137040 -0.329864 0.151988
0.121977 -0.307483 0.182439
0.142356 -0.263490 -0.105223
0.155291 -0.254254 -0.086938
0.159668 -0.247646 0.084502
0.131465 -0.262231 0.194742
0.147909 -0.218669 -0.123943
0.150130 -0.228228 0.119184
0.153427 -0.182353 -0.133816
0.143016 -0.165899 -0.152092
0.154851 -0.174547 0.136468
0.137220 -0.173911 0.216084
