# .PCD v0.7 - Point Cloud Data file format
VERSION 0.7
FIELDS x y z rgba
SIZE 4 4 4 4
TYPE F F F U
COUNT 1 1 1 1
WIDTH 1073
HEIGHT 1
VIEWPOINT 0 0 0 1 0 0 0
POINTS 1073
DATA ascii
0.0045099999 0.089730002 0.055548999 4294967295
0.0055069998 0.089713998 0.055406 4294967295
0.0065139998 0.089712001 0.055193 4294967295
0.0074999998 0.089676 0.055015001 4294967295
0.05753855 0.13870455 0.10383555 4294967295
0.0095030004 0.089649998 0.05455 4294967295
0.010498 0.089633003 0.054299001 4294967295
0.01149 0.089611001 0.054035999 4294967295
0.00119 0.089524001 -0.034178 4294967295
-0.046503 0.162256 0.0064500002 4294967295
0.037843 0.10835 0.02318 4294967295
-0.01005 0.166619 -0.017704999 4294967295
0.0069530001 0.13108 0.019377001 4294967295
-0.077473998 0.14001501 0.048069999 4294967295
0.078721479 0.14949848 0.10889448 4294967295
0.019483 0.089253999 0.048599001 4294967295
0.020501001 0.089245997 0.048664 4294967295
0.021486999 0.089252003 0.048668001 4294967295
0.022482 0.089250997 0.048473999 4294967295
-0.070421003 0.15543 0.027334001 4294967295
-0.076490998 0.140037 0.048096001 4294967295
-0.019502999 0.118175 0.035273001 4294967295
-0.069513001 0.14560901 0.042805001 4294967295
0.035960998 0.109622 -0.001833 4294967295
-0.071519352 0.17033465 -0.018510355 4294967295
-0.010491 0.12238 0.034609001 4294967295
-0.046498999 0.115243 0.033257 4294967295
-0.030982001 0.125744 0.0055379998 4294967295
-0.070497997 0.124601 0.053002998 4294967295
-0.0034950001 0.123738 0.034299999 4294967295
0.043341 0.097322002 0.019164 4294967295
0.043891001 0.097329997 0.0041760001 4294967295
-0.089530997 0.098355003 0.017401 4294967295
0.042452 0.095849998 0.025157001 4294967295
0.048606243 0.12531824 0.03747024 4294967295
-0.076026 0.151346 0.035951 4294967295
0.026014 0.118212 -0.005382 4294967295
-0.092129998 0.11612 0.036309998 4294967295
-0.091518 0.140609 0.019177999 4294967295
0.039306998 0.105567 0.023165001 4294967295
-0.067812003 0.090884 -0.016985999 4294967295
-0.081146002 0.155009 0.016309001 4294967295
0.022313001 0.124739 0.023599001 4294967295
-0.039767001 0.127634 -0.00065499998 4294967295
0.062497132 0.14767413 0.056696132 4294967295
0.01826 0.12752301 0.019246001 4294967295
-0.061857998 0.15313099 0.033330001 4294967295
0.022081001 0.125732 0.019231001 4294967295
-0.0062739998 0.12813599 0.027603 4294967295
-0.013201 0.12882499 0.004807 4294967295
0.0063800002 0.131641 0.012033 4294967295
0.0073600002 0.13151801 0.012388 4294967295
-0.067727 0.15579601 -0.002291 4294967295
-0.074854001 0.15611 0.014111 4294967295
0.024986055 0.13154106 0.076760054 4294967295
-0.082248002 0.106043 -0.0026229999 4294967295
-0.086649999 0.106304 0.0093719997 4294967295
-0.072529003 0.090140998 0.041391 4294967295
-0.071505003 0.090172999 0.041730002 4294967295
-0.070502996 0.090182997 0.041854002 4294967295
-0.069495 0.090204 0.042225 4294967295
-0.068490997 0.090255 0.042840999 4294967295
-0.087260999 0.137734 0.005204 4294967295
-0.066508003 0.090346999 0.044027001 4294967295
-0.057565574 0.098308429 0.052325424 4294967295
-0.064492002 0.090398997 0.044748999 4294967295
-0.063484997 0.090421997 0.0451 4294967295
-0.062495999 0.090438001 0.045271002 4294967295
-0.061496999 0.090447001 0.045400999 4294967295
-0.060497001 0.090438001 0.045272999 4294967295
-0.059498001 0.090438001 0.045185 4294967295
-0.058497 0.090438999 0.045232002 4294967295
-0.057496 0.090438999 0.045276999 4294967295
-0.056497999 0.090437002 0.045265 4294967295
0.016696919 0.16262291 0.11736192 4294967295
-0.054506999 0.090415999 0.044980001 4294967295
-0.053497002 0.090397999 0.044755999 4294967295
-0.052499 0.090387002 0.044702999 4294967295
-0.051499002 0.090386003 0.044702001 4294967295
-0.050496999 0.090396002 0.044661 4294967295
-0.049497999 0.090392999 0.044649001 4294967295
-0.048494998 0.090384997 0.044530999 4294967295
-0.047508001 0.090355001 0.044218998 4294967295
-0.046473999 0.090333 0.04369 4294967295
-0.037203901 0.098550096 0.051485099 4294967295
-0.044461001 0.090268999 0.042849999 4294967295
-0.043481998 0.090249002 0.042679999 4294967295
-0.042493001 0.090245001 0.042649001 4294967295
-0.041496001 0.090235002 0.042569 4294967295
-0.040506002 0.090241998 0.042645998 4294967295
-0.039496999 0.090276003 0.043111999 4294967295
-0.038492002 0.090305999 0.043464001 4294967295
-0.037482001 0.090319999 0.043543 4294967295
-0.036497001 0.090314001 0.043616001 4294967295
0.022555409 0.14839041 0.10183041 4294967295
-0.034492001 0.090369999 0.044218998 4294967295
-0.033491001 0.090401001 0.044406999 4294967295
-0.032494001 0.090387002 0.044278 4294967295
-0.031495001 0.090368003 0.044195998 4294967295
-0.030482 0.090359002 0.044039 4294967295
-0.029493 0.090354003 0.044110999 4294967295
-0.028445 0.090386003 0.044847999 4294967295
0.020764999 0.126697 0.014466 4294967295
0.021593999 0.126233 0.014774 4294967295
0.052431643 0.15577064 0.045087639 4294967295
0.023228999 0.125257 0.015384 4294967295
0.024016 0.124704 0.015671 4294967295
0.024809999 0.124191 0.015977001 4294967295
0.025584999 0.123614 0.016263001 4294967295
0.027071999 0.122359 0.01682 4294967295
0.026325 0.122966 0.016535999 4294967295
-0.018485 0.091067001 0.055002 4294967295
-0.017484 0.091095999 0.055473998 4294967295
-0.016485 0.091117002 0.055829 4294967295
0.0067933192 0.11343032 0.078380324 4294967295
-0.014484 0.091154002 0.056306999 4294967295
-0.013499 0.091174997 0.056481 4294967295
-0.012486 0.091155998 0.056527 4294967295
-0.011492 0.091155998 0.056411002 4294967295
-0.0105 0.091173999 0.056481998 4294967295
-0.0094980001 0.091187 0.056632001 4294967295
-0.0084990002 0.091191001 0.056727 4294967295
-0.0074959998 0.091199003 0.056754 4294967295
-0.0064960001 0.091201 0.056761999 4294967295
-8.5170148e-05 0.09659683 0.062123831 4294967295
-0.004491 0.091183998 0.056522999 4294967295
-0.0034940001 0.091170996 0.056382 4294967295
-0.0024920001 0.091162004 0.056251001 4294967295
-0.001496 0.091154002 0.056125998 4294967295
-0.00049399998 0.091145001 0.056010999 4294967295
0.000505 0.091135003 0.055872001 4294967295
0.001508 0.091130003 0.055668 4294967295
0.002511 0.091118999 0.055441 4294967295
0.0034970001 0.091095999 0.055256002 4294967295
0.03765684 0.12423784 0.088198841 4294967295
0.005508 0.091077998 0.054811001 4294967295
0.0065000001 0.091045998 0.054536 4294967295
0.0074919998 0.091015004 0.054271001 4294967295
0.0084969997 0.091011003 0.054049999 4294967295
0.0095039997 0.091008 0.053833999 4294967295
0.010498 0.090989001 0.053690001 4294967295
0.011503 0.090985 0.053470999 4294967295
0.012499 0.090960003 0.053103998 4294967295
-0.00042900001 0.131494 0.013825 4294967295
-0.018636055 0.16941895 0.10464294 4294967295
-0.071493 0.117552 0.052947 4294967295
-0.072499 0.117558 0.052931 4294967295
-0.073500998 0.117559 0.052797001 4294967295
0.018491 0.090646997 0.048174001 4294967295
0.019493001 0.090643004 0.048153002 4294967295
0.020489 0.090631999 0.048215002 4294967295
0.021492001 0.090641998 0.048236001 4294967295
0.022489 0.090636998 0.048128001 4294967295
-0.041498002 0.115265 0.033766001 4294967295
0.03589233 0.15815933 0.024979331 4294967295
-0.023535 0.118111 0.033156998 4294967295
-0.07051 0.145613 0.043179002 4294967295
-0.060040999 0.155524 0.022273 4294967295
-0.066578999 0.16376799 -0.057985 4294967295
0.036008999 0.105316 -0.0078050001 4294967295
0.042082001 0.101483 0.016164999 4294967295
-0.014494 0.122325 0.033096999 4294967295
-0.069490999 0.124597 0.052657001 4294967295
-0.0044920002 0.123763 0.034322001 4294967295
0.06230019 0.11609119 0.036932193 4294967295
0.044268999 0.097358003 0.008165 4294967295
-0.0092580002 0.177251 -0.027731 4294967295
-0.011498 0.12239 0.034249999 4294967295
-0.048494998 0.156406 0.0095779998 4294967295
-0.070533 0.14418501 0.044275001 4294967295
-0.010551 0.16509099 -0.017749 4294967295
-0.090981998 0.11607 0.030317999 4294967295
-0.047862999 0.12595201 -0.007098 4294967295
0.016489999 0.113991 0.037610002 4294967295
0.086979628 0.15858163 0.064012624 4294967295
-0.032168001 0.120788 0.027294001 4294967295
0.021492001 0.125223 0.023294 4294967295
-0.0097270003 0.130072 0.010416 4294967295
0.029415 0.118962 0.024822 4294967295
0.017402999 0.12794399 0.018931 4294967295
-0.059464999 0.151494 0.034235999 4294967295
0.023685001 0.124697 0.019827001 4294967295
-0.070750996 0.15636501 0.019917 4294967295
-0.014446 0.128429 0.004348 4294967295
-0.0014166402 0.13972536 0.01579936 4294967295
0.005349 0.13171101 0.011658 4294967295
-0.064792998 0.15319 -0.001163 4294967295
-0.067018002 0.155095 -0.002024 4294967295
-0.037005998 0.121579 0.028508 4294967295
-0.059193 0.155725 0.01387 4294967295
-0.079843998 0.119249 -0.0049979999 4294967295
-0.093406998 0.117385 0.016302001 4294967295
-0.072527997 0.091560997 0.041390002 4294967295
-0.071520001 0.091588996 0.041765999 4294967295
-0.033134203 0.12898681 0.0793318 4294967295
-0.069500998 0.091615997 0.042102002 4294967295
-0.068519004 0.091642 0.042401999 4294967295
-0.067585997 0.091559999 0.042994 4294967295
-0.066494003 0.091724999 0.043616999 4294967295
-0.065491997 0.091753997 0.043990999 4294967295
-0.064485997 0.091776997 0.044355001 4294967295
-0.063501999 0.091813996 0.044778001 4294967295
-0.0625 0.091833003 0.045031998 4294967295
-0.061489001 0.091839999 0.045217 4294967295
-0.044981472 0.10736453 0.06078453 4294967295
-0.059496 0.091858 0.045384999 4294967295
-0.058497 0.091858998 0.045398999 4294967295
-0.057498001 0.091858998 0.045398999 4294967295
-0.056497999 0.091856003 0.045386001 4294967295
-0.055503 0.091847003 0.045251001 4294967295
-0.054504 0.091816999 0.044881999 4294967295
-0.053502999 0.091784 0.044475999 4294967295
-0.052498002 0.091770999 0.044158 4294967295
-0.051498 0.091769002 0.044151999 4294967295
-0.040226728 0.10205027 0.054509271 4294967295
-0.049492002 0.091775998 0.044206999 4294967295
-0.048473999 0.091765001 0.044029001 4294967295
-0.047479 0.091747001 0.043818999 4294967295
-0.046479002 0.091718003 0.043426 4294967295
-0.045472998 0.091701001 0.043187 4294967295
-0.044486001 0.091688 0.043028999 4294967295
-0.043480001 0.091716997 0.042888999 4294967295
-0.042493999 0.09166 0.042660002 4294967295
-0.041498002 0.091645002 0.042479999 4294967295
-0.025054233 0.10709277 0.058038767 4294967295
-0.039499 0.091679998 0.042987999 4294967295
-0.038476001 0.091716997 0.043432001 4294967295
-0.037489999 0.091738001 0.043728001 4294967295
-0.036476001 0.091770001 0.044038001 4294967295
-0.035493001 0.091787003 0.044351 4294967295
-0.034488 0.091807999 0.044566002 4294967295
-0.033489 0.091813996 0.044516999 4294967295
-0.032497 0.091793001 0.044302002 4294967295
-0.031496 0.091779001 0.044225 4294967295
0.066587888 0.18884888 0.14120089 4294967295
-0.029491 0.091767997 0.044094 4294967295
-0.028489999 0.091785997 0.044379 4294967295
-0.027531 0.091836996 0.044932999 4294967295
0.033378001 0.11597 0.019200001 4294967295
0.032724999 0.116757 0.018949 4294967295
0.032065999 0.117538 0.018697999 4294967295
0.031383 0.11825 0.018429 4294967295
0.030693 0.119003 0.018175 4294967295
0.029259 0.120361 0.017632 4294967295
0.095528848 0.18941884 0.084816843 4294967295
0.028534999 0.121033 0.017364001 4294967295
0.02998 0.119686 0.017906001 4294967295
-0.017477 0.092439003 0.054745998 4294967295
-0.016454 0.092483997 0.055263001 4294967295
-0.015495 0.09251 0.055505998 4294967295
-0.014495 0.092497997 0.055608999 4294967295
-0.013496 0.092526004 0.055860002 4294967295
-0.012495 0.092542 0.056095999 4294967295
-0.0115 0.092552997 0.056122001 4294967295
0.043666314 0.14671531 0.11028431 4294967295
-0.0095009999 0.092559002 0.056138001 4294967295
-0.008494 0.092551999 0.056225002 4294967295
-0.0074990001 0.092569001 0.05627 4294967295
-0.0064989999 0.092559002 0.056341998 4294967295
-0.0054959999 0.092565998 0.056262001 4294967295
-0.004495 0.092560001 0.056143999 4294967295
-0.0034940001 0.092550002 0.056019999 4294967295
-0.0024939999 0.092550002 0.055920999 4294967295
-0.001501 0.092524998 0.055852 4294967295
0.0033835042 0.096402511 0.059535503 4294967295
0.00050600001 0.092514999 0.055525001 4294967295
0.001509 0.09251 0.055314001 4294967295
0.002507 0.092495002 0.055167999 4294967295
0.003515 0.092491001 0.054954998 4294967295
0.0045030001 0.092460997 0.054676 4294967295
0.0054990002 0.092430003 0.054294001 4294967295
0.0064989999 0.092409 0.053833999 4294967295
0.007491 0.092362002 0.053428002 4294967295
0.0084929997 0.092349 0.053197999 4294967295
0.068618052 0.15145905 0.11218905 4294967295
0.010493 0.092322998 0.052939001 4294967295
0.011497 0.092329003 0.052733 4294967295
0.012498 0.092312999 0.052382998 4294967295
0.00066399999 0.131541 0.014225 4294967295
0.033789001 0.112917 0.026474999 4294967295
-0.018064 0.122407 0.030816 4294967295
-0.089689001 0.13791899 0.032196999 4294967295
-0.069706 0.15630899 0.020289 4294967295
0.018484 0.092023998 0.047770999 4294967295
0.096279256 0.16880926 0.12456626 4294967295
0.020498 0.092023998 0.047917999 4294967295
0.021484001 0.092023 0.047943 4294967295
0.022476999 0.092019998 0.047839999 4294967295
0.019091001 0.12706199 0.019553 4294967295
-0.075510003 0.135846 0.050632 4294967295
-0.022534 0.118142 0.03379 4294967295
-0.066453002 0.145477 0.041009001 4294967295
-0.073218003 0.172207 -0.049043 4294967295
-0.00049900002 0.114191 0.04152 4294967295
0.10185336 0.20617835 0.11825336 4294967295
-0.078481004 0.13723999 0.049791001 4294967295
-0.049392 0.144765 0.0093830004 4294967295
-0.036297001 0.126232 -0.002321 4294967295
-0.0074820002 0.123738 0.033932 4294967295
0.043382999 0.098710001 0.0041760001 4294967295
0.044264998 0.097354002 0.0071689999 4294967295
-0.053518001 0.1534 0.014505 4294967295
-0.0073170001 0.13056 0.011298 4294967295
-0.077486999 0.13865399 0.048967 4294967295
-0.020073995 0.19764501 0.098363012 4294967295
0.022476001 0.125337 0.020807 4294967295
-0.031128 0.168264 -0.006546 4294967295
-0.037744001 0.127354 0.000112 4294967295
-0.054308999 0.15369201 0.017105 4294967295
-0.053148001 0.16124099 0.005876 4294967295
-0.067566 0.156308 0.021039 4294967295
0.020662 0.125677 0.022985 4294967295
-0.0085239997 0.130326 0.010857 4294967295
-0.089157999 0.092949003 0.021415999 4294967295
0.10302523 0.17706023 0.092880227 4294967295
-0.08529 0.152844 0.023807 4294967295
0.024448 0.124114 0.020114999 4294967295
0.0088879997 0.12662899 0.030143 4294967295
0.037025001 0.10907 0.02483 4294967295
-0.010688 0.12955301 0.0057379999 4294967295
0.035735 0.111877 0.022915 4294967295
-0.086879 0.092725001 0.003421 4294967295
-0.092473999 0.125588 0.036261 4294967295
-0.070188999 0.156285 0.021569001 4294967295
-0.021525403 0.2090476 0.0566356 4294967295
-0.018231999 0.18705601 -0.018293999 4294967295
-0.091655999 0.116096 0.032317001 4294967295
-0.072494 0.092871003 0.041338999 4294967295
-0.071511 0.093010999 0.041746002 4294967295
-0.070513003 0.093024999 0.042013999 4294967295
-0.069490999 0.093037002 0.042202 4294967295
-0.068515003 0.093047999 0.042284001 4294967295
-0.067496002 0.093068004 0.042601999 4294967295
-0.066510998 0.093103997 0.043021001 4294967295
-0.049690213 0.10894778 0.05931979 4294967295
-0.064484 0.093156002 0.043972 4294967295
-0.063500002 0.093197003 0.044392001 4294967295
-0.062472999 0.093208 0.044810999 4294967295
-0.061489001 0.093229003 0.044978 4294967295
-0.060495 0.093243003 0.045115001 4294967295
-0.059498999 0.093257003 0.045173999 4294967295
-0.058495998 0.093259998 0.045269001 4294967295
-0.057495002 0.093264997 0.045193002 4294967295
-0.056499001 0.093248002 0.045127999 4294967295
-0.043554112 0.1051769 0.056856889 4294967295
-0.054494999 0.093212001 0.044537 4294967295
-0.053495999 0.093183003 0.044151001 4294967295
-0.052498002 0.093167998 0.043931998 4294967295
-0.051499002 0.093171999 0.044024002 4294967295
-0.050500002 0.093189999 0.044287 4294967295
-0.049497001 0.093203999 0.044502001 4294967295
-0.048487 0.093181998 0.044220001 4294967295
-0.047485001 0.093152002 0.043806002 4294967295
-0.046484999 0.093134999 0.043535002 4294967295
-0.020042131 0.11856787 0.068845868 4294967295
-0.044500999 0.093106002 0.043109 4294967295
-0.043494001 0.093078002 0.042739 4294967295
-0.042507999 0.093030997 0.042490002 4294967295
-0.041499998 0.093051001 0.042358998 4294967295
-0.0405 0.093059003 0.042491999 4294967295
-0.039508998 0.093088001 0.042886999 4294967295
-0.038467001 0.093124002 0.043414999 4294967295
-0.037486002 0.093157001 0.043846 4294967295
-0.036481 0.093183003 0.044199999 4294967295
0.0085356897 0.13721369 0.088431686 4294967295
-0.034478001 0.093211003 0.044512 4294967295
-0.033491001 0.093206003 0.044454999 4294967295
-0.032492999 0.093209997 0.044431999 4294967295
-0.031493001 0.093213998 0.044429 4294967295
-0.030492 0.093206003 0.044305 4294967295
-0.029493 0.093199 0.044344999 4294967295
-0.028491 0.093206003 0.044484999 4294967295
-0.027497999 0.093225002 0.044764001 4294967295
-0.026628001 0.093263999 0.045173001 4294967295
0.037700817 0.18110782 0.066430815 4294967295
0.034029 0.115127 0.019438 4294967295
0.034658 0.114254 0.01967 4294967295
0.035262998 0.113355 0.019893 4294967295
0.036460001 0.111481 0.020324999 4294967295
0.037636001 0.109584 0.020757001 4294967295
-0.015412 0.12889101 0.014121 4294967295
0.037052002 0.110502 0.020533999 4294967295
0.035872001 0.112393 0.020106001 4294967295
-0.0165 0.093831003 0.054193001 4294967295
0.020478709 0.1297837 0.09058971 4294967295
-0.014492 0.093841001 0.054653 4294967295
-0.013542 0.093873002 0.054745998 4294967295
-0.0125 0.093895003 0.055163998 4294967295
-0.011493 0.093884997 0.055473 4294967295
-0.010496 0.093904004 0.055504002 4294967295
-0.0094959997 0.093896002 0.055493001 4294967295
-0.0084960004 0.093901999 0.055500001 4294967295
-0.0074979998 0.093906999 0.055619001 4294967295
-0.0064980001 0.093928002 0.05565 4294967295
-0.0050319037 0.094386101 0.056106094 4294967295
-0.004497 0.093906 0.055610999 4294967295
-0.0034980001 0.093896002 0.055486999 4294967295
-0.0024979999 0.093904004 0.055399001 4294967295
-0.0015 0.093887001 0.055360001 4294967295
-0.00050199998 0.093872003 0.055224001 4294967295
0.00049800001 0.093869999 0.055114999 4294967295
0.001502 0.093874 0.055018999 4294967295
0.0024999999 0.093863003 0.054784998 4294967295
0.003514 0.093863003 0.054473002 4294967295
0.020632913 0.10995392 0.070204914 4294967295
0.0054970002 0.093783997 0.053578999 4294967295
0.0065000001 0.093759999 0.053105 4294967295
0.0074809999 0.093725003 0.052715998 4294967295
0.0084809996 0.093682997 0.052444998 4294967295
0.0094919996 0.093688004 0.052235998 4294967295
0.010488 0.093668997 0.052099999 4294967295
0.011483 0.093647003 0.051849999 4294967295
0.012487 0.093639001 0.051509 4294967295
0.013471 0.093601003 0.051128 4294967295
0.073256351 0.14317834 0.054980353 4294967295
0.040665999 0.105634 0.012164 4294967295
-0.050494999 0.15496799 0.010718 4294967295
0.017475 0.093454003 0.048154 4294967295
0.018471999 0.093424 0.047630999 4294967295
0.019489 0.093416996 0.047619 4294967295
0.020486999 0.093415 0.047692999 4294967295
0.021485999 0.093419001 0.047713 4294967295
0.022475 0.093399003 0.047467001 4294967295
-0.072500996 0.11898 0.053433999 4294967295
0.022973619 0.17345662 0.086448625 4294967295
-0.021523001 0.118151 0.034283001 4294967295
-0.073509 0.120392 0.053560998 4294967295
-0.061813001 0.175696 -0.058605999 4294967295
-0.0091700004 0.16812301 -0.020723 4294967295
0.0051580002 0.127708 0.028803 4294967295
-0.079416998 0.137236 0.049578 4294967295
-0.030468 0.175749 -0.0042380001 4294967295
-0.069718003 0.155623 0.0028260001 4294967295
-0.006488 0.123768 0.034079 4294967295
0.073373429 0.12855743 0.03499243 4294967295
0.044036001 0.097346 0.005171 4294967295
-0.024581 0.124862 0.019618999 4294967295
-0.073490001 0.123206 0.053541999 4294967295
-0.078464001 0.138605 0.048902001 4294967295
-0.072512001 0.14420301 0.044796001 4294967295
-0.032945 0.121338 0.026992001 4294967295
-0.058680002 0.148237 0.034554001 4294967295
-0.081462003 0.13163 0.051727999 4294967295
-0.080499999 0.127434 0.052885 4294967295
-0.039015178 0.21063183 -0.018868174 4294967295
-0.068548001 0.15642899 0.020686001 4294967295
0.023084 0.12416 0.023885 4294967295
-0.010866 0.129871 0.0099980002 4294967295
-0.038460001 0.127124 -0.00163 4294967295
0.035443 0.111045 0.025661999 4294967295
-0.069185004 0.156032 0.024846001 4294967295
0.022871999 0.125195 0.019524001 4294967295
0.021252999 0.12620001 0.018927 4294967295
0.036477 0.110061 0.024618 4294967295
-0.0053175297 0.13401747 0.01035247 4294967295
0.036316 0.11089 0.023127001 4294967295
-0.066271998 0.154476 -0.00174 4294967295
-0.065554999 0.153788 -0.0014609999 4294967295
0.010602 0.12463 0.032201 4294967295
-0.083722003 0.15414099 0.015427 4294967295
-0.0099189999 0.098623 0.050579 4294967295
0.011333 0.124014 0.032524001 4294967295
-0.045880999 0.10564 -0.02018 4294967295
-0.071525998 0.094419003 0.041653 4294967295
0.0024736982 0.1674087 0.11504669 4294967295
-0.069481999 0.094457999 0.042293999 4294967295
-0.068494 0.094461001 0.042334002 4294967295
-0.067492001 0.094458997 0.042330999 4294967295
-0.066509999 0.094483003 0.042518999 4294967295
-0.065485001 0.094499998 0.042957999 4294967295
-0.064515002 0.094553001 0.043412 4294967295
-0.063501999 0.094576001 0.043887001 4294967295
-0.062481001 0.094590999 0.044342 4294967295
-0.061485 0.094602004 0.044581998 4294967295
0.015343668 0.17043367 0.12052067 4294967295
-0.059496999 0.094632 0.044757001 4294967295
-0.058495998 0.094618998 0.044826999 4294967295
-0.057495002 0.094637997 0.044774 4294967295
-0.056501999 0.094621003 0.04473 4294967295
-0.055505998 0.094599999 0.044463001 4294967295
-0.054499999 0.094582997 0.044109002 4294967295
-0.053497002 0.094566002 0.043853 4294967295
-0.052497 0.094572999 0.043871999 4294967295
-0.051495999 0.094589002 0.044110999 4294967295
-0.027698057 0.11741094 0.067326941 4294967295
-0.049497001 0.094633996 0.044743001 4294967295
-0.048501 0.094627 0.044615999 4294967295
-0.047474999 0.094572 0.044062998 4294967295
-0.046452001 0.094557002 0.043636002 4294967295
-0.045495 0.094538003 0.043379001 4294967295
-0.044465002 0.094504997 0.042950001 4294967295
-0.043485001 0.094486997 0.042649001 4294967295
-0.042486001 0.094470002 0.042323001 4294967295
-0.041499998 0.094452001 0.042148001 4294967295
-0.0094247591 0.12554124 0.073347241 4294967295
-0.039491002 0.094489001 0.042709999 4294967295
-0.038479 0.094517 0.043189999 4294967295
-0.037462 0.094545998 0.043653 4294967295
-0.036479 0.094567999 0.043942999 4294967295
-0.035482999 0.094590001 0.044199001 4294967295
-0.034495998 0.094609 0.044380002 4294967295
-0.033493001 0.094614998 0.044486001 4294967295
-0.032485001 0.094625004 0.044528 4294967295
-0.031493999 0.094627 0.044606999 4294967295
0.038854878 0.16399588 0.11420187 4294967295
-0.02949 0.094664998 0.045054 4294967295
-0.028496001 0.094663002 0.045102999 4294967295
-0.027487 0.094655 0.045097001 4294967295
-0.026505999 0.094667003 0.044661999 4294967295
-0.025498999 0.094548002 0.044638 4294967295
-0.066532001 0.154667 0.0025289999 4294967295
-0.045522999 0.13192201 0.011948 4294967295
-0.031578999 0.125791 0.01708 4294967295
-0.029779 0.12513199 0.017741 4294967295
0.048335209 0.1896722 0.085296206 4294967295
0.000512 0.127929 0.028588001 4294967295
0.0071029998 0.126169 0.030974001 4294967295
0.0052370001 0.12670401 0.030298 4294967295
0.001449 0.12767901 0.028937999 4294967295
-0.015501 0.095191002 0.053364001 4294967295
-0.014486 0.095155001 0.053555999 4294967295
-0.01349 0.095165998 0.053452998 4294967295
-0.012518 0.095238 0.053631 4294967295
-0.01149 0.095178999 0.054278001 4294967295
0.0010159966 0.10673899 0.066035993 4294967295
-0.0094900001 0.095206998 0.054613002 4294967295
-0.008498 0.095252998 0.054556001 4294967295
-0.007495 0.095233999 0.054754 4294967295
-0.0064989999 0.095268004 0.054793 4294967295
-0.0054970002 0.095261998 0.054788999 4294967295
-0.0044979998 0.095242999 0.054763 4294967295
-0.0034990001 0.095210999 0.054715 4294967295
-0.0024979999 0.095229998 0.054632001 4294967295
-0.001498 0.095227003 0.054625001 4294967295
0.0079165529 0.10364655 0.062935553 4294967295
0.00049000001 0.095201999 0.054476999 4294967295
0.00148 0.095261 0.054241002 4294967295
0.0024959999 0.095206998 0.054046001 4294967295
0.0034789999 0.095161997 0.053766001 4294967295
0.0044820001 0.095142998 0.053298999 4294967295
0.0054950002 0.095137998 0.052854002 4294967295
0.0064869998 0.095101997 0.052475002 4294967295
0.0074939998 0.095087998 0.052014999 4294967295
0.0084859999 0.095046997 0.051630002 4294967295
0.0862085 0.17174649 0.1279905 4294967295
0.010477 0.094977997 0.050994001 4294967295
0.01147 0.094942003 0.050726 4294967295
0.012481 0.094959997 0.050413001 4294967295
0.01346 0.094916999 0.050136 4294967295
-0.057716001 0.154704 0.024563 4294967295
0.024783 0.123596 0.021664999 4294967295
0.025770999 0.122252 0.023461999 4294967295
0.017463 0.094829001 0.047857001 4294967295
0.018488999 0.094820999 0.047515001 4294967295
0.097137451 0.17245644 0.12502645 4294967295
0.020484 0.094806999 0.047437999 4294967295
0.021485001 0.094803996 0.047357 4294967295
0.022475 0.094780996 0.047095001 4294967295
-0.033493999 0.11802 0.031145001 4294967295
-0.0044860002 0.118295 0.038989 4294967295
-0.074496999 0.120396 0.053362999 4294967295
-0.087251 0.106353 0.013364 4294967295
-0.068173997 0.074979 0.03833 4294967295
-0.032467999 0.175717 -0.0029180001 4294967295
0.079494193 0.19102019 0.1058652 4294967295
0.038318001 0.106879 0.000186 4294967295
-0.022995001 0.122243 0.027587 4294967295
-0.0054879999 0.123746 0.034308001 4294967295
0.042241 0.098676004 0.022172 4294967295
0.035762001 0.096777 -0.011809 4294967295
-0.067344002 0.155169 0.028416 4294967295
-0.071494997 0.123214 0.053413 4294967295
-0.079462998 0.138625 0.048583001 4294967295
-0.071532004 0.14416499 0.044620998 4294967295
0.041923154 0.16407114 0.050207153 4294967295
0.036348 0.102053 0.031638999 4294967295
-0.079489 0.13166399 0.052476 4294967295
0.037319999 0.105416 -0.003824 4294967295
0.037450999 0.109679 0.002177 4294967295
-0.0049569998 0.097837001 0.052340999 4294967295
0.023845 0.123573 0.024168 4294967295
-0.012131 0.129539 0.0095349997 4294967295
-0.037475001 0.12693299 -0.001254 4294967295
0.032485999 0.115764 0.024556 4294967295
0.017485498 0.16551249 0.068280496 4294967295
-0.077169999 0.154422 0.004557 4294967295
0.019555001 0.12705199 0.018298 4294967295
0.035907999 0.111056 0.024408 4294967295
-0.0082879998 0.13010199 0.0066209999 4294967295
0.011214 0.130703 0.013799 4294967295
0.012139 0.130422 0.014139 4294967295
0.013015 0.13005701 0.014461 4294967295
0.013928 0.129741 0.014803 4294967295
0.014767 0.12931301 0.015109 4294967295
0.037900086 0.20292808 0.091911085 4294967295
-0.052531999 0.149847 0.019295 4294967295
-0.086842 0.134936 0.002269 4294967295
-0.071525998 0.095822997 0.041393999 4294967295
-0.070502996 0.095844999 0.041859999 4294967295
-0.069495998 0.095858 0.042089 4294967295
-0.068495996 0.095867999 0.042213999 4294967295
-0.067487001 0.095859997 0.042181 4294967295
-0.066499002 0.095872 0.042234998 4294967295
-0.065500997 0.095890999 0.042495999 4294967295
-0.057724599 0.10266241 0.049693402 4294967295
-0.063504003 0.095949002 0.043260001 4294967295
-0.062476002 0.095948003 0.043683 4294967295
-0.061494 0.095977001 0.04386 4294967295
-0.060490999 0.095981002 0.043977 4294967295
-0.059494998 0.095985003 0.044094998 4294967295
-0.058497999 0.095981002 0.044084001 4294967295
-0.057498001 0.095977999 0.043967001 4294967295
-0.056497999 0.095978998 0.043859001 4294967295
-0.055496 0.095978998 0.043660998 4294967295
-0.049284402 0.1011756 0.048821598 4294967295
-0.053495999 0.095964 0.043614 4294967295
-0.052487001 0.095959999 0.043680999 4294967295
-0.051493999 0.095991001 0.043984 4294967295
-0.050494999 0.096018001 0.044372 4294967295
-0.049497999 0.096023999 0.044482 4294967295
-0.048487999 0.096031003 0.044449002 4294967295
-0.047465999 0.096003003 0.043993998 4294967295
-0.046448998 0.095973 0.043494999 4294967295
-0.045481998 0.095941 0.043173999 4294967295
0.024542661 0.16493267 0.11185466 4294967295
-0.043487001 0.095902003 0.042658001 4294967295
-0.042479001 0.095873997 0.042323999 4294967295
-0.041497 0.095864996 0.042134002 4294967295
-0.040493 0.095866002 0.042192001 4294967295
-0.039487999 0.095879003 0.042445 4294967295
-0.038483001 0.095905997 0.042824 4294967295
-0.037487 0.095932998 0.043210998 4294967295
-0.036474001 0.095944002 0.043542001 4294967295
-0.035471 0.095959999 0.043790001 4294967295
0.005250969 0.13573198 0.083827972 4294967295
-0.033491001 0.096017003 0.044365 4294967295
-0.032494001 0.096035004 0.044619001 4294967295
-0.031490002 0.096043997 0.044808999 4294967295
-0.030494001 0.096055999 0.044953998 4294967295
-0.029495999 0.096065998 0.044989001 4294967295
-0.0285 0.096045002 0.044810001 4294967295
-0.027497999 0.096010998 0.044323001 4294967295
-0.026497999 0.095977999 0.043768 4294967295
-0.025488 0.095977999 0.043832999 4294967295
-0.0055083726 0.11501163 0.06326963 4294967295
0.011462 0.125412 0.031086 4294967295
-0.014491 0.124164 0.030554 4294967295
-0.030371999 0.124909 0.019004 4294967295
0.0038900001 0.098768003 0.049509998 4294967295
-0.089498997 0.13515501 0.030207001 4294967295
-0.000226 0.097746998 0.052517999 4294967295
0.0069490001 0.128215 0.028015001 4294967295
-0.016455 0.096357003 0.051263999 4294967295
-0.015368 0.096440002 0.051771998 4294967295
0.03388153 0.14478353 0.10056353 4294967295
-0.013468 0.096423 0.052315999 4294967295
-0.012489 0.096487001 0.052250002 4294967295
-0.011479 0.096513003 0.052611001 4294967295
-0.010476 0.096518002 0.053185001 4294967295
-0.0094889998 0.096545003 0.053431999 4294967295
-0.0084950002 0.096568003 0.053454001 4294967295
-0.0074919998 0.096542999 0.053541999 4294967295
-0.0064920001 0.096554004 0.053663 4294967295
-0.0054950002 0.096570998 0.053681999 4294967295
0.037736222 0.13878722 0.09589722 4294967295
-0.0034980001 0.096580997 0.053578999 4294967295
-0.0024989999 0.096551999 0.053660002 4294967295
-0.0015 0.096574001 0.053681999 4294967295
-0.00050299999 0.096556999 0.053663999 4294967295
0.000489 0.096541002 0.05353 4294967295
0.001498 0.096550003 0.053199001 4294967295
0.002473 0.096483998 0.053027 4294967295
0.0034769999 0.096481003 0.052689001 4294967295
0.0044849999 0.096478999 0.052347001 4294967295
0.043028072 0.13399208 0.089631073 4294967295
0.0064690001 0.096412003 0.051605001 4294967295
0.007485 0.096409 0.051036 4294967295
0.0084760003 0.096358001 0.050526001 4294967295
0.0094879996 0.096341997 0.050058 4294967295
0.010473 0.096298002 0.049887002 4294967295
0.011488 0.096325003 0.04958 4294967295
0.012469 0.096281998 0.049405999 4294967295
0.013463 0.096270002 0.049047001 4294967295
0.014467 0.096263997 0.048599999 4294967295
0.081706628 0.16248663 0.11436263 4294967295
0.016494 0.096252002 0.047796 4294967295
0.017493 0.096235 0.047533002 4294967295
0.018495999 0.096219003 0.047281999 4294967295
0.019483 0.096198998 0.047196001 4294967295
0.020486999 0.096193001 0.047097001 4294967295
0.021477001 0.096176997 0.046962999 4294967295
0.022488 0.096164003 0.046634 4294967295
-0.034495 0.118007 0.031254999 4294967295
-0.003491 0.118315 0.039016001 4294967295
-0.059402511 0.13649349 0.069172487 4294967295
-0.033496998 0.119329 0.029927 4294967295
-0.074487001 0.14835 0.040860999 4294967295
-0.044495001 0.12065 0.027643001 4294967295
0.0085009998 0.121038 0.036012001 4294967295
-0.089381002 0.113196 0.021714 4294967295
0.0039380002 0.131671 0.015424 4294967295
0.027264999 0.121002 0.024018001 4294967295
-0.041425999 0.125093 -0.0082700001 4294967295
-0.073439002 0.148627 -0.029805001 4294967295
0.047118962 0.18304096 0.064243965 4294967295
-0.066372998 0.079613 0.041875001 4294967295
-0.080457002 0.138622 0.048117001 4294967295
0.036770001 0.109675 0.000243 4294967295
-0.0042940001 0.131101 0.013842 4294967295
0.041402001 0.104253 0.005165 4294967295
-0.078484997 0.13165499 0.052680001 4294967295
-0.092124999 0.116117 0.035310999 4294967295
-0.027509 0.18150499 -0.008742 4294967295
-0.045832999 0.092747003 -0.021799 4294967295
0.018319132 0.20190912 0.079085127 4294967295
-0.067215003 0.156284 0.01681 4294967295
0.024573 0.122909 0.024441 4294967295
-0.018355999 0.12779801 0.0072570001 4294967295
-0.036518 0.126747 -0.00092800002 4294967295
0.031872999 0.11664 0.024321999 4294967295
-0.041811001 0.12897199 0.010383 4294967295
0.02042 0.12665901 0.018619001 4294967295
-0.020302 0.124709 0.024106 4294967295
-0.0071479999 0.13027801 0.0070440001 4294967295
0.02516537 0.16162337 0.038560372 4294967295
-0.03056 0.124009 -0.001646 4294967295
-0.031528998 0.124197 -0.002023 4294967295
-0.093295999 0.12823001 0.014251 4294967295
-0.088403001 0.101017 0.020376001 4294967295
0.015655 0.12896501 0.015433 4294967295
-0.025387 0.124202 0.020801 4294967295
-0.068644002 0.156175 0.023577999 4294967295
-0.071519002 0.097212002 0.040996999 4294967295
-0.070531003 0.097249001 0.041414 4294967295
0.0073243524 0.17401835 0.11848735 4294967295
-0.068503998 0.097263999 0.041870002 4294967295
-0.067500003 0.097268999 0.041976999 4294967295
-0.066505998 0.097276002 0.042006001 4294967295
-0.065511003 0.097287998 0.042153001 4294967295
-0.064488001 0.097295001 0.042447001 4294967295
-0.063499004 0.097312003 0.042615 4294967295
-0.062503003 0.097337 0.042884 4294967295
-0.061496001 0.097342998 0.043110002 4294967295
-0.060495 0.097347997 0.043223001 4294967295
-0.05158785 0.10525415 0.051133148 4294967295
-0.058502 0.097369999 0.043191001 4294967295
-0.057496998 0.097351998 0.043129999 4294967295
-0.056497999 0.097355001 0.043155 4294967295
-0.055498 0.097351998 0.043239001 4294967295
-0.054497998 0.09736 0.043258999 4294967295
-0.053497002 0.097351998 0.043235999 4294967295
-0.05249 0.097351 0.043326002 4294967295
-0.051493999 0.097382002 0.043726001 4294967295
-0.050494999 0.097406998 0.044006001 4294967295
0.017660944 0.16457595 0.11119794 4294967295
-0.048496999 0.097406 0.044002 4294967295
-0.047502998 0.097372003 0.043621 4294967295
-0.046491999 0.097352996 0.043141998 4294967295
-0.045502 0.097333997 0.042969 4294967295
-0.044481002 0.097333997 0.042812999 4294967295
-0.043508999 0.097300999 0.042583998 4294967295
-0.042495001 0.097286999 0.042245001 4294967295
-0.041499998 0.097271003 0.042066999 4294967295
-0.040497001 0.097271003 0.041990001 4294967295
0.039871126 0.17666613 0.12152413 4294967295
-0.038511001 0.097310998 0.042411 4294967295
-0.037489001 0.097312003 0.042706002 4294967295
-0.036474999 0.097319998 0.043046001 4294967295
-0.035468999 0.097333997 0.043285999 4294967295
-0.034474 0.097363003 0.043669999 4294967295
-0.033519 0.097423002 0.044054002 4294967295
-0.032487001 0.097418003 0.04434 4294967295
-0.031493999 0.097434998 0.044487 4294967295
-0.030495999 0.097433001 0.044574998 4294967295
-0.022644032 0.10427297 0.05136697 4294967295
-0.0285 0.097396001 0.044055998 4294967295
-0.027496999 0.097372003 0.043584999 4294967295
-0.026494 0.097384997 0.043722 4294967295
-0.025493 0.097411998 0.044108 4294967295
-0.024482001 0.097451001 0.044459999 4294967295
-0.023481 0.097448997 0.044821002 4294967295
-0.028618 0.124173 0.019650999 4294967295
0.044771001 0.070790999 0.023317 4294967295
-0.028263001 0.122524 0.022733999 4294967295
0.1201675 0.1446785 0.098320499 4294967295
-0.054653 0.154186 0.015525 4294967295
0.051180001 0.068727002 0.025672 4294967295
0.046107002 0.069238 0.023836 4294967295
-0.015498 0.097747996 0.048932001 4294967295
0.042392999 0.090163 -0.006823 4294967295
-0.093181998 0.121543 0.037283 4294967295
-0.094461001 0.121476 0.021283001 4294967295
-0.049350001 0.14168499 0.0093959998 4294967295
-0.067851 0.166619 -0.055009998 4294967295
-0.0091033615 0.098214634 0.05224764 4294967295
-0.0084859999 0.097842999 0.052102 4294967295
-0.007489 0.097833999 0.052094001 4294967295
-0.0064920001 0.097856998 0.052223999 4294967295
-0.0054919999 0.097842999 0.052326001 4294967295
-0.062316 0.15367199 -0.030606 4294967295
-0.062311001 0.16311 -0.043595001 4294967295
-0.0024969999 0.097828999 0.052428 4294967295
-0.001502 0.097837001 0.052434001 4294967295
-0.00051099999 0.097838998 0.052434001 4294967295
0.025246639 0.12257164 0.077062637 4294967295
0.001458 0.097736999 0.051906999 4294967295
0.002471 0.097764 0.051477 4294967295
0.0034650001 0.097754002 0.051238 4294967295
0.0044649998 0.097728997 0.050995 4294967295
0.0054500001 0.097676001 0.050719999 4294967295
0.00648 0.097709998 0.049931999 4294967295
0.007485 0.097681999 0.049439002 4294967295
0.0084889997 0.097687997 0.049206 4294967295
0.0094889998 0.097668998 0.04905 4294967295
0.031184966 0.11837997 0.069534965 4294967295
0.011481 0.097646996 0.048781998 4294967295
0.012476 0.097663 0.048562001 4294967295
0.013481 0.097666003 0.048243999 4294967295
0.01447 0.097645 0.047968 4294967295
0.015469 0.097631 0.047708001 4294967295
0.01647 0.097626001 0.047455002 4294967295
0.017483 0.097609997 0.047223002 4294967295
0.018487999 0.097599998 0.047084998 4294967295
0.019479999 0.097585 0.046941001 4294967295
0.023318749 0.10041475 0.04965575 4294967295
0.021467 0.097551003 0.046567999 4294967295
0.022468001 0.097526997 0.046211001 4294967295
-0.035495002 0.118017 0.031270999 4294967295
-0.0024929999 0.118317 0.039019 4294967295
-0.076603003 0.120411 0.052602999 4294967295
-0.032496002 0.119317 0.029550999 4294967295
-0.075482003 0.148362 0.040622 4294967295
-0.043381002 0.120699 0.027829999 4294967295
0.007497 0.121002 0.036077 4294967295
-0.044322871 0.18698612 -0.013549876 4294967295
0.0034139999 0.131576 0.016662 4294967295
0.028004 0.120349 0.024295 4294967295
-0.064994 0.132589 -0.0083100004 4294967295
-0.052505001 0.159361 0.008192 4294967295
0.013046 0.129592 0.020181 4294967295
0.037083998 0.103994 -0.0068319999 4294967295
-0.002447 0.13111401 0.0087820003 4294967295
-0.077474996 0.141413 0.047068998 4294967295
-0.042454999 0.12837701 0.001315 4294967295
0.058885355 0.13022636 0.048119351 4294967295
-0.076495998 0.13168199 0.052643999 4294967295
-0.074683003 0.155701 -0.00036599999 4294967295
-0.026450001 0.181668 -0.0085340003 4294967295
-0.072890997 0.11354 -0.0075650001 4294967295
0.002868 0.129802 0.025096999 4294967295
0.025288999 0.122228 0.024708999 4294967295
-0.019615 0.127443 0.0067969998 4294967295
0.018571001 0.126949 0.020792 4294967295
0.031212 0.11742 0.024075 4294967295
0.0074403193 0.18655632 0.072829321 4294967295
0.018723 0.127515 0.017989 4294967295
-0.018967001 0.125144 0.024551 4294967295
-0.064121 0.155412 0.026633 4294967295
-0.024371 0.122748 0.025597 4294967295
-0.078557998 0.153669 0.0040770001 4294967295
-0.043559998 0.129686 0.0097319996 4294967295
-0.045901 0.131661 0.019160001 4294967295
-0.078192003 0.155673 0.015866 4294967295
-0.074171998 0.151271 -0.031883001 4294967295
0.064183943 0.17627095 0.063384943 4294967295
-0.024293 0.124271 0.021198999 4294967295
-0.071236998 0.167165 -0.020989999 4294967295
-0.070522003 0.098628998 0.040883999 4294967295
-0.069491997 0.098623 0.041191 4294967295
-0.068498999 0.098650001 0.041467998 4294967295
-0.067489997 0.098660998 0.041694999 4294967295
-0.066514 0.098678999 0.041776001 4294967295
-0.065508999 0.098692998 0.042018998 4294967295
-0.064484999 0.098699003 0.042305999 4294967295
-0.029351683 0.13286331 0.076424316 4294967295
-0.062497001 0.098715 0.042477001 4294967295
-0.061496999 0.098736003 0.042734999 4294967295
-0.060486998 0.098727003 0.042800002 4294967295
-0.059502002 0.098745003 0.042776 4294967295
-0.058499999 0.098750003 0.042895999 4294967295
-0.057498001 0.098751999 0.042987 4294967295
-0.056497 0.09877 0.043164 4294967295
-0.055502001 0.098770998 0.043283001 4294967295
-0.054474998 0.098766997 0.042954002 4294967295
0.048627984 0.20086698 0.14488499 4294967295
-0.052492999 0.098733999 0.042936001 4294967295
-0.051486999 0.098755002 0.043311998 4294967295
-0.050496999 0.098788001 0.043510001 4294967295
-0.049495999 0.098802999 0.043543998 4294967295
-0.048496 0.098793 0.043515 4294967295
-0.047499001 0.098769002 0.043134 4294967295
-0.046494 0.098738998 0.042755 4294967295
-0.045490999 0.098738 0.042653002 4294967295
-0.044493999 0.098731004 0.042631999 4294967295
0.032742269 0.17495027 0.11866027 4294967295
-0.042502001 0.098693997 0.042190999 4294967295
-0.041496001 0.098676004 0.041857 4294967295
-0.040498 0.098665997 0.041721001 4294967295
-0.039508998 0.098682001 0.041774001 4294967295
-0.038506001 0.098688997 0.041986998 4294967295
-0.037503 0.098720998 0.042381998 4294967295
-0.036495 0.098733 0.042730998 4294967295
-0.035484999 0.098724999 0.042822 4294967295
-0.03449 0.098748997 0.043090999 4294967295
-0.0096995858 0.12255441 0.067357413 4294967295
-0.032501999 0.098811999 0.043880999 4294967295
-0.031488001 0.098800004 0.044068001 4294967295
-0.030495999 0.098807998 0.043979 4294967295
-0.029508 0.098789997 0.043708999 4294967295
-0.028491 0.098761998 0.043412 4294967295
-0.027503001 0.098801002 0.043559 4294967295
-0.026494 0.098816998 0.043986998 4294967295
-0.025482999 0.098843001 0.044445001 4294967295
-0.024482001 0.098855004 0.044689 4294967295
-0.00095296482 0.12141703 0.067323036 4294967295
-0.022492999 0.098855004 0.044702001 4294967295
-0.021497 0.098848 0.044493999 4294967295
-0.020496 0.098840997 0.044481002 4294967295
-0.047024999 0.133586 0.01871 4294967295
-0.084452003 0.15345199 0.02258 4294967295
0.0078769997 0.12792701 0.028338 4294967295
-0.065500997 0.15590601 0.011622 4294967295
0.050303999 0.069123998 0.025377 4294967295
-0.040966 0.122163 0.027053 4294967295
0.049528446 0.16194744 0.11052044 4294967295
-0.085372999 0.111782 0.027381999 4294967295
-0.087577 0.122583 -0.00071300002 4294967295
-0.093447998 0.121479 0.026296001 4294967295
0.044167001 0.097355999 0.0061690002 4294967295
-0.064291999 0.169488 -0.060779002 4294967295
-0.087577999 0.102333 0.021365 4294967295
-0.078185998 0.16109499 -0.022934999 4294967295
-0.079489 0.111206 0.045299999 4294967295
-0.074896 0.069052003 0.024494 4294967295
-0.010087078 0.16598892 -0.019240079 4294967295
-0.063271001 0.15852199 -0.016589001 4294967295
-0.062316 0.15843099 -0.019584 4294967295
-0.0092120003 0.172686 -0.027567999 4294967295
0.044861 0.090373002 0.019169999 4294967295
-0.051316999 0.146268 0.014407 4294967295
-0.089685 0.092933998 0.014434 4294967295
0.003458 0.098981999 0.049316 4294967295
0.0044840002 0.098981999 0.048710998 4294967295
0.0055010002 0.099039003 0.048268002 4294967295
0.076184057 0.16867906 0.11778306 4294967295
0.0075070001 0.099000998 0.048083998 4294967295
0.0085089998 0.099019997 0.048188001 4294967295
0.0095060002 0.099064 0.048246998 4294967295
0.010522 0.099004999 0.048324 4294967295
0.011493 0.099067003 0.048223998 4294967295
0.012486 0.099068999 0.048113 4294967295
0.013475 0.099055998 0.047947999 4294967295
0.014489 0.099055 0.047648001 4294967295
0.015487 0.099032998 0.047382001 4294967295
0.10603638 0.18856838 0.13670038 4294967295
0.017481999 0.098999999 0.046967998 4294967295
0.018472999 0.098990001 0.046815 4294967295
0.019485001 0.098975003 0.046610001 4294967295
0.020477001 0.098952003 0.046347 4294967295
0.021464 0.098920003 0.046069998 4294967295
-0.036499001 0.117968 0.031326 4294967295
-0.001492 0.118319 0.039140001 4294967295
0.0084290002 0.13147201 0.01278 4294967295
-0.086195 0.139089 0.0032019999 4294967295
0.05487033 0.17093833 0.096150331 4294967295
-0.042364001 0.120691 0.028093001 4294967295
0.0065029999 0.121045 0.035909001 4294967295
0.040061999 0.095645003 -0.0067969998 4294967295
-0.019377001 0.12767801 0.0097869998 4294967295
0.041432999 0.100023 0.023158001 4294967295
-0.071767002 0.17223801 -0.051027998 4294967295
-0.051504999 0.15937801 0.0083400002 4294967295
-0.034522001 0.127119 0.004251 4294967295
-0.072512001 0.163674 -0.014076 4294967295
0.0088187251 0.23467273 0.11374673 4294967295
-0.079478003 0.142827 0.045104999 4294967295
0.045123 0.093189001 0.012158 4294967295
-0.056377001 0.065016001 0.033636 4294967295
-0.061980002 0.15373699 -0.02558 4294967295
-0.074515 0.121791 0.053319 4294967295
0.038263999 0.109749 0.012166 4294967295
-0.049819 0.092710003 -0.021542 4294967295
-0.047830001 0.092722997 -0.021622 4294967295
-0.046829998 0.092734002 -0.021669 4294967295
0.070217907 0.1982709 0.09306591 4294967295
0.026006 0.121547 0.024977 4294967295
-0.020803999 0.127131 0.0063590002 4294967295
0.019392001 0.12656 0.021175999 4294967295
0.030548001 0.118199 0.023824999 4294967295
-0.069554001 0.163673 -0.014602 4294967295
0.017031999 0.128388 0.017366 4294967295
0.017866001 0.12793501 0.017673999 4294967295
-0.000573 0.131478 0.010908 4294967295
-0.001716 0.13131601 0.010484 4294967295
0.043210283 0.17724928 0.056102283 4294967295
-0.0039530001 0.131078 0.0096610002 4294967295
-0.0052189999 0.130779 0.0091949999 4294967295
-0.00636 0.130593 0.0087740002 4294967295
-0.011306 0.099170998 0.048588 4294967295
-0.035195 0.12533399 -0.0033819999 4294967295
0.017444 0.128281 0.016091 4294967295
-0.023154 0.124452 0.021617999 4294967295
-0.070497997 0.099990003 0.040323 4294967295
-0.069486998 0.100005 0.040679 4294967295
0.0038808843 0.17243189 0.11337688 4294967295
-0.067492001 0.10005 0.041320998 4294967295
-0.066522002 0.10009 0.041540001 4294967295
-0.065498002 0.100096 0.041967999 4294967295
-0.064498 0.100116 0.042236999 4294967295
-0.063506 0.100118 0.042254999 4294967295
-0.062492002 0.100117 0.042321999 4294967295
-0.061494999 0.100138 0.042596001 4294967295
-0.060493998 0.100137 0.042591002 4294967295
-0.059496999 0.100149 0.042741001 4294967295
-0.048870239 0.10978976 0.052510761 4294967295
-0.057496998 0.100168 0.043005001 4294967295
-0.056497 0.100177 0.043131001 4294967295
-0.055493999 0.100184 0.04307 4294967295
-0.054497 0.100156 0.042759001 4294967295
-0.053498 0.100135 0.042392001 4294967295
-0.052499 0.100127 0.042362001 4294967295
-0.0515 0.100157 0.042645 4294967295
-0.050500002 0.100168 0.042883001 4294967295
-0.049495999 0.100168 0.042996999 4294967295
0.021258328 0.16991432 0.11262333 4294967295
-0.047497001 0.100136 0.042491999 4294967295
-0.046494 0.100125 0.042254001 4294967295
-0.045488 0.10014 0.042316001 4294967295
-0.044496998 0.100126 0.042369001 4294967295
-0.043478999 0.10013 0.042211 4294967295
-0.042493001 0.100104 0.042001002 4294967295
-0.041482002 0.100082 0.041538998 4294967295
-0.040497001 0.10005 0.041322 4294967295
-0.039500002 0.100068 0.041368999 4294967295
-0.001651339 0.13691066 0.07841666 4294967295
-0.037484001 0.100078 0.041923001 4294967295
-0.036486998 0.100095 0.042187002 4294967295
-0.035512999 0.10012 0.042179 4294967295
-0.034485999 0.100109 0.042440001 4294967295
-0.033479001 0.100129 0.042918999 4294967295
-0.032489002 0.100164 0.043210998 4294967295
-0.031504001 0.100214 0.043416001 4294967295
-0.030501001 0.100206 0.043404002 4294967295
-0.0295 0.100187 0.043258 4294967295
0.041563533 0.17020853 0.11322054 4294967295
-0.027496001 0.100194 0.043487001 4294967295
-0.026489999 0.100224 0.043979 4294967295
-0.025485 0.100235 0.044206001 4294967295
-0.024489 0.100244 0.044339001 4294967295
-0.023496 0.100256 0.044380002 4294967295
-0.022496 0.100254 0.044376999 4294967295
-0.021499 0.100246 0.044442002 4294967295
-0.020499 0.100239 0.044420999 4294967295
-0.019498 0.10024 0.044034 4294967295
0.059901111 0.17863411 0.12222011 4294967295
-0.017501 0.10024 0.043818001 4294967295
-0.016507 0.100263 0.043963 4294967295
-0.015502 0.100285 0.044225 4294967295
-0.01453 0.100345 0.044417001 4294967295
-0.062987 0.155807 0.024122 4294967295
-0.012572 0.100502 0.044597 4294967295
-0.011559 0.100495 0.044881999 4294967295
-0.010534 0.100499 0.045258 4294967295
-0.009451 0.100225 0.047109 4294967295
0.0078163715 0.11650337 0.063877374 4294967295
-0.070040002 0.077854 0.039074 4294967295
-0.090218 0.117255 0.0053039999 4294967295
-0.089644998 0.11724 0.0043080002 4294967295
-0.051527999 0.14470901 0.015388 4294967295
0.037609 0.108292 0.000165 4294967295
-0.088266999 0.102346 0.019362001 4294967295
0.045678001 0.086204998 0.01417 4294967295
-0.033487 0.126881 0.0075369999 4294967295
