ply
format ascii 1.0
comment PCL generated
element vertex 1176
property float x
property float y
property float z
property uchar red
property uchar green
property uchar blue
property uchar alpha
element camera 0
property float view_px
property float view_py
property float view_pz
property float x_axisx
property float x_axisy
property float x_axisz
property float y_axisx
property float y_axisy
property float y_axisz
property float z_axisx
property float z_axisy
property float z_axisz
property float focal
property float scalex
property float scaley
property float centerx
property float centery
property int viewportx
property int viewporty
property float k1
property float k2
end_header
0 0.17290998 0.65652251 255 255 255 255
0 0.31014574 0.62976557 255 255 255 255
0.022260709 0.066687576 0.29386607 255 255 255 255
0 0.27391058 0.12288067 255 255 255 255
0 0.63783175 0.94527686 255 255 255 255
0 0.070066199 0.21767785 255 255 255 255
0 0.65701479 0.94134277 255 255 255 255
0 0.19506907 0.80285382 255 255 255 255
0 0.71193194 0.49099603 255 255 255 255
0 0.46772158 0.79440409 255 255 255 255
0 0.6660167 0.36530697 255 255 255 255
0 0.48112524 0.69892746 255 255 255 255
0 0.91669458 0.22897591 255 255 255 255
0 0.15603894 0.055243351 255 255 255 255
0 0.85097557 0.22763059 255 255 255 255
0 0.18265422 0.023885543 255 255 255 255
0 0.88415313 0.49279994 255 255 255 255
0 0.65365112 0.90904641 255 255 255 255
0 0.73348701 0.9275617 255 255 255 255
0 0.031927086 0.37131876 255 255 255 255
0 0.87283856 0.10199329 255 255 255 255
0 0.58899659 0.52985334 255 255 255 255
0 0.084513567 0.83809114 255 255 255 255
0 0.33270717 0.75526804 255 255 255 255
0 0.27506173 0.80042875 255 255 255 255
0 0.54967207 0.94107842 255 255 255 255
0 0.16573572 0.030797333 255 255 255 255
0 0.64000583 0.033192154 255 255 255 255
0 0.21258955 0.79604477 255 255 255 255
0 0.088435508 0.063565105 255 255 255 255
0 0.023675365 0.27108973 255 255 255 255
0 0.087450646 0.90782851 255 255 255 255
0 0.80397439 0.78425395 255 255 255 255
0 0.81687492 0.49737668 255 255 255 255
0 0.66866344 0.84880197 255 255 255 255
0 0.86869544 0.541502 255 255 255 255
0 0.95079529 0.45769206 255 255 255 255
0 0.071355365 0.99413133 255 255 255 255
0 0.24175774 0.40406254 255 255 255 255
0 0.74939936 0.51681948 255 255 255 255
0 0.20449129 0.29907146 255 255 255 255
0 0.45789784 0.37022701 255 255 255 255
0 0.3592082 0.16009901 255 255 255 255
0 0.40341917 0.54245836 255 255 255 255
0 0.8939485 0.49185467 255 255 255 255
0 0.60602343 0.91762382 255 255 255 255
0 0.7629444 0.69347411 255 255 255 255
0 0.82545233 0.52683407 255 255 255 255
0 0.43457586 0.64232725 255 255 255 255
0 0.024210747 0.10323931 255 255 255 255
0 0.49112922 0.89290619 255 255 255 255
0 0.6447413 0.44192451 255 255 255 255
0 0.38220686 0.76104552 255 255 255 255
0 0.43605587 0.59235597 255 255 255 255
0 0.12015922 0.18545523 255 255 255 255
0 0.10917544 0.32465053 255 255 255 255
0 0.48452669 0.56707329 255 255 255 255
0 0.69487751 0.81439549 255 255 255 255
0 0.66497701 0.09829668 255 255 255 255
0 0.35685384 0.55892551 255 255 255 255
0 0.59015137 0.96287727 255 255 255 255
0 0.47654933 0.35309574 255 255 255 255
0 0.69569266 0.35337433 255 255 255 255
0 0.87992978 0.090927228 255 255 255 255
0 0.9443289 0.90414053 255 255 255 255
0 0.19416654 0.43545812 255 255 255 255
0 0.79704678 0.83890784 255 255 255 255
0 0.87738264 0.147645 255 255 255 255
0 0.55500454 0.3134385 255 255 255 255
0 0.74000096 0.67516375 255 255 255 255
0 0.49889374 0.84917641 255 255 255 255
0 0.99981427 0.98342043 255 255 255 255
0 0.46911439 0.73705524 255 255 255 255
0 0.79781592 0.081226736 255 255 255 255
0 0.79298848 0.15466978 255 255 255 255
0 0.64015222 0.38313985 255 255 255 255
0 0.11754705 0.11670154 255 255 255 255
0 0.73623556 0.77389842 255 255 255 255
0 0.4187032 0.6161654 255 255 255 255
0 0.86482567 0.3630321 255 255 255 255
0 0.52030593 0.0589922 255 255 255 255
0 0.79849023 0.31735271 255 255 255 255
0 0.9427259 0.71357518 255 255 255 255
0 0.46499771 0.45290461 255 255 255 255
0 0.9893114 0.2049987 255 255 255 255
0 0.12806839 0.48820511 255 255 255 255
0 0.054175138 0.12788267 255 255 255 255
0 0.47162554 0.47042486 255 255 255 255
0 0.8225745 0.26944149 255 255 255 255
0 0.5516516 0.61556298 255 255 255 255
0 0.42411125 0.19180383 255 255 255 255
0 0.99870282 0.54165828 255 255 255 255
0 0.36657172 0.76497847 255 255 255 255
0 0.31555673 0.72720855 255 255 255 255
0 0.35110378 0.1803824 255 255 255 255
0 0.090240665 0.87140977 255 255 255 255
0 0.23937459 0.88873088 255 255 255 255
0 0.18876246 0.13727465 255 255 255 255
0 0.56460375 0.65376014 255 255 255 255
0 0.59017926 0.55391514 255 255 255 255
0 0.85875887 0.71824765 255 255 255 255
0 0.042120248 0.91293401 255 255 255 255
0 0.88373947 0.55650604 255 255 255 255
0 0.38335887 0.66870481 255 255 255 255
0 0.78318727 0.93501049 255 255 255 255
0 0.28426775 0.20729852 255 255 255 255
0 0.12681432 0.28297055 255 255 255 255
0 0.7489568 0.43531969 255 255 255 255
0 0.017908951 0.064513549 255 255 255 255
0 0.16252825 0.36901274 255 255 255 255
0 0.24489595 0.2527689 255 255 255 255
0 0.24042249 0.48427054 255 255 255 255
0 0.20898898 0.48481765 255 255 255 255
0 0.6215452 0.70610356 255 255 255 255
0 0.082945101 0.21172446 255 255 255 255
0 0.26001874 0.94170398 255 255 255 255
0 0.92997211 0.30213898 255 255 255 255
0 0.85463798 0.77610242 255 255 255 255
0 0.81588477 0.23799685 255 255 255 255
0 0.4448072 0.59907204 255 255 255 255
0 0.17300734 0.72907495 255 255 255 255
0 0.80637056 0.29982165 255 255 255 255
0.011727559 0.033693884 0.59759384 255 255 255 255
0 0.73514134 0.029954471 255 255 255 255
0 0.61984092 0.89766961 255 255 255 255
0 0.39896721 0.86473686 255 255 255 255
0 0.1504385 0.63938969 255 255 255 255
0 0.3490074 0.29193833 255 255 255 255
0 0.068574637 0.97055262 255 255 255 255
0 0.99804193 0.15151975 255 255 255 255
0 0.18227707 0.25806063 255 255 255 255
0 0.093223706 0.11224917 255 255 255 255
0 0.61372113 0.97713751 255 255 255 255
0 0.88835162 0.37608439 255 255 255 255
0 0.18585853 0.33315879 255 255 255 255
0 0.97515643 0.35886589 255 255 255 255
0 0.062233761 0.78152698 255 255 255 255
0 0.65868753 0.074279279 255 255 255 255
0 0.33685437 0.39382887 255 255 255 255
0 0.10423375 0.95669526 255 255 255 255
0 0.29149845 0.50320095 255 255 255 255
0 0.82143211 0.44193697 255 255 255 255
0 0.17747359 0.21604957 255 255 255 255
0 0.73387527 0.21116531 255 255 255 255
0 0.14099215 0.7319172 255 255 255 255
0 0.36268505 0.32326922 255 255 255 255
0 0.98997784 0.45590875 255 255 255 255
0 0.43551838 0.55017745 255 255 255 255
0 0.40377045 0.32386997 255 255 255 255
0 0.92626184 0.58962899 255 255 255 255
0 0.65702879 0.90141827 255 255 255 255
0 0.94849485 0.71926254 255 255 255 255
0 0.73906428 0.65247464 255 255 255 255
0 0.79354185 0.019799594 255 255 255 255
0 0.0010112519 0.89777559 255 255 255 255
0 0.97649485 0.2925097 255 255 255 255
0 0.40097654 0.79792702 255 255 255 255
0 0.7344467 0.54356718 255 255 255 255
0 0.96836656 0.46832198 255 255 255 255
0 0.75473249 0.10935872 255 255 255 255
0 0.20023918 0.11741755 255 255 255 255
0 0.43262795 0.19021702 255 255 255 255
0 0.61851108 0.91903853 255 255 255 255
0 0.74039447 0.97709674 255 255 255 255
0 0.19201632 0.66665632 255 255 255 255
0 0.56672573 0.8490451 255 255 255 255
0 0.56807458 0.51522058 255 255 255 255
0 0.56830764 0.25101981 255 255 255 255
0 0.12240294 0.36184949 255 255 255 255
0 0.2708194 0.12341419 255 255 255 255
0 0.25962505 0.24731427 255 255 255 255
0 0.41592389 0.66060162 255 255 255 255
0 0.083498016 0.20979562 255 255 255 255
0 0.2041688 0.01360785 255 255 255 255
0 0.61869258 0.95890129 255 255 255 255
0 0.12296657 0.81893176 255 255 255 255
0 0.07631886 0.5555945 255 255 255 255
0 0.009148756 0.64964515 255 255 255 255
0 0.42374086 0.74954325 255 255 255 255
0 0.62674189 0.61575717 255 255 255 255
0 0.41619954 0.19346762 255 255 255 255
0 0.46480229 0.98427409 255 255 255 255
0.0030739817 0.74821699 0.075688265 255 255 255 255
0 0.23529391 0.83109111 255 255 255 255
0 0.39495942 0.50611329 255 255 255 255
0 0.95450526 0.65458447 255 255 255 255
0 0.75342757 0.37042919 255 255 255 255
0 0.31518608 0.79866886 255 255 255 255
0 0.52079976 0.51935488 255 255 255 255
0 0.81227672 0.13949233 255 255 255 255
0 0.4782562 0.93524331 255 255 255 255
0 0.95842409 0.55457503 255 255 255 255
0.0067315912 0.52827603 1.0156691 255 255 255 255
0 0.20422022 0.91457868 255 255 255 255
0 0.71711606 0.83096212 255 255 255 255
0 0.53033584 0.13331559 255 255 255 255
0 0.02442974 0.99513811 255 255 255 255
0 0.11758969 0.73311794 255 255 255 255
0 0.028248053 0.35288361 255 255 255 255
0 0.56420904 0.42320746 255 255 255 255
0 0.85899693 0.51871431 255 255 255 255
0 0.077791944 0.61242449 255 255 255 255
0 0.93071753 0.44537556 255 255 255 255
0 0.41109338 0.40994328 255 255 255 255
0 0.91233289 0.22337009 255 255 255 255
0 0.54943562 0.39058909 255 255 255 255
0 0.15861338 0.50785965 255 255 255 255
0 0.94516414 0.6494512 255 255 255 255
0 0.47543249 0.14938436 255 255 255 255
0 0.56402987 0.19254854 255 255 255 255
0 0.9803465 0.094365679 255 255 255 255
0 0.32586414 0.0047762282 255 255 255 255
0 0.12808116 0.49002177 255 255 255 255
0 0.73789412 0.11775185 255 255 255 255
0 0.79633743 0.30210316 255 255 255 255
0 0.5409593 0.65533435 255 255 255 255
0 0.82081747 0.61875129 255 255 255 255
0 0.26775885 0.70996094 255 255 255 255
0 0.011729283 0.6788522 255 255 255 255
0 0.11990423 0.92406219 255 255 255 255
0 0.90222234 0.66933984 255 255 255 255
0 0.31465128 0.060835689 255 255 255 255
0 0.21668325 0.30325714 255 255 255 255
0 0.71028686 0.652632 255 255 255 255
0 0.40919977 0.27431673 255 255 255 255
0 0.84518051 0.38954625 255 255 255 255
0 0.36868241 0.17104466 255 255 255 255
0 0.39432248 0.45818621 255 255 255 255
0 0.6144985 0.13221663 255 255 255 255
0 0.57593805 0.41083592 255 255 255 255
0 0.43431976 0.11689737 255 255 255 255
0 0.066170253 0.25513723 255 255 255 255
0 0.77950644 0.38606641 255 255 255 255
0 0.9650982 0.74737793 255 255 255 255
0 0.012781313 0.085002422 255 255 255 255
0 0.67144012 0.9150036 255 255 255 255
0 0.75434226 0.98609138 255 255 255 255
0 0.97583932 0.93154174 255 255 255 255
0 0.24590679 0.68612617 255 255 255 255
0 0.58417374 0.65510654 255 255 255 255
0 0.9604429 0.42935425 255 255 255 255
0 0.044652808 0.32912534 255 255 255 255
0 0.63757169 0.48019603 255 255 255 255
0 0.78731155 0.21489739 255 255 255 255
0 0.57119191 0.3632496 255 255 255 255
0 0.62573332 0.0055116988 255 255 255 255
0 0.48014697 0.69190353 255 255 255 255
0 0.26064894 0.21579561 255 255 255 255
0 0.025832646 0.22574714 255 255 255 255
0 0.96317351 0.038613956 255 255 255 255
0 0.31074956 0.63461363 255 255 255 255
0 0.95361757 0.065091796 255 255 255 255
0 0.64956987 0.96777666 255 255 255 255
0 0.99663353 0.86661178 255 255 255 255
0 0.61558306 0.58080727 255 255 255 255
0 0.52171832 0.57602602 255 255 255 255
0 0.010161512 0.56637114 255 255 255 255
0 0.90515137 0.61056042 255 255 255 255
0 0.0053464277 0.69246286 255 255 255 255
0 0.82545781 0.57653832 255 255 255 255
0 0.055712469 0.45119113 255 255 255 255
0 0.58205003 0.53585947 255 255 255 255
0 0.18436779 0.88045043 255 255 255 255
0 0.75165504 0.16892731 255 255 255 255
0 0.068446115 0.71482855 255 255 255 255
0 0.20754126 0.37919566 255 255 255 255
0 0.34944218 0.16115884 255 255 255 255
0 0.44428745 0.97014719 255 255 255 255
0 0.090615727 0.44092101 255 255 255 255
0 0.83675897 0.70619881 255 255 255 255
0 0.021728255 0.35847729 255 255 255 255
0 0.2822248 0.031889766 255 255 255 255
0 0.96724421 0.22944044 255 255 255 255
0 0.64245021 0.93019485 255 255 255 255
0 0.879839 0.46790799 255 255 255 255
0 0.50673318 0.93555152 255 255 255 255
0 0.91909909 0.088783242 255 255 255 255
0 0.47141093 0.062193777 255 255 255 255
0 0.93148226 0.22306599 255 255 255 255
0 0.23112108 0.99992836 255 255 255 255
0 0.93789452 0.43866235 255 255 255 255
0 0.37912402 0.28733674 255 255 255 255
0 0.64496839 0.87581354 255 255 255 255
0 0.25748393 0.6904369 255 255 255 255
0 0.26433247 0.094242893 255 255 255 255
0 0.39663574 0.28606072 255 255 255 255
0 0.4527202 0.67886055 255 255 255 255
0 0.31795049 0.3775686 255 255 255 255
0 0.86623669 0.96040064 255 255 255 255
0 0.30776346 0.74607575 255 255 255 255
0 0.42830867 0.81449664 255 255 255 255
0 0.68162721 0.34740779 255 255 255 255
0 0.94107753 0.20484506 255 255 255 255
0 0.40960157 0.8347621 255 255 255 255
0 0.37610415 0.64072263 255 255 255 255
0 0.83469045 0.3139987 255 255 255 255
0 0.079385005 0.21381447 255 255 255 255
0 0.60133547 0.67920619 255 255 255 255
0 0.037225932 0.85881937 255 255 255 255
0 0.36964312 0.30155838 255 255 255 255
0 0.95306224 0.76627886 255 255 255 255
0 0.58761913 0.40578243 255 255 255 255
0 0.4989208 0.9532904 255 255 255 255
0 0.78335106 0.31137609 255 255 255 255
0 0.86597025 0.091114499 255 255 255 255
0 0.057451818 0.29427892 255 255 255 255
0 0.90561116 0.73907906 255 255 255 255
0 0.64168674 0.80889106 255 255 255 255
0 0.8921172 0.051288284 255 255 255 255
0 0.64365315 0.26822138 255 255 255 255
0 0.69201094 0.47834364 255 255 255 255
0 0.58222008 0.77139592 255 255 255 255
0 0.74819738 0.22877987 255 255 255 255
0 0.45060214 0.72938401 255 255 255 255
0 0.042374879 0.82024527 255 255 255 255
0 0.030942414 0.99543715 255 255 255 255
0 0.58652407 0.61856151 255 255 255 255
0 0.40121958 0.031663481 255 255 255 255
0 0.52413112 0.18457064 255 255 255 255
0 0.34303957 0.39010134 255 255 255 255
0 0.27568513 0.40049139 255 255 255 255
0 0.68438029 0.18129629 255 255 255 255
0 0.16919351 0.37425634 255 255 255 255
0 0.99018735 0.031687658 255 255 255 255
0 0.37735528 0.6338405 255 255 255 255
0 0.29990903 0.069366217 255 255 255 255
0 0.11218413 0.88212907 255 255 255 255
0 0.84076214 0.80434221 255 255 255 255
0 0.065684609 0.29136431 255 255 255 255
0 0.53372627 0.1080595 255 255 255 255
0 0.11160955 0.56466866 255 255 255 255
0 0.10349663 0.69813365 255 255 255 255
0 0.23139222 0.57611305 255 255 255 255
0 0.72979712 0.70736128 255 255 255 255
0 0.68928689 0.07283669 255 255 255 255
0 0.097462632 0.96497202 255 255 255 255
0 0.47332808 0.78184289 255 255 255 255
0 0.14626828 0.61289853 255 255 255 255
0 0.1079099 0.13645563 255 255 255 255
0 0.64458615 0.48526517 255 255 255 255
0 0.7702961 0.9444952 255 255 255 255
0 0.55463141 0.88248026 255 255 255 255
0 0.86937344 0.42993623 255 255 255 255
0 0.68682247 0.89230889 255 255 255 255
0 0.68675786 0.22054873 255 255 255 255
0 0.00036840839 0.79836738 255 255 255 255
0 0.7852174 0.10386504 255 255 255 255
0 0.49650103 0.96844757 255 255 255 255
0 0.60858124 0.22629815 255 255 255 255
0 0.67580885 0.29786813 255 255 255 255
0 0.29913485 0.7732715 255 255 255 255
0 0.26284012 0.7724629 255 255 255 255
0 0.60258931 0.43058395 255 255 255 255
0 0.38536143 0.66302431 255 255 255 255
0 0.54556406 0.029947607 255 255 255 255
0 0.14828946 0.31586015 255 255 255 255
0 0.97444284 0.70292085 255 255 255 255
0 0.1983404 0.80106711 255 255 255 255
0 0.098314404 0.88516289 255 255 255 255
0 0.693376 0.78507227 255 255 255 255
0 0.10571161 0.69374442 255 255 255 255
0 0.58343965 0.89092898 255 255 255 255
0 0.85340518 0.13030602 255 255 255 255
0 0.85937655 0.40619075 255 255 255 255
0 0.30623886 0.5351854 255 255 255 255
0 0.70405889 0.60537368 255 255 255 255
0 0.3084569 0.96689898 255 255 255 255
0 0.37783661 0.86357129 255 255 255 255
0 0.37600741 0.76319808 255 255 255 255
0 0.52659559 0.92157143 255 255 255 255
0 0.79314566 0.67488503 255 255 255 255
0 0.2374316 0.7675885 255 255 255 255
0 0.4233408 0.4941932 255 255 255 255
0 0.56865555 0.47612026 255 255 255 255
0 0.32093489 0.26203161 255 255 255 255
0 0.26119253 0.4266465 255 255 255 255
0 0.95577604 0.84463221 255 255 255 255
0 0.31757548 0.75338554 255 255 255 255
0 0.92457289 0.17695206 255 255 255 255
0 0.15957628 0.23081173 255 255 255 255
0 0.71213746 0.86363518 255 255 255 255
0 0.8361854 0.020594383 255 255 255 255
0 0.87058336 0.25721255 255 255 255 255
0 0.88416564 0.20654158 255 255 255 255
0 0.97722012 0.41076124 255 255 255 255
0 0.12811303 0.77036577 255 255 255 255
0 0.085646257 0.36554462 255 255 255 255
0 0.53795421 0.46345213 255 255 255 255
0 0.80131662 0.10660979 255 255 255 255
0 0.93957239 0.12225151 255 255 255 255
0 0.36864141 0.20076494 255 255 255 255
0 0.54889798 0.32441744 255 255 255 255
0 0.082868107 0.93073964 255 255 255 255
0 0.077802971 0.96996999 255 255 255 255
0 0.043425549 0.23737925 255 255 255 255
0 0.20078173 0.75556302 255 255 255 255
0 0.10101441 0.036967166 255 255 255 255
0 0.77615744 0.9315486 255 255 255 255
0 0.2509892 0.66032308 255 255 255 255
0 0.13809015 0.2282093 255 255 255 255
0 0.071084321 0.26620319 255 255 255 255
0 0.99857503 0.15673058 255 255 255 255
0 0.68160301 0.59292567 255 255 255 255
0 0.62018269 0.43306443 255 255 255 255
0 0.64313906 0.55975515 255 255 255 255
0 0.55531597 0.011780457 255 255 255 255
0 0.76052004 0.10421395 255 255 255 255
0 0.33619791 0.8059172 255 255 255 255
0 0.97068745 0.41400087 255 255 255 255
0 0.77588719 0.014112984 255 255 255 255
0 0.65138012 0.97666895 255 255 255 255
0 0.76967603 0.75239456 255 255 255 255
0.011727559 0.033412404 0.59230357 255 255 255 255
0 0.68394309 0.26462531 255 255 255 255
0 0.20615651 0.82203323 255 255 255 255
0 0.4928346 0.27724084 255 255 255 255
0 0.088236436 0.49140966 255 255 255 255
0 0.43397141 0.71998423 255 255 255 255
0 0.027938906 0.05415412 255 255 255 255
0 0.15304868 0.67107797 255 255 255 255
0 0.61390924 0.70836461 255 255 255 255
0 0.68285841 0.37442932 255 255 255 255
0.024290698 0.86300564 0.051697083 255 255 255 255
0 0.18034649 0.78326601 255 255 255 255
0 0.43305719 0.95623368 255 255 255 255
0 0.79737896 0.084437326 255 255 255 255
0 0.93290263 0.56705499 255 255 255 255
0 0.83683187 0.94653875 255 255 255 255
0 0.11288843 0.52077496 255 255 255 255
0 0.21116404 0.31904495 255 255 255 255
0 0.34280822 0.70399863 255 255 255 255
0 0.59628576 0.43104464 255 255 255 255
0.016207224 0.23151411 0.069590449 255 255 255 255
0 0.1510289 0.2233472 255 255 255 255
0 0.084411301 0.30407757 255 255 255 255
0 0.89442515 0.69832057 255 255 255 255
0 0.012442196 0.57728356 255 255 255 255
0 0.072749846 0.82502079 255 255 255 255
0 0.59633988 0.25309634 255 255 255 255
0 0.60828674 0.029397095 255 255 255 255
0 0.20933004 0.40566576 255 255 255 255
0 0.11383442 0.14223266 255 255 255 255
0.017368715 1.0139819 0.99435443 255 255 255 255
0 0.088771395 0.085609183 255 255 255 255
0 0.47144124 0.29993543 255 255 255 255
0 0.40465412 0.81424946 255 255 255 255
0 0.0039340863 0.00093989493 255 255 255 255
0 0.24529409 0.19934238 255 255 255 255
0 0.031197075 0.396323 255 255 255 255
0 0.42268959 0.11560838 255 255 255 255
0 0.70040059 0.31711474 255 255 255 255
0 0.8139289 0.71284276 255 255 255 255
0 0.93875694 0.94714803 255 255 255 255
0 0.53786349 0.49073821 255 255 255 255
0 0.1397751 0.14615029 255 255 255 255
0 0.52013528 0.34910515 255 255 255 255
0 0.55181605 0.63396972 255 255 255 255
0 0.49133781 0.52453679 255 255 255 255
0 0.58463597 0.58010918 255 255 255 255
0 0.61014599 0.056077231 255 255 255 255
0 0.88004464 0.014800092 255 255 255 255
0 0.8703267 0.88397872 255 255 255 255
0.016668402 0.053412147 0.14689037 255 255 255 255
0 0.083321102 0.046937063 255 255 255 255
0 0.51194376 0.50601071 255 255 255 255
0 0.16254544 0.21234432 255 255 255 255
0 0.82312542 0.97647434 255 255 255 255
0 0.92518711 0.71752375 255 255 255 255
0 0.8631531 0.4630506 255 255 255 255
0 0.20826197 0.0029282281 255 255 255 255
0 0.60920089 0.72839725 255 255 255 255
0 0.35203338 0.16101693 255 255 255 255
0 0.4146156 0.89056057 255 255 255 255
0 0.68555373 0.94700301 255 255 255 255
0 0.42348036 0.29569969 255 255 255 255
0 0.0030802325 0.303525 255 255 255 255
0 0.31049979 0.87340689 255 255 255 255
0 0.18750371 0.32623976 255 255 255 255
0 0.98902768 0.27082482 255 255 255 255
0 0.37317681 0.50097144 255 255 255 255
0 0.7768355 0.53572226 255 255 255 255
0 0.71331578 0.59996092 255 255 255 255
0 0.55283964 0.67848015 255 255 255 255
0 0.31748465 0.37534976 255 255 255 255
0 0.10155345 0.52574664 255 255 255 255
0 0.37827799 0.71075433 255 255 255 255
0 0.25414389 0.73031133 255 255 255 255
0 0.87177128 0.61651087 255 255 255 255
0 0.57368249 0.55732501 255 255 255 255
0 0.56351388 0.99716288 255 255 255 255
0 0.85302466 0.56659412 255 255 255 255
0 0.30068785 0.16352445 255 255 255 255
0 0.47592437 0.53952044 255 255 255 255
0 0.48976421 0.42902872 255 255 255 255
0 0.75901639 0.86294103 255 255 255 255
0 0.93000013 0.53585184 255 255 255 255
0 0.39866331 0.64331591 255 255 255 255
0 0.13581277 0.91085994 255 255 255 255
0 0.28181875 0.45329744 255 255 255 255
0 0.28620967 0.38337222 255 255 255 255
0 0.97904408 0.66448766 255 255 255 255
0 0.094126537 0.23318794 255 255 255 255
0.02671143 0.44910628 1.0093055 255 255 255 255
0 0.84969884 0.96848148 255 255 255 255
0 0.5232228 0.41321275 255 255 255 255
0 0.96564436 0.37624744 255 255 255 255
0 0.97980684 0.26633221 255 255 255 255
0 0.53977191 0.41980791 255 255 255 255
0 0.75452375 0.029536098 255 255 255 255
0 0.8488366 0.51354015 255 255 255 255
0 0.89247715 0.77883679 255 255 255 255
0 0.049392007 0.29114044 255 255 255 255
0 0.47801033 0.22264917 255 255 255 255
0 0.20200036 0.70397145 255 255 255 255
0 0.63850224 0.48821002 255 255 255 255
0 0.087343641 0.61754626 255 255 255 255
0 0.15269768 0.18147019 255 255 255 255
0 0.85073423 0.54749668 255 255 255 255
0 0.14736798 0.70043308 255 255 255 255
0 0.51597822 0.67059076 255 255 255 255
0 0.11364582 0.48162255 255 255 255 255
0 0.046838224 0.093452685 255 255 255 255
0 0.80516219 0.64839208 255 255 255 255
0 0.5132606 0.50247854 255 255 255 255
0 0.61614621 0.3620972 255 255 255 255
0 0.016018679 0.50862336 255 255 255 255
0 0.14093396 0.065410689 255 255 255 255
0 0.7997638 0.56308663 255 255 255 255
0 0.25061548 0.0017641359 255 255 255 255
0 0.26705807 0.88911772 255 255 255 255
0 0.48997417 0.35440171 255 255 255 255
0 0.50666398 0.64267188 255 255 255 255
0 0.59056002 0.42437422 255 255 255 255
0 0.19016854 0.68323988 255 255 255 255
0 0.057831306 0.70614672 255 255 255 255
0 0.35383067 0.17147712 255 255 255 255
0 0.18776929 0.40066889 255 255 255 255
0 0.2649298 0.93572402 255 255 255 255
0 0.987279 0.77819037 255 255 255 255
0 0.43820259 0.6034252 255 255 255 255
0 0.14028758 0.45422128 255 255 255 255
0 0.11204856 0.28122154 255 255 255 255
0 0.55986309 0.94382387 255 255 255 255
0 0.8443082 0.7702474 255 255 255 255
0 0.91357648 0.11136625 255 255 255 255
0 0.65936512 0.40355065 255 255 255 255
0 0.46576798 0.16602911 255 255 255 255
0 0.046222504 0.0016398625 255 255 255 255
0 0.52342737 0.23639105 255 255 255 255
0 0.68487972 0.58125865 255 255 255 255
0 0.94253778 0.038710404 255 255 255 255
0 0.75273579 0.13030708 255 255 255 255
0.012558405 0.46873593 0.041802131 255 255 255 255
0 0.066031121 0.42665827 255 255 255 255
0 0.79585594 0.50423372 255 255 255 255
0 0.030083496 0.93614358 255 255 255 255
0 0.95845497 0.14213206 255 255 255 255
0 0.21736509 0.47808692 255 255 255 255
0 0.05394439 0.061673269 255 255 255 255
0 0.24833435 0.96752089 255 255 255 255
0 0.17303953 0.90769947 255 255 255 255
0 0.37107152 0.63880748 255 255 255 255
0 0.10468388 0.45147416 255 255 255 255
0 0.64044738 0.59715593 255 255 255 255
0 0.65368503 0.3253271 255 255 255 255
0 0.17841457 0.59622288 255 255 255 255
0 0.36403751 0.93115032 255 255 255 255
0 0.7265299 0.80341679 255 255 255 255
0 0.94881594 0.79256105 255 255 255 255
0 0.23007508 0.74467188 255 255 255 255
0 0.29679474 0.26015857 255 255 255 255
0 0.68081546 0.25524971 255 255 255 255
0 0.4732843 0.94549358 255 255 255 255
0 0.73333663 0.45623502 255 255 255 255
0 0.95985377 0.98167098 255 255 255 255
0 0.42375588 0.13289332 255 255 255 255
0 0.88937044 0.7948274 255 255 255 255
0 0.7717008 0.96309906 255 255 255 255
0 0.2121214 0.41214815 255 255 255 255
0 0.56025499 0.86580646 255 255 255 255
0 0.73747528 0.73866951 255 255 255 255
0 0.46202931 0.10151277 255 255 255 255
0 0.72729677 0.23334005 255 255 255 255
0 0.90492958 0.61863577 255 255 255 255
0 0.98112029 0.13500462 255 255 255 255
0 0.36330768 0.27791503 255 255 255 255
0 0.39516318 0.044123113 255 255 255 255
0 0.53316474 0.79745382 255 255 255 255
0 0.94230366 0.2665014 255 255 255 255
0 0.25368884 0.90215743 255 255 255 255
0 0.24817237 0.6774447 255 255 255 255
0 0.035050757 0.13754283 255 255 255 255
0 0.50792235 0.84019399 255 255 255 255
0 0.10064188 0.68439347 255 255 255 255
0 0.21889973 0.66089684 255 255 255 255
0 0.55019999 0.956375 255 255 255 255
0 0.39956638 0.012229267 255 255 255 255
0 0.057887755 0.069386259 255 255 255 255
0 0.2007885 0.96281731 255 255 255 255
0 0.68802208 0.18190877 255 255 255 255
0 0.097821929 0.051329736 255 255 255 255
0 0.45982379 0.49298513 255 255 255 255
0.016644148 0.12553997 1.0241755 255 255 255 255
0 0.29043895 0.037756488 255 255 255 255
0.45893651 0 0.072095774 255 255 255 255
0.7209143 0 0.46264356 255 255 255 255
0.86547738 0 0.1092779 255 255 255 255
0.6128633 0 0.56013405 255 255 255 255
0.024791937 0 0.70546144 255 255 255 255
0.44205803 0 0.1700055 255 255 255 255
0.82925934 0 0.9812367 255 255 255 255
0.64925963 0 0.42904139 255 255 255 255
1.0079447 0.030803569 0.038058076 255 255 255 255
0.082499035 0 0.81261855 255 255 255 255
0.79907429 0 0.68563491 255 255 255 255
0.90079969 0 0.54886007 255 255 255 255
0.60611093 0 0.63293457 255 255 255 255
0.41137055 0 0.16292605 255 255 255 255
0.71732008 0 0.10416131 255 255 255 255
0.92380846 0 0.17625658 255 255 255 255
0.17625709 0 0.64472276 255 255 255 255
0.63890016 0 0.041734476 255 255 255 255
0.8019467 0 0.31372982 255 255 255 255
0.60186857 0 0.77879256 255 255 255 255
0.95722485 0 0.043926559 255 255 255 255
0.94879806 0 0.78648424 255 255 255 255
0.025163261 0 0.59805769 255 255 255 255
0.2155256 0 0.0023209541 255 255 255 255
0.60051388 0 0.29802462 255 255 255 255
0.8149395 0 0.39958817 255 255 255 255
0.98365951 0 0.71573919 255 255 255 255
0.94844824 0 0.5897705 255 255 255 255
0.38054088 0 0.40573996 255 255 255 255
0.75269651 0 0.065993875 255 255 255 255
0.46398011 0 0.67650503 255 255 255 255
0.24225046 0 0.64023721 255 255 255 255
0.32122776 0 0.8811506 255 255 255 255
0.68197167 0 0.075228415 255 255 255 255
0.13291401 0 0.28384021 255 255 255 255
0.85402101 0 0.09013886 255 255 255 255
0.32776678 0 0.80281907 255 255 255 255
0.87662309 0 0.35293004 255 255 255 255
0.43816015 0 0.15862845 255 255 255 255
0.35525098 0 0.0013906891 255 255 255 255
0.39017329 0 0.17019051 255 255 255 255
0.40097886 0 0.37383282 255 255 255 255
0.8859297 0 0.3494271 255 255 255 255
0.96360332 0 0.23460352 255 255 255 255
0.70924592 0 0.71629983 255 255 255 255
0.3005974 0 0.173226 255 255 255 255
0.39280486 0 0.54284787 255 255 255 255
0.81346321 0 0.71403265 255 255 255 255
0.46675619 0 0.54089516 255 255 255 255
0.78926104 0 0.55691242 255 255 255 255
0.77927512 0 0.64328206 255 255 255 255
0.64705127 0 0.10704189 255 255 255 255
0.44610113 0 0.52367437 255 255 255 255
0.45997193 0 0.84697795 255 255 255 255
0.61582303 0 0.81522292 255 255 255 255
0.84836864 0 0.0059963358 255 255 255 255
0.98541343 0 0.24934748 255 255 255 255
0.37982917 0 0.87134314 255 255 255 255
0.66881633 0 0.40158814 255 255 255 255
0.10594667 0 0.30802047 255 255 255 255
0.05973234 0 0.40654406 255 255 255 255
0.48124647 0 0.45253721 255 255 255 255
0.9493919 0 0.29470968 255 255 255 255
0.16656984 0 0.37339035 255 255 255 255
0.79014456 0 0.95583087 255 255 255 255
0.9303028 0 0.56941968 255 255 255 255
0.59911293 0 0.57735407 255 255 255 255
0.67646158 0 0.045214072 255 255 255 255
0.14782962 0 0.18946052 255 255 255 255
0.89219201 0 0.71685147 255 255 255 255
0.9516564 0 0.74056059 255 255 255 255
0.72284782 0 0.93706983 255 255 255 255
0.9899081 0 0.10267699 255 255 255 255
0.80841303 0 0.58868265 255 255 255 255
0.44610947 0 0.91435969 255 255 255 255
0.89670312 0 0.50584179 255 255 255 255
0.32090375 0 0.37794963 255 255 255 255
0.95837903 0 0.27029565 255 255 255 255
0.72472811 0 0.16502839 255 255 255 255
0.643686 0 0.4628039 255 255 255 255
0.080779761 0 0.5739888 255 255 255 255
0.032223575 0 0.67989272 255 255 255 255
0.15134284 0 0.70868516 255 255 255 255
0.72510678 0 0.25237128 255 255 255 255
0.84511864 0 0.61729878 255 255 255 255
0.96922278 0 0.79677504 255 255 255 255
0.35785937 0 0.6920706 255 255 255 255
0.73384494 0 0.34776747 255 255 255 255
0.8292821 0 0.57065672 255 255 255 255
0.93645012 0 0.24085703 255 255 255 255
0.45661759 0 0.83315331 255 255 255 255
0.74669886 0 0.77752137 255 255 255 255
0.21110293 0 0.70507789 255 255 255 255
0.047817003 0 0.88376224 255 255 255 255
0.83002675 0 0.69150299 255 255 255 255
0.34656614 0 0.91080648 255 255 255 255
0.26549175 0 0.37878972 255 255 255 255
0.5906992 0 0.41683459 255 255 255 255
0.13507068 0 0.34412903 255 255 255 255
0.6692059 0 0.93259346 255 255 255 255
0.93310475 0 0.63842863 255 255 255 255
0.72936857 0 0.29096413 255 255 255 255
0.33049923 0 0.46321344 255 255 255 255
0.6387316 0 0.12524681 255 255 255 255
0.0054713744 0 0.57518178 255 255 255 255
0.36610386 0 0.46208897 255 255 255 255
0.40833506 0 0.11280271 255 255 255 255
0.23961033 0 0.61943799 255 255 255 255
0.87265342 0 0.34317923 255 255 255 255
0.50320023 0 0.64790732 255 255 255 255
0.97893035 0 0.84976637 255 255 255 255
0.55871385 0 0.24442209 255 255 255 255
0.22855611 0 0.14941303 255 255 255 255
0.66125667 0 0.31603098 255 255 255 255
0.46521902 0 0.33046257 255 255 255 255
0.24862446 0 0.39832374 255 255 255 255
0.9688912 0 0.97799301 255 255 255 255
0.6892879 0 0.29939047 255 255 255 255
0.4962438 0 0.37777182 255 255 255 255
0.42463726 0 0.44667783 255 255 255 255
0.90320122 0 0.79074109 255 255 255 255
0.90876681 0 0.31153631 255 255 255 255
0.90354383 0 0.14837714 255 255 255 255
0.9309743 0 0.7214244 255 255 255 255
0.43580446 0 0.43417454 255 255 255 255
0.36933172 0 0.41473481 255 255 255 255
0.28394094 0 0.92804557 255 255 255 255
0.65915692 0 0.51249707 255 255 255 255
0.12178447 0 0.34905165 255 255 255 255
0.82852799 0 0.54267758 255 255 255 255
0.65087616 0 0.077152468 255 255 255 255
0.94100136 0 0.61976737 255 255 255 255
0.055145472 0 0.63028926 255 255 255 255
0.91915786 0 0.49635193 255 255 255 255
0.95830876 0 0.34379509 255 255 255 255
0.94302976 0 0.86150998 255 255 255 255
0.13453622 0 0.85179657 255 255 255 255
0.17304629 0 0.038080037 255 255 255 255
0.024830522 0.024656808 0.14325799 255 255 255 255
0.75950444 0 0.43597817 255 255 255 255
0.53819513 0 0.12883615 255 255 255 255
0.85071295 0 0.82213604 255 255 255 255
0.056881722 0 0.50986987 255 255 255 255
0.33463311 0 0.13434032 255 255 255 255
0.83028346 0 0.16316111 255 255 255 255
0.67701793 0 0.48115963 255 255 255 255
0.24031359 0 0.61801928 255 255 255 255
0.100927 0 0.29545906 255 255 255 255
0.29954433 0.022029901 0.047619347 255 255 255 255
0.79181099 0 0.20661724 255 255 255 255
0.36387995 0 0.73484075 255 255 255 255
0.068127222 0 0.49841616 255 255 255 255
0.58663732 0 0.24117351 255 255 255 255
0.53649622 0 0.58681107 255 255 255 255
0.3451941 0 0.29600063 255 255 255 255
0.022789229 0 0.88338923 255 255 255 255
0.42483678 0 0.87350219 255 255 255 255
0.70552528 0 0.48171851 255 255 255 255
0.42828131 0 0.069258802 255 255 255 255
0.61605883 0 0.21365555 255 255 255 255
0.2033195 0 0.29307675 255 255 255 255
0.69481516 0 0.44363308 255 255 255 255
0.91109604 0 0.79574215 255 255 255 255
0.73909217 0 0.15940453 255 255 255 255
0.81582701 0 0.53090316 255 255 255 255
0.36602178 0 0.17970695 255 255 255 255
0.26574388 0 0.434149 255 255 255 255
0.67812312 0 0.85238123 255 255 255 255
0.71206343 0 0.28723279 255 255 255 255
0.43919227 0 0.020516602 255 255 255 255
0.51061994 0 0.46198151 255 255 255 255
0.90390581 0 0.93545675 255 255 255 255
0.3354837 0 0.60943109 255 255 255 255
0.41717526 0 0.7188558 255 255 255 255
0.64958954 0 0.033234078 255 255 255 255
0.93251133 0 0.85290903 255 255 255 255
0.32631081 0 0.62732649 255 255 255 255
0.29654211 0 0.23740685 255 255 255 255
0.45823404 0 0.06636785 255 255 255 255
0.3968114 0 0.23889568 255 255 255 255
0.56653738 0 0.76283318 255 255 255 255
0.41860265 0 0.83228129 255 255 255 255
0.19698216 0 0.096725747 255 255 255 255
0.68466252 0 0.87230468 255 255 255 255
0.31134504 0 0.12385479 255 255 255 255
0.89282125 0 0.82196498 255 255 255 255
0.58583629 0 0.79672712 255 255 255 255
0.75742173 0 0.92132002 255 255 255 255
0.45946267 0 0.19893399 255 255 255 255
0.64017582 0 0.055747718 255 255 255 255
0.20783105 0 0.57268715 255 255 255 255
0.90865672 0 0.5341419 255 255 255 255
0.20001365 0 0.20519885 255 255 255 255
0.77154875 0 0.62308234 255 255 255 255
0.24083312 0 0.16836011 255 255 255 255
0.86197799 0 0.80737054 255 255 255 255
0.93119329 0 0.28058067 255 255 255 255
0.63965183 0 0.12817542 255 255 255 255
0.41025001 0 0.35747638 255 255 255 255
0.00048008468 0 0.68865144 255 255 255 255
0.44816917 0 0.89330137 255 255 255 255
0.51061642 0 0.034005448 255 255 255 255
0.69002843 0 0.26803818 255 255 255 255
0.95532542 0 0.096186645 255 255 255 255
0.44263515 0 0.59550124 255 255 255 255
0.15193437 0 0.6504662 255 255 255 255
0.16818838 0 0.060591105 255 255 255 255
0.18460809 0 0.36820203 255 255 255 255
0.31686723 0.011548026 1.0037531 255 255 255 255
0.99128437 0 0.50662309 255 255 255 255
0.12451692 0 0.85326236 255 255 255 255
0.3139936 0 0.055710185 255 255 255 255
0.13384303 0 0.95364547 255 255 255 255
0.1838856 0 0.51114941 255 255 255 255
0.27795979 0 0.18436569 255 255 255 255
0.19980089 0 0.72612894 255 255 255 255
0.077667043 0 0.71041733 255 255 255 255
0.7601344 0 0.76769549 255 255 255 255
1.0178233 0.014337881 0.75465268 255 255 255 255
0.86388212 0 0.42109066 255 255 255 255
0.3109611 0 0.015816497 255 255 255 255
0.071556859 0 0.47914949 255 255 255 255
0.076407604 0 0.25616494 255 255 255 255
0.84735149 0 0.34219757 255 255 255 255
0.21232174 0 0.83863586 255 255 255 255
0.84882063 0 0.33683866 255 255 255 255
0.69189823 0 0.16281424 255 255 255 255
0.39254886 0 0.82574129 255 255 255 255
0.17742591 0 0.62687337 255 255 255 255
0.3368907 0 0.39441949 255 255 255 255
0.76080018 0 0.53669161 255 255 255 255
0.12054846 0 0.83846718 255 255 255 255
0.24710894 0 0.88068289 255 255 255 255
0.60616267 0 0.22556445 255 255 255 255
0.59614271 0 0.47004482 255 255 255 255
0.64665514 0 0.90710384 255 255 255 255
0.4858613 0 0.71821195 255 255 255 255
0.3862533 0 0.56226891 255 255 255 255
1.0119256 0.019749109 0.27719569 255 255 255 255
0.90446645 0 0.18669868 255 255 255 255
0.072240666 0 0.75328708 255 255 255 255
0.52353734 0 0.76413888 255 255 255 255
0.91610134 0 0.9160862 255 255 255 255
0.58988017 0 0.032561038 255 255 255 255
0.49252066 0 0.92677087 255 255 255 255
0.42698053 0 0.25332081 255 255 255 255
0.46346247 0 0.54752898 255 255 255 255
0.091788009 0 0.71057141 255 255 255 255
0.47797251 0 0.74183357 255 255 255 255
0.93613589 0 0.024354577 255 255 255 255
0.1679955 0 0.58279097 255 255 255 255
0.93145841 0 0.65385681 255 255 255 255
0.30100298 0 0.31771171 255 255 255 255
0.21612571 0 0.2753799 255 255 255 255
0.5513165 0 0.12059218 255 255 255 255
0.46207857 0 0.62355715 255 255 255 255
0.87387931 0 0.98561591 255 255 255 255
0.38769606 0 0.78998065 255 255 255 255
0.9410342 0.01983181 1.0258284 255 255 255 255
0.82254165 0 0.39422274 255 255 255 255
0.90434712 0 0.24952221 255 255 255 255
0.64754355 0 0.36780959 255 255 255 255
0.79705119 0 0.73933154 255 255 255 255
0.078381017 0 0.22526304 255 255 255 255
0.43728223 0 0.014516897 255 255 255 255
0.24961762 0 0.60527772 255 255 255 255
0.59730792 0 0.18107602 255 255 255 255
0.25913456 0 0.89831084 255 255 255 255
0.54027402 0 0.52009165 255 255 255 255
0.17369077 0 0.050104219 255 255 255 255
0.59585243 0 0.63576931 255 255 255 255
0.67366141 0 0.46973172 255 255 255 255
0.62138522 0 0.06135745 255 255 255 255
0.25971237 0 0.52308732 255 255 255 255
0.038933687 0 0.082254037 255 255 255 255
0.91731006 0 0.94328082 255 255 255 255
0.33177623 0 0.56485361 255 255 255 255
0.31109041 0 0.12882744 255 255 255 255
0.3412917 0 0.41693801 255 255 255 255
0.35409048 0 0.74146742 255 255 255 255
0.40398833 0 0.60370809 255 255 255 255
0.34674513 0 0.0012962143 255 255 255 255
0.78478414 0 0.60587966 255 255 255 255
0.89960706 0 0.28357184 255 255 255 255
0.081139959 0 0.073297843 255 255 255 255
0.33367607 0 0.67699242 255 255 255 255
0.70906717 0 0.0073374431 255 255 255 255
0.14672413 0 0.33045238 255 255 255 255
0.10681366 0 0.43798068 255 255 255 255
0.85353971 0 0.10762858 255 255 255 255
0.48869056 0 0.77084976 255 255 255 255
0.050909385 0 0.82046682 255 255 255 255
0.33570334 0 0.36199978 255 255 255 255
0.94929421 0 0.63988847 255 255 255 255
0.75147122 0 0.30338472 255 255 255 255
0.38135588 0 0.15545952 255 255 255 255
0.90709281 0 0.72810102 255 255 255 255
0.15675575 0 0.69187695 255 255 255 255
0.37928393 0 0.10769376 255 255 255 255
0.97544879 0 0.41512066 255 255 255 255
0.12966067 0 0.30912483 255 255 255 255
0.092113085 0 0.83872783 255 255 255 255
0.31646228 0 0.23883723 255 255 255 255
0.16918021 0 0.38515717 255 255 255 255
0.64527375 0 0.022719907 255 255 255 255
0.49278575 0 0.13396427 255 255 255 255
0.79356962 0 0.54369515 255 255 255 255
0.95443106 0 0.12927297 255 255 255 255
0.94656253 0 0.94731081 255 255 255 255
0.76916146 0 0.65716612 255 255 255 255
0.20711 0 0.15051733 255 255 255 255
0.81262565 0 0.11420282 255 255 255 255
0.87861836 0 0.96938139 255 255 255 255
0.80607975 0 0.21259907 255 255 255 255
0.025744231 0 0.78152853 255 255 255 255
0.62771976 0 0.1554049 255 255 255 255
0.090653375 0 0.71983284 255 255 255 255
0.99413276 0 0.40711567 255 255 255 255
1.0065473 0 0.20642287 255 255 255 255
0.79227281 0 0.60394377 255 255 255 255
0.18603286 0 0.28505859 255 255 255 255
0.73790807 0 0.97960252 255 255 255 255
0.82875371 0 0.69233912 255 255 255 255
0.10887548 0 0.73444867 255 255 255 255
0.59606445 0 0.87803692 255 255 255 255
0.39161476 0 0.80317444 255 255 255 255
0.028554264 0 0.20424044 255 255 255 255
0.91737723 0 0.90717262 255 255 255 255
0.21607938 0 0.76075625 255 255 255 255
0.1197717 0 0.19936608 255 255 255 255
0.50498557 0 0.74749142 255 255 255 255
0.35477099 0 0.59563893 255 255 255 255
0.46732426 0 0.34890372 255 255 255 255
0.0027545826 0 0.42599434 255 255 255 255
0.51221669 0 0.79502743 255 255 255 255
0.029938102 0 0.69824952 255 255 255 255
0.080085993 0 0.76784617 255 255 255 255
0.67785203 0 0.9088397 255 255 255 255
0.50000352 0 0.82161707 255 255 255 255
0.64328837 0 0.056249708 255 255 255 255
0.66476446 0 0.034903139 255 255 255 255
0.85942411 0 0.69331872 255 255 255 255
0.23914358 0 0.77680141 255 255 255 255
0.60049134 0 0.41276541 255 255 255 255
0.50025839 0 0.720263 255 255 255 255
0.61213148 0 0.0052439594 255 255 255 255
0.46775445 0 0.96690249 255 255 255 255
0.60088289 0 0.93507874 255 255 255 255
0.36535147 0 0.64228213 255 255 255 255
0.36107305 0 0.82802284 255 255 255 255
0.39866489 0 0.39101115 255 255 255 255
0.52627242 0 0.47875088 255 255 255 255
0.15885732 0 0.20412444 255 255 255 255
0.38759059 0 0.61904258 255 255 255 255
0.99085194 0 0.030878955 255 255 255 255
0.67529231 0 0.6556164 255 255 255 255
0.065782093 0 0.53471643 255 255 255 255
0.3489351 0 0.30492568 255 255 255 255
0.36768034 0.0092483573 1.0085417 255 255 255 255
0.71769106 0 0.81177622 255 255 255 255
0.66968948 0 0.3298226 255 255 255 255
0.81702018 0 0.13744392 255 255 255 255
0.29672506 0 0.4179031 255 255 255 255
0.072522655 0 0.61253124 255 255 255 255
0.02154056 0 0.43359572 255 255 255 255
0.44055411 0 0.42020544 255 255 255 255
0.8246069 0 0.9668265 255 255 255 255
0.8989563 0 0.98346418 255 255 255 255
0.21289358 0 0.32586256 255 255 255 255
0.60250676 0 0.16180289 255 255 255 255
0.31742588 0 0.2777991 255 255 255 255
0.81741929 0 0.38320795 255 255 255 255
0.81251556 0 0.16635437 255 255 255 255
0.68813366 0 0.12403338 255 255 255 255
0.1157808 0 0.40582472 255 255 255 255
0.93580961 0 0.78547025 255 255 255 255
0.73564732 0 0.75282985 255 255 255 255
0.92291415 0 0.032372382 255 255 255 255
0.2006034 0.029264741 1.0307887 255 255 255 255
0.64490366 0 0.19227348 255 255 255 255
0.42903253 0 0.085457765 255 255 255 255
0.61247891 0 0.2536394 255 255 255 255
0.052284285 0 0.51143521 255 255 255 255
0.2371036 0 0.22323523 255 255 255 255
0.79798216 0 0.8396104 255 255 255 255
0.38503811 0 0.11540802 255 255 255 255
0.11740947 0 0.2024574 255 255 255 255
0.49861598 0 0.92992502 255 255 255 255
0.39519632 0 0.22316876 255 255 255 255
0.053958379 0 0.48459259 255 255 255 255
0.5925743 0 0.98976803 255 255 255 255
0.27006283 0 0.32822165 255 255 255 255
0.74259782 0 0.192977 255 255 255 255
0.36059403 0 0.91333073 255 255 255 255
0.18841383 0 0.0054976642 255 255 255 255
0.10560422 0 0.61744636 255 255 255 255
0.090955429 0 0.71808314 255 255 255 255
0.87108576 0 0.14323971 255 255 255 255
0.28948164 0 0.15171164 255 255 255 255
0.36647496 0 0.027500529 255 255 255 255
0.94779974 0 0.75151306 255 255 255 255
0.14290854 0 0.065209202 255 255 255 255
0.95397049 0 0.64152449 255 255 255 255
0.99513423 0 0.32278225 255 255 255 255
0.82827413 0 0.049092587 255 255 255 255
0.80737484 0 0.42084846 255 255 255 255
0.038860586 0 0.077437632 255 255 255 255
0.74907011 0 0.78145844 255 255 255 255
0.3210986 0 0.1487793 255 255 255 255
0.69478917 0 0.45882845 255 255 255 255
0.11516178 0 0.8003934 255 255 255 255
0.076274812 0 0.2061172 255 255 255 255
0.51847655 0 0.94736058 255 255 255 255
0.34935692 0 0.7479949 255 255 255 255
0.055549938 0 0.71583188 255 255 255 255
0.77549547 0 0.0033496758 255 255 255 255
0.46734494 0 0.91840398 255 255 255 255
0.068558879 0 0.4213154 255 255 255 255
0.59683532 0 0.12212161 255 255 255 255
0.74409765 0 0.38820264 255 255 255 255
0.11278567 0 0.55147243 255 255 255 255
0.8090511 0 0.15164626 255 255 255 255
0.62891006 0 0.55812114 255 255 255 255
0.93310469 0 0.89932472 255 255 255 255
0.66778529 0 0.62789387 255 255 255 255
0.35815316 0 0.78294706 255 255 255 255
0.42828721 0 0.43442798 255 255 255 255
0.98906428 0 0.94676375 255 255 255 255
0.42071673 0 0.37595415 255 255 255 255
0.69475865 0 0.4373385 255 255 255 255
0.054253031 0 0.47025409 255 255 255 255
0.44068816 0 0.52159798 255 255 255 255
0.38865808 0 0.50924706 255 255 255 255
0.94291335 0 0.94858658 255 255 255 255
0.57294011 0 0.687011 255 255 255 255
0.33678922 0 0.68572581 255 255 255 255
0.23848341 0 0.14584029 255 255 255 255
0.83737206 0 0.86739349 255 255 255 255
0.74735093 0 0.80524343 255 255 255 255
0.76671815 0 0.37174672 255 255 255 255
0.39837059 0 0.12487133 255 255 255 255
0.15469377 0 0.82665783 255 255 255 255
0.55929929 0 0.14375801 255 255 255 255
0.77342159 0 0.94108784 255 255 255 255
0.48217919 0 0.46818024 255 255 255 255
0.37842634 0 0.53643221 255 255 255 255
0.93843436 0 0.81911451 255 255 255 255
0.058030177 0 0.32709244 255 255 255 255
0.35967767 0.018382553 0.019326081 255 255 255 255
0.27567902 0 0.90130168 255 255 255 255
0.68795449 0 0.61246824 255 255 255 255
0.58702749 0 0.92643791 255 255 255 255
0.75830853 0 0.42439958 255 255 255 255
0.79383141 0 0.46226999 255 255 255 255
0.19487634 0 0.56054956 255 255 255 255
0.83401674 0 0.59324694 255 255 255 255
0.68542093 0 0.98871046 255 255 255 255
0.41990474 0 0.24472021 255 255 255 255
0.16381617 0 0.22719818 255 255 255 255
0.18580806 0 0.61464769 255 255 255 255
0.66150653 0 0.56423438 255 255 255 255
0.15107991 0 0.5999409 255 255 255 255
0.38334891 0 0.20911008 255 255 255 255
0.92703331 0 0.71171045 255 255 255 255
0.21005362 0 0.20271234 255 255 255 255
0.61301219 0 0.89800811 255 255 255 255
0.8151806 0 0.20003967 255 255 255 255
0.82444602 0 0.57348913 255 255 255 255
0.66540211 0 0.65814912 255 255 255 255
0.035759091 0 0.81931561 255 255 255 255
0.17882702 0 0.86977583 255 255 255 255
0.41256255 0 0.86424792 255 255 255 255
0.85848629 0 0.83246732 255 255 255 255
0.10896813 0 0.99095482 255 255 255 255
0.025793608 0 0.2947762 255 255 255 255
0.6056025 0 0.68730015 255 255 255 255
0.85901058 0 0.7566824 255 255 255 255
0.28724104 0 0.2423595 255 255 255 255
1.0124638 0.014914485 0.2571941 255 255 255 255
0.95406997 0 0.1758461 255 255 255 255
0.4169867 0 0.56708217 255 255 255 255
0.073854223 0 0.23216727 255 255 255 255
0.76712179 0 0.89830029 255 255 255 255
0.80565637 0 0.39156109 255 255 255 255
0.51657772 0 0.84141546 255 255 255 255
0.21087669 0 0.69540471 255 255 255 255
0.7111913 0 0.62343925 255 255 255 255
0.55965269 0 0.56967753 255 255 255 255
0.50345725 0 0.70786721 255 255 255 255
0.56063235 0 0.48170012 255 255 255 255
0.96339697 0 0.16623482 255 255 255 255
0.16900028 0 0.8224076 255 255 255 255
0.92291719 0 0.45624134 255 255 255 255
0.064767092 0 0.88870966 255 255 255 255
0.67051572 0 0.018837076 255 255 255 255
0.064555794 0 0.08750239 255 255 255 255
0.5859192 0 0.13841002 255 255 255 255
0.31966966 0 0.35304105 255 255 255 255
0.079263344 0.0090874853 0.16296957 255 255 255 255
0.74460214 0 0.55328798 255 255 255 255
0.9667415 0 0.95547879 255 255 255 255
0.24869272 0 0.6779328 255 255 255 255
0.57891804 0 0.80834538 255 255 255 255
0.24761033 0 0.034824558 255 255 255 255
0.47696617 0 0.80824268 255 255 255 255
0.51652467 0 0.44036317 255 255 255 255
0.97447753 0 0.68552494 255 255 255 255
0.26277074 0 0.89739472 255 255 255 255
0.18486224 0 0.37070957 255 255 255 255
0.78610444 0 0.81228197 255 255 255 255
0.34637493 0 0.8506602 255 255 255 255
0.89978439 0 0.93229413 255 255 255 255
0.98907024 0 0.21945404 255 255 255 255
0.28533518 0 0.025780503 255 255 255 255
0.34478009 0 0.029937321 255 255 255 255
0.57906848 0 0.31152159 255 255 255 255
0.98541611 0 0.82776123 255 255 255 255
0.98945439 0 0.56433415 255 255 255 255
0.69521445 0 0.28322381 255 255 255 255
0.59915876 0 0.11307278 255 255 255 255
0.045307387 0 0.11568342 255 255 255 255
0.55343598 0 0.019784896 255 255 255 255
0.80120838 0 0.81620669 255 255 255 255
0.91717964 0 0.94297469 255 255 255 255
0.14374456 0 0.70328403 255 255 255 255
0.75525665 0 0.49011949 255 255 255 255
0.55394423 0 0.65504104 255 255 255 255
0.42241362 0 0.54301447 255 255 255 255
0.92082143 0 0.72873807 255 255 255 255
0.56879497 0 0.21927518 255 255 255 255
0.73768616 0 0.14786348 255 255 255 255
0.53079677 0 0.72310227 255 255 255 255
0.97562468 0 0.52025115 255 255 255 255
0.28743646 0 0.61173129 255 255 255 255
0.75731581 0 0.88659519 255 255 255 255
0.7248041 0 0.80262321 255 255 255 255
0.0022786241 0 0.27824003 255 255 255 255
0.82240814 0 0.803487 255 255 255 255
0.12337637 0 0.77968448 255 255 255 255
0.74646169 0 0.23819129 255 255 255 255
0.44287178 0 0.5017184 255 255 255 255
0.72831076 0 0.99681604 255 255 255 255
0.15675944 0 0.15072441 255 255 255 255
0.53983051 0 0.031254545 255 255 255 255
0.85847324 0 0.10862549 255 255 255 255
0.25052974 0 0.5961594 255 255 255 255
0.25648895 0 0.78132647 255 255 255 255
0.31926167 0 0.23211364 255 255 255 255
0.35418695 0 0.64754421 255 255 255 255
0.84384495 0 0.058893465 255 255 255 255
0.49329332 0 0.56864905 255 255 255 255
0.86151671 0 0.49557194 255 255 255 255
0.84688908 0 0.68392479 255 255 255 255
0.29905897 0 0.9413358 255 255 255 255
0.42351255 0 0.045520674 255 255 255 255
0.1795271 0 0.86638433 255 255 255 255
0.54723907 0 0.90783787 255 255 255 255
0.86320037 0 0.70399851 255 255 255 255
0.099381395 0 0.44313803 255 255 255 255
0.73525304 0 0.91703552 255 255 255 255
0.51165634 0 0.9857828 255 255 255 255
0.51319492 0 0.76814532 255 255 255 255
0.76710927 0 0.83245659 255 255 255 255
0.0002589603 0 0.068686895 255 255 255 255
0.43915471 0 0.84410393 255 255 255 255
0.12758036 0 0.93244803 255 255 255 255
0.41275293 0 0.98909706 255 255 255 255
0.42801997 0 0.25964198 255 255 255 255
0.75450474 0 0.79453099 255 255 255 255
0.20097779 0 0.096534409 255 255 255 255
0.77259964 0 0.38050488 255 255 255 255
0.96291876 0 0.31983867 255 255 255 255
