# .PCD v0.7 - Point Cloud Data file format
VERSION 0.7
FIELDS x y z rgba
SIZE 4 4 4 4
TYPE F F F U
COUNT 1 1 1 1
WIDTH 1361
HEIGHT 1
VIEWPOINT 0 0 0 1 0 0 0
POINTS 1361
DATA ascii
0.42828721 0.43442798 0 4294967295
0.98906428 0.94676375 0 4294967295
0.38178855 0.33842117 0 4294967295
0.69475865 0.4373385 0 4294967295
0.1149138 0.57083738 0 4294967295
0.44068816 0.52159798 0 4294967295
0.38865808 0.50924706 0 4294967295
0.94291335 0.94858658 0 4294967295
0.57294011 0.687011 0 4294967295
0.33678922 0.68572581 0 4294967295
0.23848341 0.14584029 0 4294967295
0.83737206 0.86739349 0 4294967295
0.70396143 0.77047676 0 4294967295
0.76671815 0.37174672 0 4294967295
0.47463229 0.22987548 0 4294967295
0.15469377 0.82665783 0 4294967295
0.55929929 0.14375801 0 4294967295
0.77342159 0.94108784 0 4294967295
0.48217919 0.46818024 0 4294967295
0.37842634 0.53643221 0 4294967295
0.93843436 0.81911451 0 4294967295
0.058030177 0.32709244 0 4294967295
0.32836157 0.00094352942 0 4294967295
0.27567902 0.90130168 0 4294967295
0.78045827 0.70117527 0 4294967295
0.58702749 0.92643791 0 4294967295
0.75830853 0.42439958 0 4294967295
0.79383141 0.46226999 0 4294967295
0.19487634 0.56054956 0 4294967295
0.83401674 0.59324694 0 4294967295
0.68542093 0.98871046 0 4294967295
0.41990474 0.24472021 0 4294967295
0.13246851 0.19332632 0 4294967295
0.18580806 0.61464769 0 4294967295
0.78732216 0.67879915 0 4294967295
0.15107991 0.5999409 0 4294967295
0.38334891 0.20911008 0 4294967295
0.92703331 0.71171045 0 4294967295
0.21005362 0.20271234 0 4294967295
0.61301219 0.89800811 0 4294967295
0.8151806 0.20003967 0 4294967295
0.82444602 0.57348913 0 4294967295
0.62443924 0.61827743 0 4294967295
0.035759091 0.81931561 0 4294967295
0.27476129 0.98658919 0 4294967295
0.41256255 0.86424792 0 4294967295
0.85848629 0.83246732 0 4294967295
0.10896813 0.99095482 0 4294967295
0.025793608 0.2947762 0 4294967295
0.6056025 0.68730015 0 4294967295
0.85901058 0.7566824 0 4294967295
0.28724104 0.2423595 0 4294967295
0.96579248 0.21427436 0 4294967295
0.95406997 0.1758461 0 4294967295
0.4862574 0.66456175 0 4294967295
0.073854223 0.23216727 0 4294967295
0.76712179 0.89830029 0 4294967295
0.80565637 0.39156109 0 4294967295
0.51657772 0.84141546 0 4294967295
0.21087669 0.69540471 0 4294967295
0.7111913 0.62343925 0 4294967295
0.55965269 0.56967753 0 4294967295
0.45590651 0.66862077 0 4294967295
0.56063235 0.48170012 0 4294967295
1.0519249 0.25396451 0 4294967295
0.16900028 0.8224076 0 4294967295
0.92291719 0.45624134 0 4294967295
0.064767092 0.88870966 0 4294967295
0.67051572 0.018837076 0 4294967295
0.064555794 0.08750239 0 4294967295
0.5859192 0.13841002 0 4294967295
0.31966966 0.35304105 0 4294967295
0.036710281 0.12532604 0 4294967295
0.74460214 0.55328798 0 4294967295
1.0492638 1.0413626 0.0028361694 4294967295
0.24869272 0.6779328 0 4294967295
0.57891804 0.80834538 0 4294967295
0.24761033 0.034824558 0 4294967295
0.47696617 0.80824268 0 4294967295
0.51652467 0.44036317 0 4294967295
0.97447753 0.68552494 0 4294967295
0.26277074 0.89739472 0 4294967295
0.14176629 0.32753783 0 4294967295
0.78610444 0.81228197 0 4294967295
0.44758675 0.9655633 0 4294967295
0.89978439 0.93229413 0 4294967295
0.98907024 0.21945404 0 4294967295
0.28533518 0.025780503 0 4294967295
0.34478009 0.029937321 0 4294967295
0.57906848 0.31152159 0 4294967295
0.98541611 0.82776123 0 4294967295
0.98945439 0.56433415 0 4294967295
0.63610661 0.2370647 0 4294967295
0.59915876 0.11307278 0 4294967295
0.10756246 0.20847066 0 4294967295
0.55343598 0.019784896 0 4294967295
0.80120838 0.81620669 0 4294967295
0.91717964 0.94297469 0 4294967295
0.14374456 0.70328403 0 4294967295
0.75525665 0.49011949 0 4294967295
0.55394423 0.65504104 0 4294967295
0.42241362 0.54301447 0 4294967295
0.87449509 0.70774883 0 4294967295
0.56879497 0.21927518 0 4294967295
0.81431717 0.26094529 0 4294967295
0.53079677 0.72310227 0 4294967295
0.97562468 0.52025115 0 4294967295
0.28743646 0.61173129 0 4294967295
0.75731581 0.88659519 0 4294967295
0.7248041 0.80262321 0 4294967295
0.0022786241 0.27824003 0 4294967295
0.82240814 0.803487 0 4294967295
0.094446741 0.73958772 0 4294967295
0.74646169 0.23819129 0 4294967295
0.52612209 0.5986641 0 4294967295
0.72831076 0.99681604 0 4294967295
0.15675944 0.15072441 0 4294967295
0.53983051 0.031254545 0 4294967295
0.85847324 0.10862549 0 4294967295
0.25052974 0.5961594 0 4294967295
0.25648895 0.78132647 0 4294967295
0.31926167 0.23211364 0 4294967295
0.30157763 0.60669816 0 4294967295
0.84384495 0.058893465 0 4294967295
0.58453536 0.65154338 0 4294967295
0.86151671 0.49557194 0 4294967295
0.84688908 0.68392479 0 4294967295
0.29905897 0.9413358 0 4294967295
0.42351255 0.045520674 0 4294967295
0.1795271 0.86638433 0 4294967295
0.54723907 0.90783787 0 4294967295
0.86320037 0.70399851 0 4294967295
0.05856229 0.40303087 0 4294967295
0.73525304 0.91703552 0 4294967295
0.61402076 1.0553626 0.05676087 4294967295
0.51319492 0.76814532 0 4294967295
0.76710927 0.83245659 0 4294967295
0.0002589603 0.068686895 0 4294967295
0.43915471 0.84410393 0 4294967295
0.12758036 0.93244803 0 4294967295
0.41275293 0.98909706 0 4294967295
0.42801997 0.25964198 0 4294967295
0.67302185 0.72707897 0 4294967295
0.20097779 0.096534409 0 4294967295
0.89501107 0.47224703 0 4294967295
0.96291876 0.31983867 0 4294967295
0.28834274 0.82611912 0 4294967295
0.023837188 0.34690505 0 4294967295
0.22915 0.75909024 0 4294967295
0.26394057 0.74080634 0 4294967295
0.74487305 0.77713549 0 4294967295
0.50895166 0.51198226 0 4294967295
0.60959208 0.50921065 0 4294967295
0.58066916 0.048746765 0 4294967295
0.41653174 0.7981472 0 4294967295
0.98119479 0.76606745 0 4294967295
0.69734657 0.40921476 0 4294967295
0.025709443 0.37036845 0 4294967295
0.13629372 0.22668722 0 4294967295
0.46690288 0.90889335 0 4294967295
0.6071921 0.42982161 0 4294967295
0.22873203 0.89553487 0 4294967295
0.25594074 0.25256923 0 4294967295
0.24243991 0.48509073 0 4294967295
0.093731903 0.60752457 0.050858971 4294967295
0.22589707 0.75653249 0 4294967295
0.28351596 0.73484874 0 4294967295
0.26851475 0.89310801 0 4294967295
0.24405938 0.84918398 0 4294967295
0.94185477 0.5973739 0 4294967295
0.55743349 0.92304957 0 4294967295
0.36344138 0.25478008 0 4294967295
0.33226436 0.3891508 0 4294967295
0.62514853 0.46855807 0 4294967295
0.69041073 0.21131125 0 4294967295
0.37745142 0.22303014 0 4294967295
0.52187306 0.60618347 0 4294967295
0.11856501 0.77781379 0 4294967295
0.85875267 0.36100492 0 4294967295
0.2629045 0.87041211 0 4294967295
0.86738539 0.48880157 0 4294967295
0.6269446 0.15090138 0 4294967295
0.22365032 0.89545935 0 4294967295
0.044009399 0.46770969 0 4294967295
0.81746757 1.0356475 0.045667797 4294967295
0.065083608 0.30207682 0 4294967295
0.90891379 0.42852497 0 4294967295
0.55685693 0.24117814 0 4294967295
0.81767577 0.18200548 0 4294967295
0.70973623 0.43351382 0 4294967295
0.27405688 0.087187648 0 4294967295
0.65654397 0.79592991 0 4294967295
0.69337112 0.77510899 0 4294967295
0.5737437 0.55212379 0 4294967295
0.21780919 0.916538 0 4294967295
0.42253593 0.0034992872 0 4294967295
0.32544976 0.049480543 0 4294967295
0.15440066 0.5491001 0 4294967295
0.94493991 0.19841005 0 4294967295
0.016809782 0.68958324 0 4294967295
0.18427424 0.081893392 0 4294967295
0.99166006 0.093188025 0 4294967295
0.51041836 0.54851699 0 4294967295
0.33436617 0.32809415 0 4294967295
0.82628608 0.14062004 0 4294967295
0.761608 0.0045793792 0 4294967295
0.13129003 0.41815194 0 4294967295
0.80050933 0.82466114 0 4294967295
0.19326091 0.374253 0 4294967295
0.37678492 0.32937479 0 4294967295
0.21090119 0.79932088 0 4294967295
0.33287409 0.53635097 0 4294967295
0.84880137 0.48727474 0 4294967295
0.085451022 0.79374135 0 4294967295
0.78204942 0.17539254 0 4294967295
0.48332459 0.86995906 0 4294967295
0.1841542 0.47498468 0 4294967295
0.96314704 0.69457257 0 4294967295
0.023501679 0.29751322 0 4294967295
0.022666723 0.75402415 0 4294967295
0.34161562 0.7842747 0 4294967295
0.75860357 0.47290564 0 4294967295
0.20242664 0.55911285 0 4294967295
0.29756677 0.39568755 0 4294967295
1.0116105 0.73557299 0 4294967295
0.72506237 0.14426702 0 4294967295
0.47367257 0.057936452 0 4294967295
0.68061799 0.32247397 0 4294967295
0.5452112 0.76606899 0 4294967295
0.11621529 0.23089601 0 4294967295
0.86832982 0.59953988 0 4294967295
0.10085505 0.052483995 0 4294967295
0.074524537 0.064002126 0 4294967295
0.74705654 0.098026216 0 4294967295
0.41947258 0.85246271 0 4294967295
0.85205036 0.70313096 0 4294967295
0.55399799 0.61065394 0 4294967295
0.1760366 0.75642461 0 4294967295
0.16976677 0.47360337 0 4294967295
0.15211219 0.10313262 0 4294967295
0.14795509 0.87717456 0 4294967295
0.24739964 0.62162763 0 4294967295
0.93511099 0.92801762 0 4294967295
0.94410163 0.48032221 0 4294967295
0.78518981 0.14583924 0 4294967295
0.71121824 0.56241643 0 4294967295
0.6598568 0.81207329 0 4294967295
0.61490041 0.73438132 0 4294967295
0.87607539 0.36195695 0 4294967295
0.83240753 0.23759076 0 4294967295
0.13168025 0.6844579 0 4294967295
0.94072169 0.68567824 0 4294967295
0.29511184 0.11675832 0 4294967295
0.44210285 0.46487862 0 4294967295
0.67741555 0.68578261 0 4294967295
0.56801122 0.73831677 0 4294967295
0.47138962 0.81541085 0 4294967295
0.35994443 0.40650061 0 4294967295
0.74342847 0.30404606 0 4294967295
0.88682282 0.43751511 0 4294967295
0.36436298 0.59804106 0 4294967295
0.99993151 0.024219749 0 4294967295
0.41011432 0.61483192 0 4294967295
0.75860107 0.28618971 0 4294967295
1.0711156 0.66472572 0.039001241 4294967295
0.52378047 0.10846914 0 4294967295
0.2754665 0.46450219 0 4294967295
0.79414737 0.57057834 0 4294967295
0.5812605 0.23625022 0 4294967295
0.035456933 0.17162222 0 4294967295
0.83046526 0.60346818 0 4294967295
0.90993899 0.30185488 0 4294967295
0.41887903 0.26988345 0 4294967295
0.70835549 0.16230753 0 4294967295
0.65241843 0.69073224 0 4294967295
0.59982264 0.9382925 0 4294967295
0.19321936 0.59975415 0 4294967295
0.96251225 0.60333371 0 4294967295
0.21458608 0.72111332 0 4294967295
0.88952339 0.19137497 0 4294967295
0.3121219 0.41330385 0 4294967295
0.29984412 0.58758837 0 4294967295
0.87780607 0.093991466 0 4294967295
0.15816672 0.45906654 0 4294967295
0.41560739 0.2816973 0 4294967295
0.63068879 0.16070697 0 4294967295
0.79709178 0.54062778 0 4294967295
0.46256185 0.21597084 0 4294967295
0.81051123 0.17091733 0 4294967295
0.37827837 0.38444075 0 4294967295
0.76609564 0.97810102 0 4294967295
0.32273322 0.95931506 0 4294967295
0.57785517 0.28524548 0 4294967295
0.56264871 0.79244125 0 4294967295
0.052530911 0.51435864 0.044097971 4294967295
0.98381621 0.31848067 0 4294967295
0.86547595 0.28366032 0 4294967295
0.90606904 0.74328202 0 4294967295
0.37765178 0.064235777 0 4294967295
0.20234857 0.70789349 0 4294967295
0.25785944 0.83303732 0 4294967295
0.86860043 0.054951232 0 4294967295
0.37366512 0.33116227 0 4294967295
0.27092206 0.18417634 0 4294967295
0.60553509 0.73552489 0 4294967295
0.56861711 0.26817527 0 4294967295
0.62730145 0.89135033 0 4294967295
0.22749031 0.20515661 0 4294967295
0.17659578 0.79013902 0 4294967295
0.99759787 0.18295455 0 4294967295
0.24231113 0.98141408 0 4294967295
0.50143522 0.10778712 0 4294967295
0.2650744 0.40750429 0 4294967295
0.85106915 0.64272618 0 4294967295
0.58505768 0.12733565 0 4294967295
0.35061964 0.72959948 0 4294967295
0.88645506 0.21922009 0 4294967295
0.78455073 0.26012018 0 4294967295
0.55038238 0.055472787 0 4294967295
0.44429651 0.052461963 0 4294967295
0.70467323 0.012913588 0 4294967295
0.32063723 0.33197469 0 4294967295
0.90426391 0.54812753 0 4294967295
0.53713131 0.080859676 0 4294967295
0.46380627 0.61608541 0 4294967295
0.26381421 0.58057767 0 4294967295
0.5161432 0.76524943 0 4294967295
0.6883648 0.78121758 0 4294967295
0.17275372 0.53943396 0 4294967295
0.42394379 0.64449376 0 4294967295
0.59285164 0.77456343 0 4294967295
0.37409326 0.47930673 0 4294967295
0.99378353 0.15864396 0 4294967295
0.73942691 0.54416585 0 4294967295
0.27510121 0.2862736 0 4294967295
0.59662783 0.91878998 0 4294967295
0.196637 0.91726506 0 4294967295
0.25076467 0.1009009 0 4294967295
0.46539259 0.78789592 0 4294967295
0.18176056 0.80365914 0 4294967295
0.3226251 0.44557479 0 4294967295
0.38423684 0.8387683 0 4294967295
0.21082424 0.072601654 0 4294967295
0.61998588 0.38357797 0 4294967295
0.69449604 0.10125379 0 4294967295
0.028071735 0.20488727 0 4294967295
0.81849313 0.402165 0 4294967295
0.68419403 0.8122766 0 4294967295
0.56080896 0.42362091 0 4294967295
0.35644248 0.77492571 0 4294967295
0.60734433 0.95307028 0 4294967295
0.69371569 0.8039813 0 4294967295
0.87033534 0.94448036 0 4294967295
0.90488219 0.33572796 0 4294967295
0.82551402 0.19066785 0 4294967295
0.13938712 0.055001397 0 4294967295
0.53221756 0.52362394 0 4294967295
0.89376968 0.74304181 0 4294967295
0.59622562 0.51375562 0 4294967295
0.12661977 0.20826122 0 4294967295
0.55768532 0.15469152 0 4294967295
0.41314849 0.37617841 0 4294967295
0.55685651 0.097342491 0 4294967295
0.18845502 0.11766546 0 4294967295
0.60243571 0.64626426 0 4294967295
0.89259118 0.1283077 0 4294967295
0.49796781 0.58630687 0 4294967295
0.932289 0.36830318 0 4294967295
0.53078723 0.83717126 0 4294967295
0.70403117 0.26316354 0 4294967295
0.923814 0.84341824 0 4294967295
0.31816494 0.45603159 0 4294967295
0.36704221 0.21193464 0 4294967295
0.1990734 0.9632678 0 4294967295
0.82775384 0.40452087 0 4294967295
0.17152905 0.28337553 0 4294967295
0.48038471 0.58467752 0 4294967295
0.65955395 0.037241202 0 4294967295
0.68202001 0.84800893 0 4294967295
0.15490666 0.20298342 0 4294967295
0.39290646 0.047497842 0 4294967295
0.33129114 0.89087427 0 4294967295
0.63380474 0.26358014 0 4294967295
0.25917745 0.16459195 0 4294967295
0.18355736 1.0361079 0 4294967295
0.4277555 0.024565404 0 4294967295
0.80662686 0.74592042 0 4294967295
0.48059699 0.17366908 0 4294967295
0.95785505 0.67967039 0 4294967295
0.13693692 0.68354529 0 4294967295
0.0053635943 0.30846596 0 4294967295
0.96692085 0.48574829 0 4294967295
0.89314348 0.6264748 0 4294967295
0.52298951 0.57516354 0 4294967295
0.56263781 0.7610513 0 4294967295
0.77814698 0.86739022 0 4294967295
0.72539401 0.10943808 0 4294967295
0.75826448 0.35919872 0 4294967295
0.37301823 0.017441932 0 4294967295
0.52379066 0.47376963 0 4294967295
0.98065054 0.95154619 0 4294967295
0.49833503 0.7872774 0 4294967295
0.69746661 0.97893202 0 4294967295
0.9609465 0.65532166 0 4294967295
0.72672546 0.17938441 0 4294967295
0.33886698 0.663966 0 4294967295
0.40634936 0.30578783 0 4294967295
0.14971432 0.29949284 0 4294967295
0.9322626 0.6727038 0 4294967295
0.87465638 0.40674633 0 4294967295
0.35059997 0.6528033 0 4294967295
0.27413654 0.075993977 0 4294967295
0.76224142 0.03240101 0 4294967295
0.4351927 0.13525964 0 4294967295
0.13671234 1.0754867 0.0018935502 4294967295
0.60902929 0.030493477 0 4294967295
0.91052955 0.1073643 0 4294967295
0.8177709 0.60799611 0 4294967295
0.08629632 0.77871734 0 4294967295
0.26331779 0.74489874 0 4294967295
0.87660074 0.60218477 0 4294967295
0.4088648 0.28295007 0 4294967295
0.90797257 0.55857909 0 4294967295
0.58244294 0.84023517 0 4294967295
0.34440655 0.56186563 0 4294967295
0.24698152 0.58188289 0 4294967295
0.10990264 0.52111804 0 4294967295
0.65787685 0.87214404 0 4294967295
0.55351907 0.093069576 0 4294967295
0.0074037053 0.60336202 0 4294967295
0.052052945 0.61643296 0 4294967295
0.63385546 0.96258247 0 4294967295
0.72379726 0.45162636 0 4294967295
0.57057863 0.81009358 0 4294967295
0.32239428 0.93287838 0 4294967295
0.55499232 0.10694446 0 4294967295
0.43608117 0.96385711 0 4294967295
0.38989455 0.34405378 0 4294967295
0.5224362 0.97233748 0 4294967295
0.18428895 0.75371915 0 4294967295
0.42943677 0.43127048 0 4294967295
0.33560205 0.53933942 0 4294967295
0.95238853 0.99347889 0 4294967295
0.4114835 0.5059076 0 4294967295
0.16242823 0.47826228 0 4294967295
0.10926961 0.13860144 0 4294967295
0.03532017 0.74312508 0 4294967295
0.10118392 0.75911742 0 4294967295
0.19475147 0.67176253 0 4294967295
0.56921101 0.42509517 0 4294967295
0.50565892 0.12420337 0 4294967295
0.53203964 0.94174016 0 4294967295
0.088060498 0.92193419 0 4294967295
0.2857939 0.6104967 0 4294967295
0.97572303 0.56919485 0 4294967295
0.36421588 0.32370844 0 4294967295
0.9013533 0.6998179 0 4294967295
0.8630479 0.85374182 0 4294967295
0.69329679 0.27453136 0 4294967295
0.35964942 0.7798453 0 4294967295
0.69341856 0.46891904 0 4294967295
0.91844672 0.72873873 0 4294967295
0.21204413 0.019630656 0 4294967295
0.48785615 0.40679559 0 4294967295
0.78344387 0.13587146 0 4294967295
0.83189076 0.19705214 0 4294967295
0.18127055 0.36393043 0 4294967295
0.13879228 0.26933107 0 4294967295
0.28586462 0.42458618 0 4294967295
0.8798278 0.18013626 0 4294967295
0.894669 0.24404365 0 4294967295
0.50384474 0.7960223 0 4294967295
0.94386154 0.36689258 0 4294967295
0.64976412 0.63715839 0 4294967295
0.7070381 0.070439719 0.027220245 4294967295
0.41700369 0.3348425 0 4294967295
0.47833261 0.33545041 0 4294967295
0.063581228 0.69037676 0 4294967295
0.35508108 0.55143738 0 4294967295
0.097172335 0.046474263 0 4294967295
0.60850459 0.92906314 0 4294967295
0.2435264 0.78977513 0 4294967295
0.29299355 0.38231868 0 4294967295
0.05910619 0.5788582 0 4294967295
0.92198223 1.0062081 0 4294967295
0.75899446 0.70157385 0 4294967295
0.18297762 0.26283914 0 4294967295
0.49759614 0.12683916 0 4294967295
0.62973171 0.1473603 0 4294967295
0.76399755 0.27115569 0 4294967295
0.15677385 0.18100122 0 4294967295
0.60599816 0.63510644 0 4294967295
0.5164516 0.66957939 0 4294967295
0.32548317 0.87153268 0 4294967295
0.31388319 0.51152205 0 4294967295
0.91800696 0.82952136 0 4294967295
0.35171863 0.16153336 0 4294967295
0.61929649 0.64471221 0 4294967295
0.54385203 0.67840272 0 4294967295
0.22357036 0.35075688 0 4294967295
0.61733669 0.98256481 0 4294967295
0.052330732 0.80031425 0 4294967295
0.24540396 0.54992688 0 4294967295
0.92715347 0.87513566 0 4294967295
0.84940481 0.81631255 0 4294967295
0.14629136 0.85406107 0 4294967295
0.87215221 0.75228953 0 4294967295
0.48916748 0.38860381 0 4294967295
0.42186895 0.81465065 0 4294967295
0.26013651 0.64288574 0 4294967295
0.23730618 0.17814347 0 4294967295
0.4724071 0.58902484 0 4294967295
0.33967683 0.091703609 0 4294967295
0.23373702 0.88352889 0 4294967295
0.85968375 0.5597254 0 4294967295
0.23428576 0.38744298 0 4294967295
0.43987221 0.2866165 0 4294967295
0.18775724 0.68527615 0 4294967295
0.83654338 0.11491068 0 4294967295
0.56041181 0.53383058 0 4294967295
0.80606169 0.70670319 0 4294967295
0.38789159 0.67821383 0 4294967295
0.45899275 0.8770591 0 4294967295
0.066817671 0.8808617 0 4294967295
0.78082627 0.39158377 0 4294967295
0.52374744 0.92901593 0 4294967295
0.50509763 0.99615455 0 4294967295
0.51804078 0.84477448 0 4294967295
0.08785814 0.75177783 0 4294967295
0.72830337 0.85796446 0 4294967295
0.2090852 0.96258909 0 4294967295
0.2454074 0.64895737 0 4294967295
0.2492056 0.43316466 0 4294967295
0.33423355 0.085748978 0 4294967295
0.62580132 0.99583602 0 4294967295
0.61957955 0.35413697 0 4294967295
0.60134858 0.0074711489 0 4294967295
0.032350838 0.06034134 0 4294967295
0.88453025 0.099168509 0 4294967295
0.94120306 0.57624 0 4294967295
0.4261227 0.46495047 0 4294967295
0.50525594 0.93122035 0 4294967295
0.46110499 0.023296725 0 4294967295
0.77599484 0.54896313 0 4294967295
0.85790259 0.59956038 0 4294967295
0.40692756 0.98415971 0 4294967295
0.46688727 0.65233499 0 4294967295
0.63311714 0.71609288 0 4294967295
0.085499607 0.96735066 0 4294967295
0.80184186 0.63357496 0 4294967295
0.86199605 0.42142141 0 4294967295
0.98771191 0.46334466 0 4294967295
0.42889255 0.02006276 0 4294967295
0.52368599 0.3134228 0 4294967295
0.24097385 0.55982947 0 4294967295
0.8896628 0.54535395 0 4294967295
0.92983949 0.39491874 0 4294967295
0.4765743 0.39094448 0 4294967295
0.41821548 0.25256911 0 4294967295
0.93990761 0.19329 0 4294967295
0.75686729 0.34683517 0 4294967295
0.17744972 0.22375455 0 4294967295
0.99917012 0.81056684 0 4294967295
0.93984741 0.084669739 0 4294967295
0.88296962 0.82142371 0 4294967295
0.71824467 0.63991356 0 4294967295
0.16311069 0.70595658 0 4294967295
0.10325823 0.59200323 0 4294967295
0.72601938 0.62694424 0 4294967295
0.90542603 0.84525061 0 4294967295
0.091833256 0.79508883 0 4294967295
0.39060459 0.021672746 0 4294967295
0.19000758 0.86717886 0 4294967295
0.41261721 0.60822308 0 4294967295
0.21729884 0.44195125 0 4294967295
0.80151308 0.87661523 0 4294967295
0.69936001 0.97896278 0 4294967295
0.1003698 0.69853014 0 4294967295
0.78952962 0.040217228 0 4294967295
0.78319985 0.56744713 0 4294967295
0.78190655 0.50144452 0 4294967295
0.20736068 0.94501722 0 4294967295
0.20740114 0.31061891 0 4294967295
0.53702044 0.93342048 0 4294967295
1.0262443 0.54535758 0 4294967295
0.77867115 0.029396411 0 4294967295
0.23753533 0.16927572 0 4294967295
0.051069155 0.4275429 0 4294967295
0.036454581 0.46368638 0 4294967295
0.035765957 0.15620255 0 4294967295
0.81621122 0.83727902 0 4294967295
0.0328178 0.51557118 0 4294967295
0.8162418 0.13318759 0 4294967295
0.2141013 0.60577136 0 4294967295
0.2403539 1.0601898 0.057890132 4294967295
0.17321849 0.95531136 0 4294967295
0.49874571 0.38057917 0 4294967295
0.90032858 0.70614684 0 4294967295
0.69119811 0.43734902 0 4294967295
0.63956738 0.62876123 0 4294967295
0.87979549 0.41823849 0 4294967295
0.65815765 0.11733083 0 4294967295
0.58751422 0.70922679 0 4294967295
0.54487371 0.62396878 0 4294967295
0.25382429 0.68013269 0 4294967295
0.78017133 0.98912442 0 4294967295
0.41791871 0.81298912 0 4294967295
0.50469559 0.23416047 0 4294967295
0.94617671 0.71879685 0 4294967295
0.83993185 0.11958156 0 4294967295
0.71609807 0.013150337 0 4294967295
0.074892908 0.21484375 0 4294967295
0.39372951 0.97522146 0 4294967295
0.92099059 0.084927611 0 4294967295
0.49351701 0.65163928 0 4294967295
0.71368885 0.292366 0 4294967295
0.97879642 0.37184653 0 4294967295
0.40969682 0.56631064 0 4294967295
0.081073329 0.95457053 0 4294967295
0.19027941 0.25398651 0 4294967295
0.53521025 0.97045076 0 4294967295
0.24311091 0.95312893 0 4294967295
0.78343987 0.74780649 0 4294967295
0.18728943 0.72961658 0 4294967295
0.5309419 0.1149685 0.039470367 4294967295
0.84919816 0.18270139 0 4294967295
0.040371615 0.92409104 0 4294967295
0.39754513 0.43410113 0 4294967295
0.89931256 0.31853575 0 4294967295
0.51902872 0.311883 0 4294967295
0.87909371 0.23271759 0 4294967295
0.604249 0.85789013 0 4294967295
0.60456413 0.01394582 0 4294967295
0.42420074 0.68563741 0 4294967295
1.0656544 0.68372375 0.017966652 4294967295
0.93962395 0.5037266 0 4294967295
0.5849309 0.18273486 0 4294967295
0.4568556 0.36837077 0 4294967295
0.93054134 0.64414501 0 4294967295
0.097987369 0.39714471 0 4294967295
0.67136627 0.94718552 0 4294967295
0.57984608 0.71173793 0 4294967295
0.87127662 0.97739124 0 4294967295
0.14583904 0.77058911 0 4294967295
0.44598955 0.75389379 0 4294967295
0.082472153 0.17502065 0 4294967295
0.89758539 0.68672115 0 4294967295
0.032910757 0.50214946 0 4294967295
0.70066696 0.45711151 0 4294967295
0.18778691 0.66918337 0 4294967295
0.071591645 0.12741087 0 4294967295
0.17290998 0.65652251 0 4294967295
0.31014574 0.62976557 0 4294967295
0.024893299 0.24068706 0 4294967295
0.37628636 0.20913665 0 4294967295
0.63783175 0.94527686 0 4294967295
0.070066199 0.21767785 0 4294967295
0.65701479 0.94134277 0 4294967295
0.19506907 0.80285382 0 4294967295
0.71193194 0.49099603 0 4294967295
0.46772158 0.79440409 0 4294967295
0.6660167 0.36530697 0 4294967295
0.48112524 0.69892746 0 4294967295
0.86745644 0.18179221 0 4294967295
0.22965516 0.14677782 0 4294967295
0.85097557 0.22763059 0 4294967295
0.18265422 0.023885543 0 4294967295
0.88415313 0.49279994 0 4294967295
0.65365112 0.90904641 0 4294967295
0.73348701 0.9275617 0 4294967295
0.031927086 0.37131876 0 4294967295
0.87283856 0.10199329 0 4294967295
0.58899659 0.52985334 0 4294967295
0.043336079 0.78406566 0 4294967295
0.41499299 0.83345813 0 4294967295
0.27506173 0.80042875 0 4294967295
0.54967207 0.94107842 0 4294967295
0.16573572 0.030797333 0 4294967295
0.64000583 0.033192154 0 4294967295
0.21258955 0.79604477 0 4294967295
0.088435508 0.063565105 0 4294967295
0.023675365 0.27108973 0 4294967295
0.087450646 0.90782851 0 4294967295
0.76388967 0.74110174 0 4294967295
0.93087089 0.58251685 0 4294967295
0.66866344 0.84880197 0 4294967295
0.86869544 0.541502 0 4294967295
0.95079529 0.45769206 0 4294967295
0.071355365 0.99413133 0 4294967295
0.24175774 0.40406254 0 4294967295
0.74939936 0.51681948 0 4294967295
0.20449129 0.29907146 0 4294967295
0.45789784 0.37022701 0 4294967295
0.32986879 0.097903699 0 4294967295
0.47027066 0.63373035 0 4294967295
0.8939485 0.49185467 0 4294967295
0.60602343 0.91762382 0 4294967295
0.7629444 0.69347411 0 4294967295
0.82545233 0.52683407 0 4294967295
0.43457586 0.64232725 0 4294967295
0.024210747 0.10323931 0 4294967295
0.49112922 0.89290619 0 4294967295
0.6447413 0.44192451 0 4294967295
0.35059825 0.7160967 0 4294967295
0.51720077 0.66829121 0 4294967295
0.12015922 0.18545523 0 4294967295
0.10917544 0.32465053 0 4294967295
0.48452669 0.56707329 0 4294967295
0.69487751 0.81439549 0 4294967295
0.66497701 0.09829668 0 4294967295
0.35685384 0.55892551 0 4294967295
0.59015137 0.96287727 0 4294967295
0.47654933 0.35309574 0 4294967295
0.65635139 0.30200166 0 4294967295
0.96271735 0.15081471 0 4294967295
0.9443289 0.90414053 0 4294967295
0.19416654 0.43545812 0 4294967295
0.79704678 0.83890784 0 4294967295
0.87738264 0.147645 0 4294967295
0.55500454 0.3134385 0 4294967295
0.74000096 0.67516375 0 4294967295
0.49889374 0.84917641 0 4294967295
0.99981427 0.98342043 0 4294967295
0.41624972 0.69469178 0 4294967295
0.90808314 0.18423511 0 4294967295
0.79298848 0.15466978 0 4294967295
0.64015222 0.38313985 0 4294967295
0.11754705 0.11670154 0 4294967295
0.73623556 0.77389842 0 4294967295
0.4187032 0.6161654 0 4294967295
0.86482567 0.3630321 0 4294967295
0.52030593 0.0589922 0 4294967295
0.79849023 0.31735271 0 4294967295
0.89790004 0.67587286 0 4294967295
0.56715977 0.5368765 0 4294967295
0.9893114 0.2049987 0 4294967295
0.12806839 0.48820511 0 4294967295
0.054175138 0.12788267 0 4294967295
0.47162554 0.47042486 0 4294967295
0.8225745 0.26944149 0 4294967295
0.5516516 0.61556298 0 4294967295
0.42411125 0.19180383 0 4294967295
0.99870282 0.54165828 0 4294967295
0.30850536 0.73493838 0 4294967295
0.40894738 0.79511011 0 4294967295
0.35110378 0.1803824 0 4294967295
0.090240665 0.87140977 0 4294967295
0.23937459 0.88873088 0 4294967295
0.18876246 0.13727465 0 4294967295
0.56460375 0.65376014 0 4294967295
0.59017926 0.55391514 0 4294967295
0.85875887 0.71824765 0 4294967295
0.042120248 0.91293401 0 4294967295
0.84613031 0.51374578 0 4294967295
0.46326515 0.76804274 0 4294967295
0.78318727 0.93501049 0 4294967295
0.28426775 0.20729852 0 4294967295
0.12681432 0.28297055 0 4294967295
0.7489568 0.43531969 0 4294967295
0.017908951 0.064513549 0 4294967295
0.16252825 0.36901274 0 4294967295
0.24489595 0.2527689 0 4294967295
0.24042249 0.48427054 0 4294967295
0.14149982 0.42918494 0 4294967295
0.72693491 0.80700296 0 4294967295
0.082945101 0.21172446 0 4294967295
0.26001874 0.94170398 0 4294967295
0.92997211 0.30213898 0 4294967295
0.85463798 0.77610242 0 4294967295
0.81588477 0.23799685 0 4294967295
0.4448072 0.59907204 0 4294967295
0.17300734 0.72907495 0 4294967295
0.80637056 0.29982165 0 4294967295
0.012045519 0.55532736 0 4294967295
0.82752365 0.11010101 0.01561849 4294967295
0.61984092 0.89766961 0 4294967295
0.39896721 0.86473686 0 4294967295
0.1504385 0.63938969 0 4294967295
0.3490074 0.29193833 0 4294967295
0.068574637 0.97055262 0 4294967295
0.99804193 0.15151975 0 4294967295
0.18227707 0.25806063 0 4294967295
0.093223706 0.11224917 0 4294967295
0.56019962 0.94786167 0 4294967295
0.9703775 0.47988501 0 4294967295
0.18585853 0.33315879 0 4294967295
0.97515643 0.35886589 0 4294967295
0.062233761 0.78152698 0 4294967295
0.65868753 0.074279279 0 4294967295
0.33685437 0.39382887 0 4294967295
0.10423375 0.95669526 0 4294967295
0.29149845 0.50320095 0 4294967295
0.82143211 0.44193697 0 4294967295
0.14259066 0.17043956 0 4294967295
0.85693717 0.34443435 0 4294967295
0.14099215 0.7319172 0 4294967295
0.36268505 0.32326922 0 4294967295
0.98997784 0.45590875 0 4294967295
0.43551838 0.55017745 0 4294967295
0.40377045 0.32386997 0 4294967295
0.92626184 0.58962899 0 4294967295
0.65702879 0.90141827 0 4294967295
0.94849485 0.71926254 0 4294967295
0.68294525 0.60718238 0 4294967295
0.86096817 0.077717714 0.031937409 4294967295
0.0010112519 0.89777559 0 4294967295
0.97649485 0.2925097 0 4294967295
0.40097654 0.79792702 0 4294967295
0.7344467 0.54356718 0 4294967295
0.96836656 0.46832198 0 4294967295
0.75473249 0.10935872 0 4294967295
0.20023918 0.11741755 0 4294967295
0.43262795 0.19021702 0 4294967295
0.57332629 0.86814636 0 4294967295
0.81810462 1.02688 0.04547219 4294967295
0.19201632 0.66665632 0 4294967295
0.56672573 0.8490451 0 4294967295
0.56807458 0.51522058 0 4294967295
0.56830764 0.25101981 0 4294967295
0.12240294 0.36184949 0 4294967295
0.2708194 0.12341419 0 4294967295
0.25962505 0.24731427 0 4294967295
0.41592389 0.66060162 0 4294967295
0.045241285 0.15037058 0 4294967295
0.24981532 0.057064183 0.025683273 4294967295
0.61869258 0.95890129 0 4294967295
0.12296657 0.81893176 0 4294967295
0.07631886 0.5555945 0 4294967295
0.009148756 0.64964515 0 4294967295
0.42374086 0.74954325 0 4294967295
0.62674189 0.61575717 0 4294967295
0.41619954 0.19346762 0 4294967295
0.46480229 0.98427409 0 4294967295
0.70868814 0.033109937 0 4294967295
0.32734448 0.93007308 0 4294967295
0.39495942 0.50611329 0 4294967295
0.95450526 0.65458447 0 4294967295
0.75342757 0.37042919 0 4294967295
0.31518608 0.79866886 0 4294967295
0.52079976 0.51935488 0 4294967295
0.81227672 0.13949233 0 4294967295
0.4782562 0.93524331 0 4294967295
0.95842409 0.55457503 0 4294967295
0.49083781 0.96757281 0 4294967295
0.28178594 1.0495375 0 4294967295
0.71711606 0.83096212 0 4294967295
0.53033584 0.13331559 0 4294967295
0.02442974 0.99513811 0 4294967295
0.11758969 0.73311794 0 4294967295
0.028248053 0.35288361 0 4294967295
0.56420904 0.42320746 0 4294967295
0.85899693 0.51871431 0 4294967295
0.077791944 0.61242449 0 4294967295
0.88914347 0.39297801 0 4294967295
0.50099945 0.51136595 0 4294967295
0.91233289 0.22337009 0 4294967295
0.54943562 0.39058909 0 4294967295
0.15861338 0.50785965 0 4294967295
0.94516414 0.6494512 0 4294967295
0.47543249 0.14938436 0 4294967295
0.56402987 0.19254854 0 4294967295
0.9803465 0.094365679 0 4294967295
0.32586414 0.0047762282 0 4294967295
0.089503795 0.44345382 0 4294967295
0.81235427 0.20767441 0 4294967295
0.79633743 0.30210316 0 4294967295
0.5409593 0.65533435 0 4294967295
0.82081747 0.61875129 0 4294967295
0.26775885 0.70996094 0 4294967295
0.011729283 0.6788522 0 4294967295
0.11990423 0.92406219 0 4294967295
0.90222234 0.66933984 0 4294967295
0.31465128 0.060835689 0 4294967295
0.1771995 0.25981539 0 4294967295
0.79580444 0.76807076 0 4294967295
0.40919977 0.27431673 0 4294967295
0.84518051 0.38954625 0 4294967295
0.36868241 0.17104466 0 4294967295
0.39432248 0.45818621 0 4294967295
0.6144985 0.13221663 0 4294967295
0.57593805 0.41083592 0 4294967295
0.43431976 0.11689737 0 4294967295
0.066170253 0.25513723 0 4294967295
0.73564863 0.33392909 0 4294967295
1.0414433 0.8488459 0.0052878116 4294967295
0.012781313 0.085002422 0 4294967295
0.67144012 0.9150036 0 4294967295
0.75434226 0.98609138 0 4294967295
0.97583932 0.93154174 0 4294967295
0.24590679 0.68612617 0 4294967295
0.58417374 0.65510654 0 4294967295
0.9604429 0.42935425 0 4294967295
0.044652808 0.32912534 0 4294967295
0.6003989 0.4389753 0 4294967295
0.89742267 0.32347968 0 4294967295
0.57119191 0.3632496 0 4294967295
0.62573332 0.0055116988 0 4294967295
0.48014697 0.69190353 0 4294967295
0.26064894 0.21579561 0 4294967295
0.025832646 0.22574714 0 4294967295
0.96317351 0.038613956 0 4294967295
0.31074956 0.63461363 0 4294967295
0.95361757 0.065091796 0 4294967295
0.62070501 0.92945689 0 4294967295
1.0749079 0.96825707 0.079790883 4294967295
0.61558306 0.58080727 0 4294967295
0.52171832 0.57602602 0 4294967295
0.010161512 0.56637114 0 4294967295
0.90515137 0.61056042 0 4294967295
0.0053464277 0.69246286 0 4294967295
0.82545781 0.57653832 0 4294967295
0.055712469 0.45119113 0 4294967295
0.58205003 0.53585947 0 4294967295
0.14309466 0.84269899 0 4294967295
0.86010903 0.29755646 0 4294967295
0.068446115 0.71482855 0 4294967295
0.20754126 0.37919566 0 4294967295
0.34944218 0.16115884 0 4294967295
0.44428745 0.97014719 0 4294967295
0.090615727 0.44092101 0 4294967295
0.83675897 0.70619881 0 4294967295
0.021728255 0.35847729 0 4294967295
0.2822248 0.031889766 0 4294967295
0.92484844 0.18737616 0 4294967295
0.72224551 1.0037947 0 4294967295
0.879839 0.46790799 0 4294967295
0.50673318 0.93555152 0 4294967295
0.91909909 0.088783242 0 4294967295
0.47141093 0.062193777 0 4294967295
0.93148226 0.22306599 0 4294967295
0.23112108 0.99992836 0 4294967295
0.93789452 0.43866235 0 4294967295
0.37912402 0.28733674 0 4294967295
0.59982121 0.82341146 0 4294967295
0.34395593 0.79226214 0 4294967295
0.26433247 0.094242893 0 4294967295
0.39663574 0.28606072 0 4294967295
0.4527202 0.67886055 0 4294967295
0.31795049 0.3775686 0 4294967295
0.86623669 0.96040064 0 4294967295
0.30776346 0.74607575 0 4294967295
0.42830867 0.81449664 0 4294967295
0.68162721 0.34740779 0 4294967295
0.9032799 0.15303817 0 4294967295
0.47484085 0.915061 0 4294967295
0.37610415 0.64072263 0 4294967295
0.83469045 0.3139987 0 4294967295
0.079385005 0.21381447 0 4294967295
0.60133547 0.67920619 0 4294967295
0.037225932 0.85881937 0 4294967295
0.36964312 0.30155838 0 4294967295
0.95306224 0.76627886 0 4294967295
0.58761913 0.40578243 0 4294967295
0.44513938 0.90556955 0 4294967295
0.89811176 0.40180773 0 4294967295
0.86597025 0.091114499 0 4294967295
0.057451818 0.29427892 0 4294967295
0.90561116 0.73907906 0 4294967295
0.64168674 0.80889106 0 4294967295
0.8921172 0.051288284 0 4294967295
0.64365315 0.26822138 0 4294967295
0.69201094 0.47834364 0 4294967295
0.58222008 0.77139592 0 4294967295
0.6921581 0.18355551 0 4294967295
0.57119405 0.81173432 0 4294967295
0.042374879 0.82024527 0 4294967295
0.030942414 0.99543715 0 4294967295
0.58652407 0.61856151 0 4294967295
0.40121958 0.031663481 0 4294967295
0.52413112 0.18457064 0 4294967295
0.34303957 0.39010134 0 4294967295
0.27568513 0.40049139 0 4294967295
0.68438029 0.18129629 0 4294967295
0.13957044 0.326067 0 4294967295
1.0488507 0.10813663 0.051890902 4294967295
0.37735528 0.6338405 0 4294967295
0.29990903 0.069366217 0 4294967295
0.11218413 0.88212907 0 4294967295
0.84076214 0.80434221 0 4294967295
0.065684609 0.29136431 0 4294967295
0.53372627 0.1080595 0 4294967295
0.11160955 0.56466866 0 4294967295
0.10349663 0.69813365 0 4294967295
0.18323018 0.50471622 0 4294967295
0.8538695 0.82880765 0 4294967295
0.68928689 0.07283669 0 4294967295
0.097462632 0.96497202 0 4294967295
0.47332808 0.78184289 0 4294967295
0.14626828 0.61289853 0 4294967295
0.1079099 0.13645563 0 4294967295
0.64458615 0.48526517 0 4294967295
0.7702961 0.9444952 0 4294967295
0.55463141 0.88248026 0 4294967295
0.82662427 0.39539355 0 4294967295
0.75877023 1.0007763 0 4294967295
0.68675786 0.22054873 0 4294967295
0.00036840839 0.79836738 0 4294967295
0.7852174 0.10386504 0 4294967295
0.49650103 0.96844757 0 4294967295
0.60858124 0.22629815 0 4294967295
0.67580885 0.29786813 0 4294967295
0.29913485 0.7732715 0 4294967295
0.26284012 0.7724629 0 4294967295
0.55511439 0.4091084 0 4294967295
0.47002137 0.74487281 0 4294967295
0.54556406 0.029947607 0 4294967295
0.14828946 0.31586015 0 4294967295
0.97444284 0.70292085 0 4294967295
0.1983404 0.80106711 0 4294967295
0.098314404 0.88516289 0 4294967295
0.693376 0.78507227 0 4294967295
0.10571161 0.69374442 0 4294967295
0.58343965 0.89092898 0 4294967295
0.79760951 0.079940692 0 4294967295
0.96352625 0.4744283 0 4294967295
0.30623886 0.5351854 0 4294967295
0.70405889 0.60537368 0 4294967295
0.3084569 0.96689898 0 4294967295
0.37783661 0.86357129 0 4294967295
0.37600741 0.76319808 0 4294967295
0.52659559 0.92157143 0 4294967295
0.79314566 0.67488503 0 4294967295
0.2374316 0.7675885 0 4294967295
0.37780586 0.435772 0 4294967295
0.68861723 0.58687043 0 4294967295
0.32093489 0.26203161 0 4294967295
0.26119253 0.4266465 0 4294967295
0.95577604 0.84463221 0 4294967295
0.31757548 0.75338554 0 4294967295
0.92457289 0.17695206 0 4294967295
0.15957628 0.23081173 0 4294967295
0.71213746 0.86363518 0 4294967295
0.8361854 0.020594383 0 4294967295
0.83053416 0.21402204 0 4294967295
0.97472978 0.29863635 0 4294967295
0.97722012 0.41076124 0 4294967295
0.12811303 0.77036577 0 4294967295
0.085646257 0.36554462 0 4294967295
0.53795421 0.46345213 0 4294967295
0.80131662 0.10660979 0 4294967295
0.93957239 0.12225151 0 4294967295
0.36864141 0.20076494 0 4294967295
0.54889798 0.32441744 0 4294967295
0.045397129 0.8664735 0 4294967295
0.15987439 1.0349283 0.0018935502 4294967295
0.043425549 0.23737925 0 4294967295
0.20078173 0.75556302 0 4294967295
0.10101441 0.036967166 0 4294967295
0.77615744 0.9315486 0 4294967295
0.2509892 0.66032308 0 4294967295
0.13809015 0.2282093 0 4294967295
0.071084321 0.26620319 0 4294967295
0.99857503 0.15673058 0 4294967295
0.63174778 0.53652924 0 4294967295
0.70974129 0.51761895 0 4294967295
0.64313906 0.55975515 0 4294967295
0.55531597 0.011780457 0 4294967295
0.76052004 0.10421395 0 4294967295
0.33619791 0.8059172 0 4294967295
0.97068745 0.41400087 0 4294967295
0.77588719 0.014112984 0 4294967295
0.65138012 0.97666895 0 4294967295
0.76967603 0.75239456 0 4294967295
0.013636103 0.54583341 0 4294967295
0.77338248 0.35969335 0 4294967295
0.20615651 0.82203323 0 4294967295
0.4928346 0.27724084 0 4294967295
0.088236436 0.49140966 0 4294967295
0.43397141 0.71998423 0 4294967295
0.027938906 0.05415412 0 4294967295
0.15304868 0.67107797 0 4294967295
0.61390924 0.70836461 0 4294967295
0.68285841 0.37442932 0 4294967295
0.81257856 0.01905632 0 4294967295
0.25588146 0.87296259 0 4294967295
0.43305719 0.95623368 0 4294967295
0.79737896 0.084437326 0 4294967295
0.93290263 0.56705499 0 4294967295
0.83683187 0.94653875 0 4294967295
0.11288843 0.52077496 0 4294967295
0.21116404 0.31904495 0 4294967295
0.34280822 0.70399863 0 4294967295
0.59628576 0.43104464 0 4294967295
0.1954083 0.03025718 0 4294967295
0.22711568 0.27712098 0 4294967295
0.084411301 0.30407757 0 4294967295
0.89442515 0.69832057 0 4294967295
0.012442196 0.57728356 0 4294967295
0.072749846 0.82502079 0 4294967295
0.59633988 0.25309634 0 4294967295
0.60828674 0.029397095 0 4294967295
0.20933004 0.40566576 0 4294967295
0.11383442 0.14223266 0 4294967295
0.97272074 0.95066625 0 4294967295
0.15236112 0.16357931 0 4294967295
0.47144124 0.29993543 0 4294967295
0.40465412 0.81424946 0 4294967295
0.0039340863 0.00093989493 0 4294967295
0.24529409 0.19934238 0 4294967295
0.031197075 0.396323 0 4294967295
0.42268959 0.11560838 0 4294967295
0.70040059 0.31711474 0 4294967295
0.8139289 0.71284276 0 4294967295
0.89439833 0.88667876 0 4294967295
0.62303138 0.57206893 0 4294967295
0.1397751 0.14615029 0 4294967295
0.52013528 0.34910515 0 4294967295
0.55181605 0.63396972 0 4294967295
0.49133781 0.52453679 0 4294967295
0.58463597 0.58010918 0 4294967295
0.61014599 0.056077231 0 4294967295
0.88004464 0.014800092 0 4294967295
0.8703267 0.88397872 0 4294967295
0.015739987 0.11562077 0 4294967295
0.14952824 0.10953097 0 4294967295
0.51194376 0.50601071 0 4294967295
0.16254544 0.21234432 0 4294967295
0.82312542 0.97647434 0 4294967295
0.92518711 0.71752375 0 4294967295
0.8631531 0.4630506 0 4294967295
0.20826197 0.0029282281 0 4294967295
0.60920089 0.72839725 0 4294967295
0.35203338 0.16101693 0 4294967295
0.362367 0.84337115 0 4294967295
0.77527279 1.0530618 0 4294967295
0.42348036 0.29569969 0 4294967295
0.0030802325 0.303525 0 4294967295
0.31049979 0.87340689 0 4294967295
0.18750371 0.32623976 0 4294967295
0.98902768 0.27082482 0 4294967295
0.37317681 0.50097144 0 4294967295
0.7768355 0.53572226 0 4294967295
0.71331578 0.59996092 0 4294967295
0.5121966 0.63850284 0 4294967295
0.38322598 0.42891085 0 4294967295
0.10155345 0.52574664 0 4294967295
0.37827799 0.71075433 0 4294967295
0.25414389 0.73031133 0 4294967295
0.87177128 0.61651087 0 4294967295
0.57368249 0.55732501 0 4294967295
0.56351388 0.99716288 0 4294967295
0.85302466 0.56659412 0 4294967295
0.30068785 0.16352445 0 4294967295
0.44000104 0.48819155 0 4294967295
0.56195265 0.55369419 0 4294967295
0.75901639 0.86294103 0 4294967295
0.93000013 0.53585184 0 4294967295
0.39866331 0.64331591 0 4294967295
0.13581277 0.91085994 0 4294967295
0.28181875 0.45329744 0 4294967295
0.28620967 0.38337222 0 4294967295
0.97904408 0.66448766 0 4294967295
0.094126537 0.23318794 0 4294967295
0.39479899 0.9658978 0 4294967295
0.93218207 1.0394256 0.024155932 4294967295
0.5232228 0.41321275 0 4294967295
0.96564436 0.37624744 0 4294967295
0.97980684 0.26633221 0 4294967295
0.53977191 0.41980791 0 4294967295
0.75452375 0.029536098 0 4294967295
0.8488366 0.51354015 0 4294967295
0.89247715 0.77883679 0 4294967295
0.049392007 0.29114044 0 4294967295
0.42215267 0.18520479 0 4294967295
0.25061381 0.78826332 0 4294967295
0.63850224 0.48821002 0 4294967295
0.087343641 0.61754626 0 4294967295
0.15269768 0.18147019 0 4294967295
0.85073423 0.54749668 0 4294967295
0.14736798 0.70043308 0 4294967295
0.51597822 0.67059076 0 4294967295
0.11364582 0.48162255 0 4294967295
0.046838224 0.093452685 0 4294967295
0.74795479 0.58661014 0 4294967295
0.56665522 0.60341418 0 4294967295
0.61614621 0.3620972 0 4294967295
0.016018679 0.50862336 0 4294967295
0.14093396 0.065410689 0 4294967295
0.7997638 0.56308663 0 4294967295
0.25061548 0.0017641359 0 4294967295
0.26705807 0.88911772 0 4294967295
0.48997417 0.35440171 0 4294967295
0.50666398 0.64267188 0 4294967295
0.53587192 0.35739821 0 4294967295
0.25975066 0.75371361 0 4294967295
0.057831306 0.70614672 0 4294967295
0.35383067 0.17147712 0 4294967295
0.18776929 0.40066889 0 4294967295
0.2649298 0.93572402 0 4294967295
0.987279 0.77819037 0 4294967295
0.43820259 0.6034252 0 4294967295
0.14028758 0.45422128 0 4294967295
0.11204856 0.28122154 0 4294967295
0.51963192 0.91181237 0 4294967295
0.94297457 0.89213598 0 4294967295
0.91357648 0.11136625 0 4294967295
0.65936512 0.40355065 0 4294967295
0.46576798 0.16602911 0 4294967295
0.046222504 0.0016398625 0 4294967295
0.52342737 0.23639105 0 4294967295
0.68487972 0.58125865 0 4294967295
0.94253778 0.038710404 0 4294967295
0.75273579 0.13030708 0 4294967295
0.43937927 0.017665578 0 4294967295
0.12794171 0.49501854 0 4294967295
0.79585594 0.50423372 0 4294967295
0.030083496 0.93614358 0 4294967295
0.95845497 0.14213206 0 4294967295
0.21736509 0.47808692 0 4294967295
0.05394439 0.061673269 0 4294967295
0.24833435 0.96752089 0 4294967295
0.17303953 0.90769947 0 4294967295
0.37107152 0.63880748 0 4294967295
0.073728584 0.41729403 0 4294967295
0.73381484 0.71219712 0 4294967295
0.65368503 0.3253271 0 4294967295
0.17841457 0.59622288 0 4294967295
0.36403751 0.93115032 0 4294967295
0.7265299 0.80341679 0 4294967295
0.94881594 0.79256105 0 4294967295
0.23007508 0.74467188 0 4294967295
0.29679474 0.26015857 0 4294967295
0.68081546 0.25524971 0 4294967295
0.40229061 0.89818054 0 4294967295
0.83777654 0.5274018 0 4294967295
0.95985377 0.98167098 0 4294967295
0.42375588 0.13289332 0 4294967295
0.88937044 0.7948274 0 4294967295
0.7717008 0.96309906 0 4294967295
0.2121214 0.41214815 0 4294967295
0.56025499 0.86580646 0 4294967295
0.73747528 0.73866951 0 4294967295
0.46202931 0.10151277 0 4294967295
0.66981989 0.18855923 0 4294967295
1.0148172 0.69809449 0 4294967295
0.98112029 0.13500462 0 4294967295
0.36330768 0.27791503 0 4294967295
0.39516318 0.044123113 0 4294967295
0.53316474 0.79745382 0 4294967295
0.94230366 0.2665014 0 4294967295
0.25368884 0.90215743 0 4294967295
0.24817237 0.6774447 0 4294967295
0.035050757 0.13754283 0 4294967295
0.4722721 0.80675155 0 4294967295
0.18885583 0.73899657 0 4294967295
0.21889973 0.66089684 0 4294967295
0.55019999 0.956375 0 4294967295
0.39956638 0.012229267 0 4294967295
0.057887755 0.069386259 0 4294967295
0.2007885 0.96281731 0 4294967295
0.68802208 0.18190877 0 4294967295
0.097821929 0.051329736 0 4294967295
0.45982379 0.49298513 0 4294967295
0.095452845 0.99298853 0 4294967295
0.39304632 0.12968133 0.018263318 4294967295
0 0.45893651 0.072095774 4294967295
0 0.7209143 0.46264356 4294967295
0 0.86547738 0.1092779 4294967295
0 0.6128633 0.56013405 4294967295
0 0.024791937 0.70546144 4294967295
0 0.44205803 0.1700055 4294967295
0 0.82925934 0.9812367 4294967295
0 0.64925963 0.42904139 4294967295
0 0.97715771 0.0024561947 4294967295
0 0.18224232 0.8861444 4294967295
0 0.79907429 0.68563491 4294967295
0 0.90079969 0.54886007 4294967295
0 0.60611093 0.63293457 4294967295
0 0.41137055 0.16292605 4294967295
0 0.71732008 0.10416131 4294967295
0 0.92380846 0.17625658 4294967295
0 0.17625709 0.64472276 4294967295
0 0.63890016 0.041734476 4294967295
0 0.75400066 0.2517634 4294967295
0 0.69517696 0.88283235 4294967295
0 0.95722485 0.043926559 4294967295
0 0.94879806 0.78648424 4294967295
0 0.025163261 0.59805769 4294967295
0 0.2155256 0.0023209541 4294967295
0 0.60051388 0.29802462 4294967295
0 0.8149395 0.39958817 4294967295
0 0.98365951 0.71573919 4294967295
0 0.94844824 0.5897705 4294967295
0 0.34867379 0.35981879 4294967295
0 0.83898908 0.19294287 4294967295
0 0.46398011 0.67650503 4294967295
0 0.24225046 0.64023721 4294967295
0 0.32122776 0.8811506 4294967295
0 0.68197167 0.075228415 4294967295
0 0.13291401 0.28384021 4294967295
0 0.85402101 0.09013886 4294967295
0 0.32776678 0.80281907 4294967295
0 0.87662309 0.35293004 4294967295
0 0.40087679 0.092148669 4294967295
0.05498654 0.41838402 0.046613488 4294967295
0 0.39017329 0.17019051 4294967295
0 0.40097886 0.37383282 4294967295
0 0.8859297 0.3494271 4294967295
0 0.96360332 0.23460352 4294967295
0 0.70924592 0.71629983 4294967295
0 0.3005974 0.173226 4294967295
0 0.39280486 0.54284787 4294967295
0 0.81346321 0.71403265 4294967295
0 0.42399845 0.49543488 4294967295
0 0.84914315 0.62643594 4294967295
0 0.77927512 0.64328206 4294967295
0 0.64705127 0.10704189 4294967295
0 0.44610113 0.52367437 4294967295
0 0.45997193 0.84697795 4294967295
0 0.61582303 0.81522292 4294967295
0 0.84836864 0.0059963358 4294967295
0 0.98541343 0.24934748 4294967295
0 0.37982917 0.87134314 4294967295
0 0.59877455 0.34343249 4294967295
0 0.19404937 0.37707165 4294967295
0 0.05973234 0.40654406 4294967295
0 0.48124647 0.45253721 4294967295
0 0.9493919 0.29470968 4294967295
0 0.16656984 0.37339035 4294967295
0 0.79014456 0.95583087 4294967295
0 0.9303028 0.56941968 4294967295
0 0.59911293 0.57735407 4294967295
0 0.67646158 0.045214072 4294967295
0 0.10102844 0.1364335 4294967295
0 0.95164716 0.79360789 4294967295
0 0.9516564 0.74056059 4294967295
0 0.72284782 0.93706983 4294967295
0 0.9899081 0.10267699 4294967295
0 0.80841303 0.58868265 4294967295
0 0.44610947 0.91435969 4294967295
0 0.89670312 0.50584179 4294967295
0 0.32090375 0.37794963 4294967295
0 0.95837903 0.27029565 4294967295
0 0.67265934 0.12494887 4294967295
0 0.74837625 0.55211532 4294967295
0 0.080779761 0.5739888 4294967295
0 0.032223575 0.67989272 4294967295
0 0.15134284 0.70868516 4294967295
0 0.72510678 0.25237128 4294967295
0 0.84511864 0.61729878 4294967295
0 0.96922278 0.79677504 4294967295
0 0.35785937 0.6920706 4294967295
0 0.73384494 0.34776747 4294967295
0 0.79474759 0.54225791 4294967295
0 1.037298 0.33733693 4294967295
0 0.45661759 0.83315331 4294967295
0 0.74669886 0.77752137 4294967295
0 0.21110293 0.70507789 4294967295
0 0.047817003 0.88376224 4294967295
0 0.83002675 0.69150299 4294967295
0 0.34656614 0.91080648 4294967295
0 0.26549175 0.37878972 4294967295
0 0.5906992 0.41683459 4294967295
0 0.08747486 0.31580597 4294967295
0 0.73480207 1.0112829 4294967295
0 0.93310475 0.63842863 4294967295
0 0.72936857 0.29096413 4294967295
0 0.33049923 0.46321344 4294967295
0 0.6387316 0.12524681 4294967295
0 0.0054713744 0.57518178 4294967295
0 0.36610386 0.46208897 4294967295
