# .PCD v0.7 - Point Cloud Data file format
VERSION 0.7
FIELDS x y z rgba
SIZE 4 4 4 4
TYPE F F F U
COUNT 1 1 1 1
WIDTH 1253
HEIGHT 1
VIEWPOINT 0 0 0 1 0 0 0
POINTS 1253
DATA ascii
0.5 0.03438342 0.24644499 4294967295
0.5 0.42291468 0.22795156 4294967295
0.5 0.39808688 0.08321856 4294967295
0.5 0.24525948 0.18478714 4294967295
0.51157486 0.50011617 0.042790059 4294967295
0.5 0.1448978 0.20768586 4294967295
0.5 0.1121798 0.0073492564 4294967295
0.5 0.014517291 0.17863439 4294967295
0.5 0.24908954 0.058552731 4294967295
0.5 0.38220665 0.014546811 4294967295
0.5 0.4790507 0.096357778 4294967295
0.5 0.19047782 0.045543581 4294967295
0.5 0.24526905 0.042132717 4294967295
0.5 0.16446899 0.18977563 4294967295
0.59830767 0.32895806 0.25972977 4294967295
0.5 0.29338196 0.13251689 4294967295
0.5 0.31573415 0.10814832 4294967295
0.5 0.22093689 0.10691051 4294967295
0.5 0.38273376 0.23309819 4294967295
0.5 0.083395302 0.18563753 4294967295
0.5 0.028626744 0.11414655 4294967295
0.5 0.28664681 0.07040327 4294967295
0.5 0.24299163 0.15058205 4294967295
0.5 0.49807531 0.24604058 4294967295
0.61619622 0.53446579 0.30633721 4294967295
0.5 0.021174792 0.19866014 4294967295
0.5 0.072997533 0.10582631 4294967295
0.5 0.48840743 0.1591333 4294967295
0.5 0.29591805 0.076438203 4294967295
0.5 0.19781785 0.013284204 4294967295
0.5 0.47572058 0.24559991 4294967295
0.5 0.29160219 0.14572737 4294967295
0.5 0.20749646 0.0062695467 4294967295
0.5 0.0052757571 0.04511511 4294967295
0.51004052 0.48877597 0.054376032 4294967295
0.5 0.46150529 0.0036811111 4294967295
0.5 0.31696418 0.12407605 4294967295
0.5 0.14816876 0.029977899 4294967295
0.5 0.04931619 0.073122039 4294967295
0.5 0.052036967 0.23379287 4294967295
0.5 0.026526067 0.03660588 4294967295
0.5 0.36490601 0.049761802 4294967295
0.5 0.28486437 0.17665671 4294967295
0.5 0.4177902 0.04039121 4294967295
0.60957575 0.11576561 0.16737978 4294967295
0.5 0.10735083 0.24095522 4294967295
0.5 0.10680784 0.19947651 4294967295
0.5 0.27336517 0.15715215 4294967295
0.5 0.41149211 0.13932046 4294967295
0.5 0.40453452 0.19511379 4294967295
0.5 0.36731198 0.18301991 4294967295
0.5 0.3975898 0.092138082 4294967295
0.5 0.1141919 0.022879288 4294967295
0.5 0.24423195 0.081754044 4294967295
0.50055575 0.19255841 0.14869019 4294967295
0.5 0.13109383 0.10926437 4294967295
0.5 0.36948067 0.24799992 4294967295
0.5 0.31805232 0.077172525 4294967295
0.5 0.34931326 0.11792126 4294967295
0.5 0.23512748 0.17775154 4294967295
0.5 0.35145056 0.17123915 4294967295
0.5 0.33741352 0.2291292 4294967295
0.5 0.24143131 0.055389348 4294967295
0.5 0.27256268 0.076461717 4294967295
0.53626341 0.42568305 0.12481203 4294967295
0.5 0.043151017 0.1283658 4294967295
0.5 0.043137006 0.22037041 4294967295
0.5 0.44100776 0.078664452 4294967295
0.5 0.4864994 0.092619866 4294967295
0.5 0.32083699 0.089251034 4294967295
0.5 0.48150864 0.22596541 4294967295
0.5 0.3970308 0.17549467 4294967295
0.5 0.44793066 0.10754157 4294967295
0.5 0.0053343829 0.14862196 4294967295
0.53028995 0.4812156 0.15052086 4294967295
0.5 0.15274704 0.15118811 4294967295
0.5 0.082940154 0.24508028 4294967295
0.5 0.2606346 0.16218574 4294967295
0.5 0.10093925 0.016598642 4294967295
0.5 0.47729489 0.24517943 4294967295
0.5 0.21029449 0.01022296 4294967295
0.5 0.24709047 0.12671575 4294967295
0.5 0.46118674 0.094049126 4294967295
0.5 0.4107604 0.22384308 4294967295
0.50416136 0.37749934 0.11996005 4294967295
0.5 0.12618822 0.17742331 4294967295
0.5 0.18352823 0.011609511 4294967295
0.5 0.20583595 0.065729447 4294967295
0.5 0.23830216 0.10558517 4294967295
0.5 0.42870283 0.094613902 4294967295
0.5 0.4516322 0.040724929 4294967295
0.5 0.49160403 0.017286174 4294967295
0.5 0.071610413 0.12611932 4294967295
0.5 0.35894382 0.086274832 4294967295
0.54008478 0.32552069 0.20820415 4294967295
0.5 0.16290854 0.2478652 4294967295
0.5 0.35668465 0.20499951 4294967295
0.5 0.24916187 0.1589357 4294967295
0.5 0.098097272 0.079961136 4294967295
0.5 0.26555756 0.23571762 4294967295
0.5 0.39151967 0.19587289 4294967295
0.5 0.32628188 0.037523951 4294967295
0.5 0.4149648 0.016058913 4294967295
0.5 0.2065068 0.076633476 4294967295
0.53210419 0.27539238 0.099709034 4294967295
0.5 0.34249476 0.097460173 4294967295
0.5 0.2166595 0.16704939 4294967295
0.5 0.22949269 0.14413495 4294967295
0.5 0.086337402 0.044218261 4294967295
0.5 0.46081957 0.18588665 4294967295
0.5 0.42467523 0.061864059 4294967295
0.5 0.3675037 0.14067994 4294967295
0.5 0.033727136 0.058332782 4294967295
0.5 0.09923128 0.065912202 4294967295
0.57888442 0.35547227 0.26127884 4294967295
0.5 0.10325965 0.084053755 4294967295
0.5 0.25653461 0.21477076 4294967295
0.5 0.24315542 0.085749708 4294967295
0.5 0.46165934 0.2248311 4294967295
0.5 0.32476637 0.10247375 4294967295
0.5 0.084871858 0.083630569 4294967295
0.5 0.39986786 0.15076567 4294967295
0.5 0.0013599209 0.064680278 4294967295
0.5 0.089801267 0.043848664 4294967295
0.56970406 0.28750113 0.09501449 4294967295
0.5 0.45947063 0.071236156 4294967295
0.5 0.17434897 0.16348717 4294967295
0.5 0.42383221 0.10403805 4294967295
0.5 0.4436399 0.01153174 4294967295
0.5 0.33990049 0.11011387 4294967295
0.5 0.38785231 0.22158007 4294967295
0.5 0.38833526 0.072193459 4294967295
0.5 0.37270167 0.065745331 4294967295
0.5 0.31588632 0.16718051 4294967295
0.5500012 0.13115408 0.12032755 4294967295
0.5 0.039308533 0.083012372 4294967295
0.5 0.30791384 0.21958819 4294967295
0.5 0.46755609 0.15463687 4294967295
0.5 0.068536945 0.028678678 4294967295
0.5 0.39697108 0.14316702 4294967295
0.5 0.1079782 0.17822085 4294967295
0.5 0.42880633 0.14116359 4294967295
0.5 0.18341602 0.17631927 4294967295
0.5 0.49040326 0.063527957 4294967295
0.64950007 0.5252021 0.31465194 4294967295
0.5 0.34728366 0.13177717 4294967295
0.5 0.27346393 0.11780945 4294967295
0.5 0.40794125 0.073082805 4294967295
0.5 0.36710957 0.11191379 4294967295
0.5 0.48052663 0.22413123 4294967295
0.5 0.36448029 0.0099175842 4294967295
0.5 0.11428719 0.086197056 4294967295
0.5 0.45901155 0.04092164 4294967295
0.5 0.48166788 0.013774253 4294967295
0.61158383 0.25078449 0.30090332 4294967295
0.5 0.31388253 0.12358942 4294967295
0.5 0.23508064 0.12134443 4294967295
0.5 0.029506002 0.20924833 4294967295
0.5 0.095327407 0.0099546332 4294967295
0.5 0.045552596 0.23551472 4294967295
0.5 0.35021305 0.19641812 4294967295
0.5 0.23458377 0.061838485 4294967295
0.5 0.12845515 0.071262509 4294967295
0.5 0.26984257 0.24778236 4294967295
0.53481388 0.4011665 0.15999851 4294967295
0.5 0.44382715 0.11541644 4294967295
0.5 0.2702044 0.029057177 4294967295
0.5 0.403227 0.11460797 4294967295
0.5 0.13995764 0.19244742 4294967295
0.5 0.25676444 0.13957913 4294967295
0.5 0.2635338 0.035323486 4294967295
0.5 0.026337104 0.24930723 4294967295
0.5 0.31333584 0.027921554 4294967295
0.5 0.41711113 0.20433162 4294967295
0.53300256 0.10875493 0.26433441 4294967295
0.5 0.3796927 0.2129827 4294967295
0.5 0.35549998 0.057138227 4294967295
0.5 0.04964238 0.24197757 4294967295
0.5 0.25680149 0.15974247 4294967295
0.5 0.47951984 0.061577041 4294967295
0.5 0.06985417 0.2116735 4294967295
0.5 0.35398698 0.17002927 4294967295
0.5 0.48146138 0.12860698 4294967295
0.5 0.069274485 0.060709499 4294967295
0.59221005 0.23431887 0.2552295 4294967295
0.5 0.40057725 0.20282131 4294967295
0.5 0.3966859 0.21345718 4294967295
0.5 0.40425709 0.10501087 4294967295
0.5 0.48275748 0.16068411 4294967295
0.5 0.11868501 0.029254923 4294967295
0.5 0.28403193 0.24918886 4294967295
0.5 0.48447526 0.069765963 4294967295
0.5 0.11265416 0.01705882 4294967295
0.5 0.12348706 0.18472782 4294967295
0.50083572 0.35443833 0.052339192 4294967295
0.5 0.49260971 0.21172838 4294967295
0.5 0.026353912 0.17329834 4294967295
0.5 0.26351532 0.0039076377 4294967295
0.5 0.10381064 0.1663949 4294967295
0.5 0.12923427 0.12295973 4294967295
0.5 0.15882874 0.014905765 4294967295
0.5 0.15156208 0.027757322 4294967295
0.5 0.4567259 0.027909582 4294967295
0.5 0.2655364 0.21974169 4294967295
0.6019997 0.47918707 0.29411042 4294967295
0.5 0.4979932 0.080609657 4294967295
0.5 0.38259912 0.24123423 4294967295
0.5 0.30075124 0.24762663 4294967295
0.5 0.016586106 0.21211915 4294967295
0.5 0.3647089 0.18509436 4294967295
0.5 0.027245192 0.1786593 4294967295
0.5 0.29364547 0.026799552 4294967295
0.5 0.20391528 0.028580386 4294967295
0.5 0.06141438 0.15386295 4294967295
0.63107222 0.5210228 0.22639656 4294967295
0.5 0.053645376 0.024389653 4294967295
0.5 0.22046018 0.10260373 4294967295
0.5 0.10429395 0.088593036 4294967295
0.5 0.26102662 0.18491517 4294967295
0.5 0.11666944 0.069106996 4294967295
0.5 0.25405174 0.057331324 4294967295
0.5 0.29943332 0.06832543 4294967295
0.5 0.097131118 0.050092276 4294967295
0.5 0.13190413 0.05685861 4294967295
0.58105093 0.10547378 0.32935745 4294967295
0.5 0.48390591 0.025834018 4294967295
0.5 0.35393161 0.13877569 4294967295
0.5 0.10526714 0.02892345 4294967295
0.5 0.33471215 0.083340757 4294967295
0.5 0.36557281 0.11233137 4294967295
0.5 0.35733017 0.20960909 4294967295
0.5 0.27344203 0.038895175 4294967295
0.5 0.12442565 0.188868 4294967295
0.5 0.25497642 0.19272614 4294967295
0.61869442 0.36626077 0.30451736 4294967295
0.5 0.023666274 0.00080904632 4294967295
0.5 0.48630852 0.16154979 4294967295
0.5 0.13826896 0.041719817 4294967295
0.5 0.42328414 0.13508654 4294967295
0.5 0.19715686 0.2238535 4294967295
0.5 0.2667861 0.090531386 4294967295
0.5 0.49937502 0.06035886 4294967295
0.5 0.10784283 0.45957762 4294967295
0.5 0.025237186 0.48064846 4294967295
0.60003203 0.19930077 0.50947821 4294967295
0.5 0.1929016 0.45927191 4294967295
0.5 0.23021446 0.26332575 4294967295
0.5 0.22519088 0.3220399 4294967295
0.5 0.065506771 0.4391551 4294967295
0.5 0.10406549 0.25813913 4294967295
0.5 0.24633145 0.45170888 4294967295
0.5 0.130611 0.41785407 4294967295
0.5 0.088260703 0.41969183 4294967295
0.5 0.10598709 0.32799089 4294967295
0.5673697 0.22655116 0.37728179 4294967295
0.5 0.061545327 0.28514409 4294967295
0.5 0.031542629 0.29610348 4294967295
0.5 0.11763259 0.38938546 4294967295
0.5 0.0056811064 0.39286977 4294967295
0.5 0.1200339 0.3549498 4294967295
0.5 0.052315976 0.3129355 4294967295
0.5 0.064221695 0.28253046 4294967295
0.5 0.076261252 0.28941256 4294967295
0.5 0.10457035 0.39176804 4294967295
0.60596794 0.3345356 0.56460375 4294967295
0.5 0.14990716 0.47489911 4294967295
0.5 0.16034473 0.28051817 4294967295
0.5 0.14275321 0.49860543 4294967295
0.5 0.20020999 0.49874032 4294967295
0.5 0.076596335 0.35939142 4294967295
0.5 0.058652356 0.38814166 4294967295
0.5 0.14453553 0.340195 4294967295
0.5 0.18424515 0.26216811 4294967295
0.5 0.22958043 0.43992627 4294967295
0.51409507 0.16913296 0.36370939 4294967295
0.5 0.044876069 0.45735389 4294967295
0.5 0.16254984 0.35909778 4294967295
0.5 0.23988432 0.48881108 4294967295
0.5 0.14851034 0.34445468 4294967295
0.5 0.1305791 0.377078 4294967295
0.5 0.053090509 0.28048626 4294967295
0.5 0.10197714 0.46343523 4294967295
0.5 0.061004438 0.49473035 4294967295
0.5 0.21204068 0.26121444 4294967295
0.60211283 0.34558344 0.39074981 4294967295
0.5 0.12060586 0.30212301 4294967295
0.5 0.17677867 0.26514137 4294967295
0.5 0.142318 0.36102384 4294967295
0.5 0.027309498 0.37189841 4294967295
0.5 0.050950091 0.43234739 4294967295
0.5 0.22151276 0.34582615 4294967295
0.5 0.13970126 0.38406259 4294967295
0.5 0.20492393 0.37958556 4294967295
0.5 0.12287368 0.35343426 4294967295
0.55393797 0.27797824 0.30739078 4294967295
0.5 0.23051228 0.27713075 4294967295
0.5 0.033939056 0.3324894 4294967295
0.5 0.240566 0.34494349 4294967295
0.5 0.077219762 0.45260668 4294967295
0.5 0.10615792 0.32069039 4294967295
0.5 0.24124369 0.47676378 4294967295
0.5 0.12281341 0.41802239 4294967295
0.5 0.24190515 0.26513141 4294967295
0.5 0.02904621 0.26921466 4294967295
0.60254639 0.23957624 0.43254268 4294967295
0.5 0.20156205 0.35854259 4294967295
0.5 0.17582247 0.34126332 4294967295
0.5 0.24260518 0.38074636 4294967295
0.5 0.2208489 0.36547887 4294967295
0.5 0.23418064 0.44488913 4294967295
0.5 0.11893165 0.46469289 4294967295
0.5 0.2220199 0.40287071 4294967295
0.5 0.047182318 0.4625859 4294967295
0.5 0.24781419 0.37440208 4294967295
0.614766 0.27995858 0.46873811 4294967295
0.5 0.19509248 0.40643626 4294967295
0.5 0.080735892 0.3179059 4294967295
0.5 0.074458651 0.32264104 4294967295
0.5 0.083037294 0.35350487 4294967295
0.5 0.091855712 0.47006711 4294967295
0.5 0.18350117 0.29341775 4294967295
0.5 0.078609698 0.35932362 4294967295
0.5 0.13468108 0.32121488 4294967295
0.5 0.24007 0.35552996 4294967295
0.52382326 0.21051699 0.49807388 4294967295
0.5 0.050419111 0.30562538 4294967295
0.5 0.18894355 0.272439 4294967295
0.5 0.20849609 0.48612589 4294967295
0.5 0.23502491 0.45631027 4294967295
0.5 0.11052795 0.40021747 4294967295
0.5 0.060282402 0.30562043 4294967295
0.5 0.056653768 0.39101827 4294967295
0.5 0.12352633 0.38111243 4294967295
0.5 0.21365935 0.45656362 4294967295
0.54464227 0.27925956 0.35015732 4294967295
0.5 0.17663074 0.41811845 4294967295
0.5 0.09893281 0.25524044 4294967295
0.5 0.027442079 0.48361388 4294967295
0.5 0.076455317 0.26751208 4294967295
0.5 0.089143857 0.26314905 4294967295
0.5 0.24176273 0.38956296 4294967295
0.5 0.068774447 0.43070629 4294967295
0.5 0.16200198 0.27727056 4294967295
0.5 0.16683216 0.3970269 4294967295
0.57038796 0.30396879 0.34774807 4294967295
0.5 0.047244381 0.29386324 4294967295
0.5 0.082980543 0.35389817 4294967295
0.5 0.18488152 0.45650688 4294967295
0.5 0.23501058 0.39854085 4294967295
0.5 0.1630705 0.46962786 4294967295
0.5 0.20405592 0.33970124 4294967295
0.5 0.13774632 0.30298874 4294967295
0.5 0.094941676 0.4151884 4294967295
0.5 0.036602616 0.42139697 4294967295
0.57416534 0.25686583 0.44991183 4294967295
0.5 0.18454605 0.42446321 4294967295
0.5 0.015309436 0.25332052 4294967295
0.5 0.1051695 0.42731142 4294967295
0.5 0.030591043 0.27200165 4294967295
0.5 0.074338309 0.26417187 4294967295
0.5 0.049361769 0.37158269 4294967295
0.5 0.058035094 0.38234231 4294967295
0.5 0.22548084 0.49291661 4294967295
0.5 0.088849187 0.46049142 4294967295
0.54448056 0.18593806 0.29640028 4294967295
0.5 0.18011928 0.3455134 4294967295
0.5 0.091620915 0.31786561 4294967295
0.5 0.14850213 0.4365626 4294967295
0.5 0.233054 0.43510473 4294967295
0.5 0.10795958 0.4157545 4294967295
0.5 0.060851216 0.29250562 4294967295
0.5 0.090217695 0.32616067 4294967295
0.5 0.04582613 0.44538718 4294967295
0.5 0.0034720676 0.32641718 4294967295
0.58169425 0.29908311 0.40950465 4294967295
0.5 0.090589039 0.26675063 4294967295
0.5 0.19939306 0.39862412 4294967295
0.5 0.14909294 0.42487389 4294967295
0.5 0.14154075 0.48794213 4294967295
0.5 0.13536532 0.28299823 4294967295
0.5 0.2398618 0.31548458 4294967295
0.5 0.12851162 0.33148271 4294967295
0.5 0.13335019 0.27701375 4294967295
0.5 0.018045299 0.36640418 4294967295
0.59408623 0.30620471 0.47009107 4294967295
0.5 0.032158673 0.27296972 4294967295
0.5 0.1685105 0.37237638 4294967295
0.5 0.09913037 0.46433663 4294967295
0.5 0.067763567 0.35260242 4294967295
0.5 0.0407538 0.28515244 4294967295
0.5 0.18041281 0.38134283 4294967295
0.5 0.051903058 0.37980586 4294967295
0.5 0.029966973 0.45099598 4294967295
0.5 0.054679781 0.42150772 4294967295
0.5803135 0.26925161 0.52035862 4294967295
0.5 0.20450595 0.42879993 4294967295
0.5 0.0055297012 0.33301759 4294967295
0.5 0.010282639 0.3888799 4294967295
0.5 0.11003134 0.27832794 4294967295
0.5 0.0052840933 0.32214984 4294967295
0.5 0.15433282 0.28744277 4294967295
0.5 0.095119558 0.32284331 4294967295
0.5 0.15981914 0.44424993 4294967295
0.5 0.037179943 0.47758269 4294967295
0.60509026 0.15194266 0.43302402 4294967295
0.5 0.012735136 0.47726518 4294967295
0.5 0.20927659 0.3146382 4294967295
0.5 0.10707106 0.48924357 4294967295
0.5 0.01563419 0.41175085 4294967295
0.5 0.16075128 0.45457232 4294967295
0.5 0.10179594 0.36525723 4294967295
0.5 0.13337223 0.35732564 4294967295
0.5 0.19827481 0.39365488 4294967295
0.5 0.24620554 0.30830616 4294967295
0.58384079 0.25582358 0.33533043 4294967295
0.5 0.13045599 0.32631564 4294967295
0.5 0.038932405 0.47557557 4294967295
0.5 0.14915894 0.44875154 4294967295
0.5 0.16982548 0.4363389 4294967295
0.5 0.17633425 0.46667784 4294967295
0.5 0.014272626 0.43906939 4294967295
0.5 0.19394304 0.47354919 4294967295
0.5 0.0037075798 0.3010141 4294967295
0.5 0.21279277 0.26934177 4294967295
0.55309612 0.26586106 0.42664015 4294967295
0.5 0.22391409 0.31456089 4294967295
0.5 0.23880127 0.35728633 4294967295
0.5 0.17188653 0.43707609 4294967295
0.5 0.00094120053 0.41809207 4294967295
0.5 0.24538223 0.42292401 4294967295
0.5 0.16958171 0.37583822 4294967295
0.5 0.24923964 0.45851409 4294967295
0.5 0.10141377 0.39839858 4294967295
0.5 0.15726566 0.27123925 4294967295
0.52005762 0.10479508 0.35365754 4294967295
0.5 0.23791711 0.34901008 4294967295
0.5 0.022669295 0.43186015 4294967295
0.5 0.072559297 0.27637687 4294967295
0.5 0.23287426 0.28535205 4294967295
0.5 0.045718648 0.44563919 4294967295
0.5 0.1588961 0.26963273 4294967295
0.5 0.010200085 0.39769739 4294967295
0.5 0.12691906 0.43208662 4294967295
0.5 0.084773459 0.37786025 4294967295
0.54060566 0.14078435 0.37076136 4294967295
0.5 0.050784271 0.2697604 4294967295
0.5 0.20599392 0.30002391 4294967295
0.5 0.22827451 0.30740768 4294967295
0.5 0.19842249 0.38554019 4294967295
0.5 0.078646943 0.28315997 4294967295
0.5 0.21914008 0.31656405 4294967295
0.5 0.13217005 0.49180937 4294967295
0.5 0.24842422 0.45472935 4294967295
0.5 0.018186253 0.48129845 4294967295
0.52102309 0.26110449 0.33492798 4294967295
0.5 0.17693767 0.39897752 4294967295
0.5 0.083537631 0.43713775 4294967295
0.5 0.0466749 0.46045667 4294967295
0.5 0.11922436 0.38144836 4294967295
0.5 0.08831694 0.46940306 4294967295
0.5 0.21160406 0.38910121 4294967295
0.5 0.23916346 0.41759795 4294967295
0.5 0.18912512 0.46743798 4294967295
0.5 0.22500566 0.38754761 4294967295
0.50304925 0.10602742 0.30670187 4294967295
0.5 0.17070757 0.32211822 4294967295
0.5 0.12021665 0.3028776 4294967295
0.5 0.063927598 0.36864087 4294967295
0.5 0.0076069674 0.33211386 4294967295
0.5 0.099939331 0.49768838 4294967295
0.5 0.14601876 0.27687699 4294967295
0.5 0.1466659 0.47955638 4294967295
0.5 0.21401474 0.44334081 4294967295
0.5 0.19001307 0.33323911 4294967295
0.55381888 0.12860803 0.33214888 4294967295
0.5 0.052642155 0.28639323 4294967295
0.5 0.16743122 0.2918056 4294967295
0.5 0.20399119 0.35655633 4294967295
0.5 0.0092435749 0.42899686 4294967295
0.5 0.24410395 0.36222172 4294967295
0.5 0.23264943 0.41481152 4294967295
0.5 0.18433994 0.35286608 4294967295
0.5 0.21768914 0.49826753 4294967295
0.5 0.22150695 0.47529611 4294967295
0.54825717 0.12863857 0.36970347 4294967295
0.5 0.22298449 0.47640014 4294967295
0.5 0.098323278 0.36965039 4294967295
0.5 0.20595652 0.31233802 4294967295
0.5 0.062991194 0.39596957 4294967295
0.5 0.14557712 0.38778037 4294967295
0.5 0.1742996 0.44821927 4294967295
0.5 0.17417358 0.3417308 4294967295
0.5 0.24002488 0.37816477 4294967295
0.5 0.19828714 0.49926847 4294967295
0.5147382 0.071899794 0.4571293 4294967295
0.5 0.11149018 0.28981104 4294967295
0.5 0.10720261 0.2958301 4294967295
0.5 0.14267713 0.32489175 4294967295
0.5 0.044097651 0.36418408 4294967295
0.5 0.050187856 0.37447906 4294967295
0.5 0.18563037 0.27317235 4294967295
0.5 0.10087918 0.28395364 4294967295
0.5 0.14282273 0.30683571 4294967295
0.5 0.096291654 0.45581391 4294967295
0.52131051 0.22411579 0.5131793 4294967295
0.5 0.093594275 0.37710488 4294967295
0.5 0.19008805 0.26776785 4294967295
0.5 0.2188357 0.43011293 4294967295
0.5 0.14593261 0.41712284 4294967295
0.5 0.17938139 0.45309421 4294967295
0.5 0.10951393 0.29087156 4294967295
0.5 0.24290526 0.46671653 4294967295
0.5 0.086701676 0.38558239 4294967295
0.5 0.041608289 0.38079932 4294967295
0.56051737 0.31028387 0.40231356 4294967295
0.5 0.0052783713 0.43539685 4294967295
0.5 0.11496849 0.35615754 4294967295
0.5 0.21935047 0.25779122 4294967295
0.5 0.16299327 0.31564212 4294967295
0.5 0.21360514 0.36579856 4294967295
0.5 0.057510909 0.30719942 4294967295
0.5 0.24290346 0.49759895 4294967295
0.5 0.074967273 0.46173915 4294967295
0.5 0.17771189 0.47089988 4294967295
0.52897561 0.15783758 0.38606885 4294967295
0.5 0.17399411 0.48837593 4294967295
0.5 0.14796484 0.41689935 4294967295
0.5 0.20509247 0.48466653 4294967295
0.5 0.052481744 0.49670076 4294967295
0.5 0.11546585 0.30224821 4294967295
0.5 0.088496909 0.37074423 4294967295
0.5 0.23764506 0.4534654 4294967295
0.5 0.22690177 0.45699555 4294967295
0.5 0.21125661 0.38989502 4294967295
0.56759197 0.090229601 0.49245366 4294967295
0.5 0.005693607 0.33014858 4294967295
0.5 0.23206116 0.49859709 4294967295
0.5 0.077747524 0.30702844 4294967295
0.5 0.21033622 0.25545943 4294967295
0.5 0.027928317 0.33919823 4294967295
0.5 0.11255269 0.45192242 4294967295
0.5 0.077574156 0.26051754 4294967295
0.5 0.11882178 0.28266662 4294967295
0.5 0.24518405 0.42130351 4294967295
0.59480655 0.12417396 0.45545647 4294967295
0.5 0.22355174 0.36786431 4294967295
0.5 0.23139411 0.46119678 4294967295
0.5 0.071329698 0.45829588 4294967295
0.5 0.16819233 0.28258631 4294967295
0.5 0.098190933 0.44082999 4294967295
0.5 0.20744805 0.35388455 4294967295
0.5 0.020978561 0.43950921 4294967295
0.5 0.1024816 0.34872609 4294967295
0.5 0.24653764 0.31281781 4294967295
0.55188257 0.1560681 0.32634857 4294967295
0.5 0.15201604 0.46673819 4294967295
0.5 0.22638838 0.47959021 4294967295
0.5 0.22725573 0.34521016 4294967295
0.5 0.012256834 0.47243977 4294967295
0.5 0.016513687 0.29162422 4294967295
0.5 0.083089679 0.49006543 4294967295
0.5 0.15948853 0.31448379 4294967295
0.5 0.20126222 0.48081821 4294967295
0.5 0.022779681 0.36945456 4294967295
0.55442619 0.067830697 0.42539677 4294967295
0.5 0.060284536 0.47085258 4294967295
0.5 0.22485515 0.3312631 4294967295
0.5 0.1603618 0.32733676 4294967295
0.5 0.17998919 0.40689945 4294967295
0.5 0.14015457 0.28417468 4294967295
0.5 0.1813654 0.29217061 4294967295
0.5 0.00091288483 0.40775377 4294967295
0.5 0.021760831 0.47816861 4294967295
0.5 0.0029639485 0.28401765 4294967295
0.56123537 0.26184374 0.33071297 4294967295
0.5 0.075641893 0.28369808 4294967295
0.5 0.0095430622 0.48513043 4294967295
0.5 0.098181866 0.4608053 4294967295
0.5 0.21594864 0.37096155 4294967295
0.5 0.08025983 0.47935319 4294967295
0.5 0.24193215 0.39054435 4294967295
0.5 0.20020576 0.46678731 4294967295
0.5 0.22180746 0.36056754 4294967295
0.5 0.044124059 0.40179664 4294967295
0.59851563 0.11598259 0.53279424 4294967295
0.5 0.18597135 0.44883239 4294967295
0.5 0.22644927 0.43688422 4294967295
0.5 0.10658618 0.4982101 4294967295
0.5 0.16505285 0.35955012 4294967295
0.5 0.032227762 0.36566123 4294967295
0.5 0.12902777 0.35786965 4294967295
0.5 0.14935932 0.38857085 4294967295
0.5 0.093000077 0.49754119 4294967295
0.5 0.099376112 0.30894873 4294967295
0.53076559 0.14926828 0.46040151 4294967295
0.5 0.038301893 0.36043489 4294967295
0.5 0.070180312 0.48850763 4294967295
0.5 0.077222183 0.29198778 4294967295
0.5 0.099075191 0.37134624 4294967295
0.5 0.19378443 0.36654219 4294967295
0.5 0.055624884 0.3797558 4294967295
0.5 0.065374576 0.28207415 4294967295
0.5 0.066640005 0.42196077 4294967295
0.5 0.030284245 0.48169285 4294967295
0.53479332 0.066304192 0.3473053 4294967295
0.5 0.097354084 0.41053867 4294967295
0.5 0.17038167 0.4967134 4294967295
0.5 0.049109481 0.26338172 4294967295
0.5 0.24425457 0.3984856 4294967295
0.5 0.072330453 0.3627573 4294967295
0.5 0.078121535 0.36063236 4294967295
0.5 0.22319217 0.39830184 4294967295
0.5 0.099139988 0.30041435 4294967295
0.5 0.19028963 0.44821519 4294967295
0.55440396 0.22616453 0.43847799 4294967295
0.5 0.064757369 0.47738549 4294967295
0.5 0.013829845 0.38013196 4294967295
0.5 0.0094596352 0.33046985 4294967295
0.5 0.052092701 0.28974387 4294967295
0.5 0.062162705 0.33360359 4294967295
0.5 0.10225589 0.40951681 4294967295
0.5 0.24414225 0.27263755 4294967295
0.5 0.15623018 0.29325172 4294967295
0.5 0.036019281 0.40048474 4294967295
0.57167262 0.26340991 0.43002236 4294967295
0.5 0.013242046 0.26985884 4294967295
0.5 0.21898209 0.48643422 4294967295
0.5 0.16816069 0.31812206 4294967295
0.5 0.036848567 0.35845032 4294967295
0.5 0.016337251 0.45860916 4294967295
0.5 0.24252439 0.33109462 4294967295
0.5 0.18599465 0.25635424 4294967295
0.5 0.21122657 0.4454543 4294967295
0.5 0.086824089 0.26331925 4294967295
0.55794311 0.29314128 0.45692989 4294967295
0.5 0.09692286 0.33745405 4294967295
0.5 0.058503583 0.34106511 4294967295
0.5 0.1100916 0.46473378 4294967295
0.5 0.13431682 0.39611089 4294967295
0.5 0.11521853 0.32605416 4294967295
0.5 0.0044606226 0.37846059 4294967295
0.5 0.095912986 0.4734427 4294967295
0.5 0.11489479 0.26407367 4294967295
0.35784283 0.45957762 0.25 4294967295
0.34816712 0.55357838 0.32292995 4294967295
0.3492687 0.40944618 0.25 4294967295
0.44290161 0.45927191 0.25 4294967295
0.48021448 0.26332575 0.25 4294967295
0.47519088 0.3220399 0.25 4294967295
0.31550676 0.4391551 0.25 4294967295
0.35406548 0.25813913 0.25 4294967295
0.49633145 0.45170888 0.25 4294967295
0.380611 0.41785407 0.25 4294967295
0.33826071 0.41969183 0.25 4294967295
0.46966171 0.44166553 0.36367464 4294967295
0.40918142 0.30991206 0.25 4294967295
0.31154531 0.28514409 0.25 4294967295
0.28154263 0.29610348 0.25 4294967295
0.3676326 0.38938546 0.25 4294967295
0.2556811 0.39286977 0.25 4294967295
0.37003392 0.3549498 0.25 4294967295
0.30231598 0.3129355 0.25 4294967295
0.31422168 0.28253046 0.25 4294967295
0.32626125 0.28941256 0.25 4294967295
0.39876455 0.43596223 0.29419419 4294967295
0.47856766 0.45863584 0.25 4294967295
0.39990717 0.47489911 0.25 4294967295
0.41034472 0.28051817 0.25 4294967295
0.39275321 0.49860543 0.25 4294967295
0.45020998 0.49874032 0.25 4294967295
0.32659632 0.35939142 0.25 4294967295
0.30865234 0.38814166 0.25 4294967295
0.39453554 0.340195 0.25 4294967295
0.43424517 0.26216811 0.25 4294967295
0.51745498 0.47780079 0.28787452 4294967295
0.40503788 0.34961432 0.25 4294967295
0.29487607 0.45735389 0.25 4294967295
0.41254985 0.35909778 0.25 4294967295
0.48988432 0.48881108 0.25 4294967295
0.39851034 0.34445468 0.25 4294967295
0.38057911 0.377078 0.25 4294967295
0.30309051 0.28048626 0.25 4294967295
0.35197714 0.46343523 0.25 4294967295
0.31100443 0.49473035 0.25 4294967295
0.54754883 0.34672257 0.33550814 4294967295
0.49347064 0.28863701 0.25 4294967295
0.37060586 0.30212301 0.25 4294967295
0.42677867 0.26514137 0.25 4294967295
0.39231801 0.36102384 0.25 4294967295
0.27730951 0.37189841 0.25 4294967295
0.30095008 0.43234739 0.25 4294967295
0.47151276 0.34582615 0.25 4294967295
0.38970125 0.38406259 0.25 4294967295
0.45492393 0.37958556 0.25 4294967295
0.43300775 0.41356835 0.31013408 4294967295
0.47404027 0.25345278 0.25 4294967295
0.48051226 0.27713075 0.25 4294967295
0.28393906 0.3324894 0.25 4294967295
0.49056602 0.34494349 0.25 4294967295
0.32721975 0.45260668 0.25 4294967295
0.35615793 0.32069039 0.25 4294967295
0.49124369 0.47676378 0.25 4294967295
0.3728134 0.41802239 0.25 4294967295
0.49190515 0.26513141 0.25 4294967295
0.29063481 0.28080326 0.2615886 4294967295
0.38702983 0.32999629 0.25 4294967295
0.45156205 0.35854259 0.25 4294967295
0.42582247 0.34126332 0.25 4294967295
0.49260518 0.38074636 0.25 4294967295
0.47084892 0.36547887 0.25 4294967295
0.48418063 0.44488913 0.25 4294967295
0.36893165 0.46469289 0.25 4294967295
0.47201991 0.40287071 0.25 4294967295
0.29718232 0.4625859 0.25 4294967295
0.53399855 0.41058642 0.28618434 4294967295
0.41519257 0.35397211 0.25 4294967295
0.4450925 0.40643626 0.25 4294967295
0.33073589 0.3179059 0.25 4294967295
0.32445866 0.32264104 0.25 4294967295
0.33303729 0.35350487 0.25 4294967295
0.3418557 0.47006711 0.25 4294967295
0.43350118 0.29341775 0.25 4294967295
0.3286097 0.35932362 0.25 4294967295
0.38468108 0.32121488 0.25 4294967295
0.49512106 0.36058104 0.25505108 4294967295
0.43669373 0.47425064 0.25 4294967295
0.30041912 0.30562538 0.25 4294967295
0.43894356 0.272439 0.25 4294967295
0.45849609 0.48612589 0.25 4294967295
0.48502493 0.45631027 0.25 4294967295
0.36052793 0.40021747 0.25 4294967295
0.31028241 0.30562043 0.25 4294967295
0.30665377 0.39101827 0.25 4294967295
0.37352633 0.38111243 0.25 4294967295
0.52244723 0.51535147 0.30878785 4294967295
0.48461729 0.30551505 0.25 4294967295
0.42663074 0.41811845 0.25 4294967295
0.3489328 0.25524044 0.25 4294967295
0.27744207 0.48361388 0.25 4294967295
0.32645532 0.26751208 0.25 4294967295
0.33914387 0.26314905 0.25 4294967295
0.49176273 0.38956296 0.25 4294967295
0.31877446 0.43070629 0.25 4294967295
0.41200197 0.27727056 0.25 4294967295
0.46470472 0.44489947 0.29787257 4294967295
0.48358083 0.27736011 0.25 4294967295
0.29724437 0.29386324 0.25 4294967295
0.33298054 0.35389817 0.25 4294967295
0.43488151 0.45650688 0.25 4294967295
0.48501056 0.39854085 0.25 4294967295
0.4130705 0.46962786 0.25 4294967295
0.45405591 0.33970124 0.25 4294967295
0.38774633 0.30298874 0.25 4294967295
0.34494168 0.4151884 0.25 4294967295
0.30237389 0.43716824 0.26577127 4294967295
0.43270048 0.37574649 0.25 4294967295
0.43454605 0.42446321 0.25 4294967295
0.26530942 0.25332052 0.25 4294967295
0.3551695 0.42731142 0.25 4294967295
0.28059104 0.27200165 0.25 4294967295
0.32433832 0.26417187 0.25 4294967295
0.29936177 0.37158269 0.25 4294967295
0.30803511 0.38234231 0.25 4294967295
0.47548085 0.49291661 0.25 4294967295
0.36549625 0.48713848 0.27664706 4294967295
0.3914575 0.25191969 0.25 4294967295
0.43011928 0.3455134 0.25 4294967295
0.34162092 0.31786561 0.25 4294967295
0.39850211 0.4365626 0.25 4294967295
0.48305398 0.43510473 0.25 4294967295
0.35795957 0.4157545 0.25 4294967295
0.31085122 0.29250562 0.25 4294967295
0.34021771 0.32616067 0.25 4294967295
0.29582614 0.44538718 0.25 4294967295
0.25438708 0.3273322 0.25091502 4294967295
0.46738887 0.32781038 0.25 4294967295
0.34058905 0.26675063 0.25 4294967295
0.44939306 0.39862412 0.25 4294967295
0.39909294 0.42487389 0.25 4294967295
0.39154077 0.48794213 0.25 4294967295
0.38536531 0.28299823 0.25 4294967295
0.48986179 0.31548458 0.25 4294967295
0.37851161 0.33148271 0.25 4294967295
0.38335019 0.27701375 0.25 4294967295
0.32158351 0.41994238 0.3035382 4294967295
0.46211851 0.37600487 0.25 4294967295
0.28215867 0.27296972 0.25 4294967295
0.4185105 0.37237638 0.25 4294967295
0.34913036 0.46433663 0.25 4294967295
0.31776357 0.35260242 0.25 4294967295
0.29075381 0.28515244 0.25 4294967295
0.43041283 0.38134283 0.25 4294967295
0.30190307 0.37980586 0.25 4294967295
0.27996698 0.45099598 0.25 4294967295
0.39747736 0.51430529 0.34279758 4294967295
0.43893814 0.44004512 0.25 4294967295
0.45450595 0.42879993 0.25 4294967295
0.2555297 0.33301759 0.25 4294967295
0.26028264 0.3888799 0.25 4294967295
0.36003134 0.27832794 0.25 4294967295
0.2552841 0.32214984 0.25 4294967295
0.40433282 0.28744277 0.25 4294967295
0.34511957 0.32284331 0.25 4294967295
0.40981913 0.44424993 0.25 4294967295
0.30884817 0.49925092 0.27166823 4294967295
0.29685238 0.32793373 0.25 4294967295
0.26273513 0.47726518 0.25 4294967295
0.45927659 0.3146382 0.25 4294967295
0.35707107 0.48924357 0.25 4294967295
0.26563418 0.41175085 0.25 4294967295
0.41075128 0.45457232 0.25 4294967295
0.35179594 0.36525723 0.25 4294967295
0.38337225 0.35732564 0.25 4294967295
0.44827479 0.39365488 0.25 4294967295
0.60142004 0.41352066 0.35521451 4294967295
0.42198282 0.25148964 0.25 4294967295
0.38045597 0.32631564 0.25 4294967295
0.28893241 0.47557557 0.25 4294967295
0.39915895 0.44875154 0.25 4294967295
0.41982549 0.4363389 0.25 4294967295
0.42633426 0.46667784 0.25 4294967295
0.26427263 0.43906939 0.25 4294967295
0.44394302 0.47354919 0.25 4294967295
0.25370759 0.3010141 0.25 4294967295
0.49681899 0.303368 0.28402624 4294967295
0.46276495 0.37354404 0.25 4294967295
0.47391409 0.31456089 0.25 4294967295
0.48880127 0.35728633 0.25 4294967295
0.42188653 0.43707609 0.25 4294967295
0.25094119 0.41809207 0.25 4294967295
0.49538225 0.42292401 0.25 4294967295
0.41958171 0.37583822 0.25 4294967295
0.49923962 0.45851409 0.25 4294967295
0.35141379 0.39839858 0.25 4294967295
0.43125266 0.29522625 0.273987 4294967295
0.33473748 0.33359993 0.25 4294967295
0.48791713 0.34901008 0.25 4294967295
0.27266929 0.43186015 0.25 4294967295
0.3225593 0.27637687 0.25 4294967295
0.48287427 0.28535205 0.25 4294967295
0.29571864 0.44563919 0.25 4294967295
0.40889609 0.26963273 0.25 4294967295
0.26020008 0.39769739 0.25 4294967295
0.37691906 0.43208662 0.25 4294967295
0.35053468 0.39362147 0.26576123 4294967295
0.35017869 0.3301557 0.25 4294967295
0.30078426 0.2697604 0.25 4294967295
0.45599392 0.30002391 0.25 4294967295
0.47827452 0.30740768 0.25 4294967295
0.44842249 0.38554019 0.25 4294967295
0.32864696 0.28315997 0.25 4294967295
0.46914008 0.31656405 0.25 4294967295
0.38217005 0.49180937 0.25 4294967295
0.49842423 0.45472935 0.25 4294967295
0.33857742 0.55168962 0.32039118 4294967295
0.49008143 0.31390488 0.25 4294967295
0.42693767 0.39897752 0.25 4294967295
0.33353764 0.43713775 0.25 4294967295
0.29667491 0.46045667 0.25 4294967295
0.36922437 0.38144836 0.25 4294967295
0.33831695 0.46940306 0.25 4294967295
0.46160406 0.38910121 0.25 4294967295
0.48916346 0.41759795 0.25 4294967295
0.43912512 0.46743798 0.25 4294967295
0.55995804 0.4725 0.33495238 4294967295
0.35297814 0.30365258 0.25 4294967295
0.42070758 0.32211822 0.25 4294967295
0.37021667 0.3028776 0.25 4294967295
0.31392759 0.36864087 0.25 4294967295
0.25760695 0.33211386 0.25 4294967295
0.34993935 0.49768838 0.25 4294967295
0.39601874 0.27687699 0.25 4294967295
0.3966659 0.47955638 0.25 4294967295
0.46401474 0.44334081 0.25 4294967295
0.52819985 0.42142591 0.3381868 4294967295
0.32478917 0.27833 0.25 4294967295
0.30264217 0.28639323 0.25 4294967295
0.41743124 0.2918056 0.25 4294967295
0.45399117 0.35655633 0.25 4294967295
0.25924358 0.42899686 0.25 4294967295
0.49410397 0.36222172 0.25 4294967295
0.48264945 0.41481152 0.25 4294967295
0.43433994 0.35286608 0.25 4294967295
0.46768916 0.49826753 0.25 4294967295
0.55463183 0.55842102 0.33312488 4294967295
0.33038139 0.3214463 0.25 4294967295
0.47298449 0.47640014 0.25 4294967295
0.34832329 0.36965039 0.25 4294967295
0.45595652 0.31233802 0.25 4294967295
0.3129912 0.39596957 0.25 4294967295
0.39557713 0.38778037 0.25 4294967295
0.4242996 0.44821927 0.25 4294967295
0.42417359 0.3417308 0.25 4294967295
0.49002486 0.37816477 0.25 4294967295
0.52711904 0.57810038 0.32883188 4294967295
0.3071616 0.4423911 0.25 4294967295
0.36149019 0.28981104 0.25 4294967295
0.35720262 0.2958301 0.25 4294967295
0.39267713 0.32489175 0.25 4294967295
0.29409766 0.36418408 0.25 4294967295
0.30018786 0.37447906 0.25 4294967295
0.43563038 0.27317235 0.25 4294967295
0.35087919 0.28395364 0.25 4294967295
0.39282274 0.30683571 0.25 4294967295
0.35782346 0.46734571 0.2615318 4294967295
0.45280528 0.49186879 0.25 4294967295
0.34359428 0.37710488 0.25 4294967295
0.44008803 0.26776785 0.25 4294967295
0.46883571 0.43011293 0.25 4294967295
0.39593261 0.41712284 0.25 4294967295
0.42938137 0.45309421 0.25 4294967295
0.35951394 0.29087156 0.25 4294967295
0.49290526 0.46671653 0.25 4294967295
0.33670169 0.38558239 0.25 4294967295
0.38922375 0.4784148 0.34761548 4294967295
0.49976647 0.34179616 0.25 4294967295
0.25527838 0.43539685 0.25 4294967295
0.36496848 0.35615754 0.25 4294967295
0.46935046 0.25779122 0.25 4294967295
0.41299325 0.31564212 0.25 4294967295
0.46360514 0.36579856 0.25 4294967295
0.30751091 0.30719942 0.25 4294967295
0.49290347 0.49759895 0.25 4294967295
0.32496727 0.46173915 0.25 4294967295
0.47412816 0.5173161 0.29641625 4294967295
0.37886199 0.35709327 0.25 4294967295
0.42399412 0.48837593 0.25 4294967295
0.39796484 0.41689935 0.25 4294967295
0.45509249 0.48466653 0.25 4294967295
0.30248174 0.49670076 0.25 4294967295
0.36546585 0.30224821 0.25 4294967295
0.33849692 0.37074423 0.25 4294967295
0.48764506 0.4534654 0.25 4294967295
0.47690177 0.45699555 0.25 4294967295
0.47722843 0.40586683 0.26597181 4294967295
0.27263767 0.42486173 0.25 4294967295
0.25569361 0.33014858 0.25 4294967295
0.48206115 0.49859709 0.25 4294967295
0.32774752 0.30702844 0.25 4294967295
0.46033621 0.25545943 0.25 4294967295
0.27792832 0.33919823 0.25 4294967295
0.3625527 0.45192242 0.25 4294967295
0.32757416 0.26051754 0.25 4294967295
0.36882177 0.28266662 0.25 4294967295
0.53917295 0.46529236 0.29398885 4294967295
0.27936739 0.36064988 0.25 4294967295
0.47355175 0.36786431 0.25 4294967295
0.48139411 0.46119678 0.25 4294967295
0.32132971 0.45829588 0.25 4294967295
0.41819233 0.28258631 0.25 4294967295
0.34819093 0.44082999 0.25 4294967295
0.45744807 0.35388455 0.25 4294967295
0.27097857 0.43950921 0.25 4294967295
0.3524816 0.34872609 0.25 4294967295
0.60640424 0.42268446 0.35986665 4294967295
0.35418552 0.27446598 0.25 4294967295
0.40201604 0.46673819 0.25 4294967295
0.47638839 0.47959021 0.25 4294967295
0.47725573 0.34521016 0.25 4294967295
0.26225683 0.47243977 0.25 4294967295
0.26651368 0.29162422 0.25 4294967295
0.33308968 0.49006543 0.25 4294967295
0.40948853 0.31448379 0.25 4294967295
0.45126224 0.48081821 0.25 4294967295
0.35550803 0.45218292 0.33272836 4294967295
0.26340452 0.37097061 0.25 4294967295
0.31028453 0.47085258 0.25 4294967295
0.47485515 0.3312631 0.25 4294967295
0.4103618 0.32733676 0.25 4294967295
0.42998919 0.40689945 0.25 4294967295
0.39015457 0.28417468 0.25 4294967295
0.4313654 0.29217061 0.25 4294967295
0.25091287 0.40775377 0.25 4294967295
0.27176082 0.47816861 0.25 4294967295
0.26577887 0.29683256 0.26281491 4294967295
0.45060837 0.26947764 0.25 4294967295
0.3256419 0.28369808 0.25 4294967295
0.25954306 0.48513043 0.25 4294967295
0.34818187 0.4608053 0.25 4294967295
0.46594864 0.37096155 0.25 4294967295
0.33025983 0.47935319 0.25 4294967295
0.49193215 0.39054435 0.25 4294967295
0.45020574 0.46678731 0.25 4294967295
0.47180748 0.36056754 0.25 4294967295
0.322537 0.43020958 0.27841294 4294967295
0.26746699 0.43427864 0.25 4294967295
0.43597135 0.44883239 0.25 4294967295
0.47644925 0.43688422 0.25 4294967295
0.35658619 0.4982101 0.25 4294967295
0.41505283 0.35955012 0.25 4294967295
0.28222775 0.36566123 0.25 4294967295
0.37902778 0.35786965 0.25 4294967295
0.39935932 0.38857085 0.25 4294967295
0.34300008 0.49754119 0.25 4294967295
0.35323942 0.31281203 0.2538633 4294967295
0.36850274 0.42963594 0.25 4294967295
0.28830189 0.36043489 0.25 4294967295
0.3201803 0.48850763 0.25 4294967295
0.32722217 0.29198778 0.25 4294967295
0.3490752 0.37134624 0.25 4294967295
0.44378442 0.36654219 0.25 4294967295
0.30562487 0.3797558 0.25 4294967295
0.31537458 0.28207415 0.25 4294967295
0.31664002 0.42196077 0.25 4294967295
0.28460395 0.48601255 0.2543197 4294967295
0.28151089 0.31251201 0.25 4294967295
0.34735408 0.41053867 0.25 4294967295
0.42038167 0.4967134 0.25 4294967295
0.29910949 0.26338172 0.25 4294967295
0.49425459 0.3984856 0.25 4294967295
0.32233045 0.3627573 0.25 4294967295
0.32812154 0.36063236 0.25 4294967295
0.47319216 0.39830184 0.25 4294967295
0.34913999 0.30041435 0.25 4294967295
0.49553666 0.5034622 0.30524704 4294967295
0.42176062 0.38407406 0.25 4294967295
0.31475738 0.47738549 0.25 4294967295
0.26382986 0.38013196 0.25 4294967295
0.25945964 0.33046985 0.25 4294967295
0.3020927 0.28974387 0.25 4294967295
0.3121627 0.33360359 0.25 4294967295
0.35225588 0.40951681 0.25 4294967295
0.49414223 0.27263755 0.25 4294967295
0.40623018 0.29325172 0.25 4294967295
0.35323766 0.46770313 0.31721839 4294967295
0.44173729 0.35834974 0.25 4294967295
0.26324204 0.26985884 0.25 4294967295
0.4689821 0.48643422 0.25 4294967295
0.41816068 0.31812206 0.25 4294967295
0.28684857 0.35845032 0.25 4294967295
0.26633725 0.45860916 0.25 4294967295
0.49252439 0.33109462 0.25 4294967295
0.43599465 0.25635424 0.25 4294967295
0.46122658 0.4454543 0.25 4294967295
0.39041859 0.31691375 0.3035945 4294967295
0.48519817 0.39898679 0.25 4294967295
0.34692287 0.33745405 0.25 4294967295
0.30850357 0.34106511 0.25 4294967295
0.3600916 0.46473378 0.25 4294967295
0.3843168 0.39611089 0.25 4294967295
0.36521852 0.32605416 0.25 4294967295
0.25446063 0.37846059 0.25 4294967295
0.34591299 0.4734427 0.25 4294967295
0.36489481 0.26407367 0.25 4294967295
0.42769015 0.31984732 0.52942491 4294967295
0.27523717 0.25 0.48064846 4294967295
0.3492687 0.25 0.40944618 4294967295
0.44290161 0.25 0.45927191 4294967295
0.48021448 0.25 0.26332575 4294967295
0.47519088 0.25 0.3220399 4294967295
0.31550676 0.25 0.4391551 4294967295
0.35406548 0.25 0.25813913 4294967295
0.49633145 0.25 0.45170888 4294967295
0.380611 0.25 0.41785407 4294967295
0.40065041 0.3123897 0.48208153 4294967295
0.35598707 0.25 0.32799089 4294967295
0.40918142 0.25 0.30991206 4294967295
0.31154531 0.25 0.28514409 4294967295
0.28154263 0.25 0.29610348 4294967295
0.3676326 0.25 0.38938546 4294967295
0.2556811 0.25 0.39286977 4294967295
0.37003392 0.25 0.3549498 4294967295
0.30231598 0.25 0.3129355 4294967295
0.31422168 0.25 0.28253046 4294967295
0.42584676 0.3495855 0.38899806 4294967295
0.35457036 0.25 0.39176804 4294967295
0.47856766 0.25 0.45863584 4294967295
0.39990717 0.25 0.47489911 4294967295
0.41034472 0.25 0.28051817 4294967295
0.39275321 0.25 0.49860543 4294967295
0.45020998 0.25 0.49874032 4294967295
0.32659632 0.25 0.35939142 4294967295
0.30865234 0.25 0.38814166 4294967295
0.39453554 0.25 0.340195 4294967295
0.55403382 0.36978865 0.38195676 4294967295
0.47958043 0.25 0.43992627 4294967295
0.40503788 0.25 0.34961432 4294967295
0.29487607 0.25 0.45735389 4294967295
0.41254985 0.25 0.35909778 4294967295
0.48988432 0.25 0.48881108 4294967295
0.39851034 0.25 0.34445468 4294967295
0.38057911 0.25 0.377078 4294967295
0.30309051 0.25 0.28048626 4294967295
0.35197714 0.25 0.46343523 4294967295
0.33517295 0.27416852 0.5188989 4294967295
0.46204066 0.25 0.26121444 4294967295
0.49347064 0.25 0.28863701 4294967295
0.37060586 0.25 0.30212301 4294967295
0.42677867 0.25 0.26514137 4294967295
0.39231801 0.25 0.36102384 4294967295
0.27730951 0.25 0.37189841 4294967295
0.30095008 0.25 0.43234739 4294967295
0.47151276 0.25 0.34582615 4294967295
0.38970125 0.25 0.38406259 4294967295
0.46801969 0.26309577 0.39268133 4294967295
0.37287366 0.25 0.35343426 4294967295
0.47404027 0.25 0.25345278 4294967295
0.48051226 0.25 0.27713075 4294967295
0.28393906 0.25 0.3324894 4294967295
0.49056602 0.25 0.34494349 4294967295
0.32721975 0.25 0.45260668 4294967295
0.35615793 0.25 0.32069039 4294967295
0.49124369 0.25 0.47676378 4294967295
0.3728134 0.25 0.41802239 4294967295
0.49893689 0.25703174 0.27216315 4294967295
0.27904621 0.25 0.26921466 4294967295
0.38702983 0.25 0.32999629 4294967295
0.45156205 0.25 0.35854259 4294967295
0.42582247 0.25 0.34126332 4294967295
0.49260518 0.25 0.38074636 4294967295
0.47084892 0.25 0.36547887 4294967295
0.48418063 0.25 0.44488913 4294967295
0.36893165 0.25 0.46469289 4294967295
0.47201991 0.25 0.40287071 4294967295
0.31611317 0.26893085 0.48151675 4294967295
0.49781418 0.25 0.37440208 4294967295
0.41519257 0.25 0.35397211 4294967295
0.4450925 0.25 0.40643626 4294967295
0.33073589 0.25 0.3179059 4294967295
0.32445866 0.25 0.32264104 4294967295
0.33303729 0.25 0.35350487 4294967295
0.3418557 0.25 0.47006711 4294967295
0.43350118 0.25 0.29341775 4294967295
0.3286097 0.25 0.35932362 4294967295
0.49725583 0.36257476 0.43378964 4294967295
0.49006999 0.25 0.35552996 4294967295
0.43669373 0.25 0.47425064 4294967295
0.30041912 0.25 0.30562538 4294967295
0.43894356 0.25 0.272439 4294967295
0.45849609 0.25 0.48612589 4294967295
0.48502493 0.25 0.45631027 4294967295
0.36052793 0.25 0.40021747 4294967295
0.31028241 0.25 0.30562043 4294967295
0.30665377 0.25 0.39101827 4294967295
0.46861097 0.34508464 0.47619706 4294967295
0.46365935 0.25 0.45656362 4294967295
0.48461729 0.25 0.30551505 4294967295
0.42663074 0.25 0.41811845 4294967295
0.3489328 0.25 0.25524044 4294967295
0.27744207 0.25 0.48361388 4294967295
0.32645532 0.25 0.26751208 4294967295
0.33914387 0.25 0.26314905 4294967295
0.49176273 0.25 0.38956296 4294967295
0.31877446 0.25 0.43070629 4294967295
0.48449892 0.32249695 0.34976751 4294967295
0.41683215 0.25 0.3970269 4294967295
0.48358083 0.25 0.27736011 4294967295
0.29724437 0.25 0.29386324 4294967295
0.33298054 0.25 0.35389817 4294967295
0.43488151 0.25 0.45650688 4294967295
0.48501056 0.25 0.39854085 4294967295
0.4130705 0.25 0.46962786 4294967295
0.45405591 0.25 0.33970124 4294967295
0.38774633 0.25 0.30298874 4294967295
0.39160788 0.2966662 0.46185461 4294967295
0.28660262 0.25 0.42139697 4294967295
0.43270048 0.25 0.37574649 4294967295
0.43454605 0.25 0.42446321 4294967295
0.26530942 0.25 0.25332052 4294967295
0.3551695 0.25 0.42731142 4294967295
0.28059104 0.25 0.27200165 4294967295
0.32433832 0.25 0.26417187 4294967295
0.29936177 0.25 0.37158269 4294967295
0.30803511 0.25 0.38234231 4294967295
0.52752358 0.30204272 0.54495937 4294967295
0.33884919 0.25 0.46049142 4294967295
0.3914575 0.25 0.25191969 4294967295
0.43011928 0.25 0.3455134 4294967295
0.34162092 0.25 0.31786561 4294967295
0.39850211 0.25 0.4365626 4294967295
0.48305398 0.25 0.43510473 4294967295
0.35795957 0.25 0.4157545 4294967295
0.31085122 0.25 0.29250562 4294967295
0.34021771 0.25 0.32616067 4294967295
0.3309468 0.28512067 0.48050785 4294967295
0.25347206 0.25 0.32641718 4294967295
0.46738887 0.25 0.32781038 4294967295
0.34058905 0.25 0.26675063 4294967295
0.44939306 0.25 0.39862412 4294967295
0.39909294 0.25 0.42487389 4294967295
0.39154077 0.25 0.48794213 4294967295
0.38536531 0.25 0.28299823 4294967295
0.48986179 0.25 0.31548458 4294967295
0.37851161 0.25 0.33148271 4294967295
0.40535119 0.272001 0.29901475 4294967295
0.26804531 0.25 0.36640418 4294967295
0.46211851 0.25 0.37600487 4294967295
0.28215867 0.25 0.27296972 4294967295
0.4185105 0.25 0.37237638 4294967295
0.34913036 0.25 0.46433663 4294967295
0.31776357 0.25 0.35260242 4294967295
0.29075381 0.25 0.28515244 4294967295
0.43041283 0.25 0.38134283 4294967295
0.30190307 0.25 0.37980586 4294967295
0.31983107 0.28986409 0.49086007 4294967295
0.30467978 0.25 0.42150772 4294967295
0.43893814 0.25 0.44004512 4294967295
0.45450595 0.25 0.42879993 4294967295
0.2555297 0.25 0.33301759 4294967295
0.26028264 0.25 0.3888799 4294967295
0.36003134 0.25 0.27832794 4294967295
0.2552841 0.25 0.32214984 4294967295
0.40433282 0.25 0.28744277 4294967295
0.34511957 0.25 0.32284331 4294967295
0.50437027 0.34455115 0.53880107 4294967295
0.28717995 0.25 0.47758269 4294967295
0.29685238 0.25 0.32793373 4294967295
0.26273513 0.25 0.47726518 4294967295
0.45927659 0.25 0.3146382 4294967295
0.35707107 0.25 0.48924357 4294967295
0.26563418 0.25 0.41175085 4294967295
0.41075128 0.25 0.45457232 4294967295
0.35179594 0.25 0.36525723 4294967295
0.38337225 0.25 0.35732564 4294967295
0.492865 0.2945902 0.43824509 4294967295
0.49620554 0.25 0.30830616 4294967295
0.42198282 0.25 0.25148964 4294967295
0.38045597 0.25 0.32631564 4294967295
0.28893241 0.25 0.47557557 4294967295
0.39915895 0.25 0.44875154 4294967295
0.41982549 0.25 0.4363389 4294967295
0.42633426 0.25 0.46667784 4294967295
0.26427263 0.25 0.43906939 4294967295
0.44394302 0.25 0.47354919 4294967295
0.27038908 0.26668149 0.31769559 4294967295
0.46279275 0.25 0.26934177 4294967295
0.46276495 0.25 0.37354404 4294967295
0.47391409 0.25 0.31456089 4294967295
0.48880127 0.25 0.35728633 4294967295
0.42188653 0.25 0.43707609 4294967295
0.25094119 0.25 0.41809207 4294967295
0.49538225 0.25 0.42292401 4294967295
0.41958171 0.25 0.37583822 4294967295
0.49923962 0.25 0.45851409 4294967295
0.46426943 0.36285564 0.51125425 4294967295
0.40726566 0.25 0.27123925 4294967295
0.33473748 0.25 0.33359993 4294967295
0.48791713 0.25 0.34901008 4294967295
0.27266929 0.25 0.43186015 4294967295
0.3225593 0.25 0.27637687 4294967295
0.48287427 0.25 0.28535205 4294967295
0.29571864 0.25 0.44563919 4294967295
0.40889609 0.25 0.26963273 4294967295
0.26020008 0.25 0.39769739 4294967295
0.43842566 0.3115066 0.49359322 4294967295
0.33477345 0.25 0.37786025 4294967295
0.35017869 0.25 0.3301557 4294967295
0.30078426 0.25 0.2697604 4294967295
0.45599392 0.25 0.30002391 4294967295
0.47827452 0.25 0.30740768 4294967295
0.44842249 0.25 0.38554019 4294967295
0.32864696 0.25 0.28315997 4294967295
0.46914008 0.25 0.31656405 4294967295
