# .PCD v0.7 - Point Cloud Data file format
VERSION 0.7
FIELDS x y z rgba
SIZE 4 4 4 4
TYPE F F F U
COUNT 1 1 1 1
WIDTH 1276
HEIGHT 1
VIEWPOINT 0 0 0 1 0 0 0
POINTS 1276
DATA ascii
0.19939306 0.29724827 0.5 4294967295
0.14909294 0.34974781 0.5 4294967295
0.14154075 0.47588426 0.5 4294967295
0.15829407 0.096835472 0.5 4294967295
0.2398618 0.1309692 0.5 4294967295
0.12851162 0.16296543 0.5 4294967295
0.13335019 0.054027516 0.5 4294967295
0.018045299 0.23280838 0.5 4294967295
0.21211851 0.25200975 0.5 4294967295
0.032158673 0.045939438 0.5 4294967295
0.1685105 0.24475273 0.5 4294967295
0.09913037 0.42867327 0.5 4294967295
0.067763567 0.20520487 0.5 4294967295
0.064641714 0.10962252 0.5 4294967295
0.18041281 0.26268569 0.5 4294967295
0.051903058 0.25961176 0.5 4294967295
0.029966973 0.40199199 0.5 4294967295
0.054679781 0.34301543 0.5 4294967295
0.18893813 0.38009021 0.5 4294967295
0.20450595 0.35759985 0.5 4294967295
0.0055297012 0.16603516 0.5 4294967295
0.010282639 0.27775979 0.5 4294967295
0.11003134 0.056655876 0.5 4294967295
0.030505914 0.17372349 0.50805551 4294967295
0.15433282 0.074885532 0.5 4294967295
0.095119558 0.14568663 0.5 4294967295
0.15981914 0.38849986 0.5 4294967295
0.037179943 0.45516542 0.5 4294967295
0.046852373 0.15586749 0.5 4294967295
0.012735136 0.45453036 0.5 4294967295
0.20927659 0.12927638 0.5 4294967295
0.10707106 0.4784871 0.5 4294967295
0.01563419 0.32350168 0.5 4294967295
0.19997664 0.45249781 0.5 4294967295
0.10179594 0.23051445 0.5 4294967295
0.13337223 0.21465129 0.5 4294967295
0.19827481 0.28730977 0.5 4294967295
0.24620554 0.1166123 0.5 4294967295
0.17198281 0.0029792739 0.5 4294967295
0.13045599 0.15263125 0.5 4294967295
0.038932405 0.4511511 0.5 4294967295
0.14915894 0.39750308 0.5 4294967295
0.16982548 0.37267777 0.5 4294967295
0.2038665 0.46877554 0.5 4294967295
0.014272626 0.37813878 0.5 4294967295
0.19394304 0.4470984 0.5 4294967295
0.0037075798 0.10202821 0.5 4294967295
0.21279277 0.038683541 0.5 4294967295
0.21276495 0.24708809 0.5 4294967295
0.22391409 0.12912177 0.5 4294967295
0.23880127 0.21457265 0.5 4294967295
0.17188653 0.37415215 0.5 4294967295
0.00094120053 0.33618414 0.5 4294967295
0.26234597 0.38311073 0.51169276 4294967295
0.16958171 0.25167644 0.5 4294967295
0.24923964 0.41702822 0.5 4294967295
0.10141377 0.29679716 0.5 4294967295
0.15726566 0.042478513 0.5 4294967295
0.084737465 0.16719982 0.5 4294967295
0.23791711 0.19802018 0.5 4294967295
0.022669295 0.3637203 0.5 4294967295
0.072559297 0.05275375 0.5 4294967295
0.23287426 0.070704132 0.5 4294967295
0.082635529 0.43171215 0.5 4294967295
0.1588961 0.039265461 0.5 4294967295
0.010200085 0.29539475 0.5 4294967295
0.12691906 0.36417323 0.5 4294967295
0.084773459 0.2557205 0.5 4294967295
0.10017869 0.16031139 0.5 4294967295
0.050784271 0.0395208 0.5 4294967295
0.20599392 0.10004783 0.5 4294967295
0.22827451 0.11481537 0.5 4294967295
0.19842249 0.27108034 0.5 4294967295
0.10050357 0.088349365 0.5 4294967295
0.21914008 0.13312811 0.5 4294967295
0.13217005 0.48361877 0.5 4294967295
0.24842422 0.4094587 0.5 4294967295
0.018186253 0.46259692 0.5 4294967295
0.24008141 0.12780979 0.5 4294967295
0.17693767 0.29795504 0.5 4294967295
0.083537631 0.37427551 0.5 4294967295
0.0466749 0.42091337 0.5 4294967295
0.11922436 0.26289672 0.5 4294967295
0.11575937 0.47674873 0.5 4294967295
0.21160406 0.27820241 0.5 4294967295
0.23916346 0.33519593 0.5 4294967295
0.18912512 0.43487594 0.5 4294967295
0.22500566 0.27509522 0.5 4294967295
0.10297814 0.10730519 0.5 4294967295
0.17070757 0.14423645 0.5 4294967295
0.12021665 0.10575524 0.5 4294967295
0.063927598 0.23728172 0.5 4294967295
0.0076069674 0.16422771 0.5 4294967295
0.12659116 0.52671283 0.51169276 4294967295
0.14601876 0.053753983 0.5 4294967295
0.1466659 0.45911276 0.5 4294967295
0.21401474 0.38668162 0.5 4294967295
0.19001307 0.1664782 0.5 4294967295
0.074789166 0.056660008 0.5 4294967295
0.052642155 0.072786435 0.5 4294967295
0.16743122 0.083611213 0.5 4294967295
0.20399119 0.21311267 0.5 4294967295
0.0092435749 0.35799369 0.5 4294967295
0.29476503 0.2503719 0.5 4294967295
0.23264943 0.32962304 0.5 4294967295
0.18433994 0.20573218 0.5 4294967295
0.21768914 0.49653506 0.5 4294967295
0.22150695 0.45059222 0.5 4294967295
0.080381393 0.14289257 0.5 4294967295
0.22298449 0.45280027 0.5 4294967295
0.098323278 0.23930077 0.5 4294967295
0.20595652 0.12467603 0.5 4294967295
0.062991194 0.29193917 0.5 4294967295
0.18739624 0.31047294 0.5 4294967295
0.1742996 0.39643854 0.5 4294967295
0.17417358 0.18346162 0.5 4294967295
0.24002488 0.25632954 0.5 4294967295
0.19828714 0.49853691 0.5 4294967295
0.057161603 0.3847822 0.5 4294967295
0.11149018 0.079622075 0.5 4294967295
0.10720261 0.091660224 0.5 4294967295
0.14267713 0.14978349 0.5 4294967295
0.044097651 0.22836816 0.5 4294967295
0.086199261 0.28020769 0.5 4294967295
0.18563037 0.046344683 0.5 4294967295
0.10087918 0.067907281 0.5 4294967295
0.14282273 0.11367142 0.5 4294967295
0.096291654 0.41162783 0.5 4294967295
0.2028053 0.48373756 0.5 4294967295
0.093594275 0.25420979 0.5 4294967295
0.19008805 0.035535708 0.5 4294967295
0.2188357 0.36022586 0.5 4294967295
0.14593261 0.33424568 0.5 4294967295
0.21214268 0.43503669 0.5 4294967295
0.10951393 0.081743129 0.5 4294967295
0.24290526 0.43343309 0.5 4294967295
0.086701676 0.27116477 0.5 4294967295
0.041608289 0.26159865 0.5 4294967295
0.24976647 0.18359229 0.5 4294967295
0.0052783713 0.37079367 0.5 4294967295
0.11496849 0.21231511 0.5 4294967295
0.21935047 0.015582431 0.5 4294967295
0.16299327 0.13128427 0.5 4294967295
0.24504611 0.26079306 0.5 4294967295
0.057510909 0.11439883 0.5 4294967295
0.24290346 0.49519792 0.5 4294967295
0.074967273 0.42347831 0.5 4294967295
0.17771189 0.44179976 0.5 4294967295
0.12886199 0.21418655 0.5 4294967295
0.17399411 0.47675186 0.5 4294967295
0.14796484 0.33379871 0.5 4294967295
0.20509247 0.46933302 0.5 4294967295
0.052481744 0.49340153 0.5 4294967295
0.1415392 0.12995191 0.5 4294967295
0.088496909 0.24148844 0.5 4294967295
0.23764506 0.40693077 0.5 4294967295
0.22690177 0.41399106 0.5 4294967295
0.21125661 0.27979007 0.5 4294967295
0.022637663 0.34972349 0.5 4294967295
0.005693607 0.16029714 0.5 4294967295
0.23206116 0.49719414 0.5 4294967295
0.077747524 0.11405686 0.5 4294967295
0.21033622 0.01091883 0.5 4294967295
0.082161844 0.21236221 0.5 4294967295
0.11255269 0.40384483 0.5 4294967295
0.077574156 0.021035068 0.5 4294967295
0.11882178 0.065333262 0.5 4294967295
0.24518405 0.34260705 0.5 4294967295
0.029367393 0.2212998 0.5 4294967295
0.22355174 0.23572861 0.5 4294967295
0.23139411 0.42239359 0.5 4294967295
0.071329698 0.41659176 0.5 4294967295
0.16819233 0.065172613 0.5 4294967295
0.14449817 0.42635015 0.5 4294967295
0.20744805 0.20776908 0.5 4294967295
0.020978561 0.37901843 0.5 4294967295
0.1024816 0.19745217 0.5 4294967295
0.24653764 0.12563565 0.5 4294967295
0.10418551 0.048931926 0.5 4294967295
0.15201604 0.43347639 0.5 4294967295
0.22638838 0.45918041 0.5 4294967295
0.22725573 0.19042033 0.5 4294967295
0.012256834 0.44487956 0.5 4294967295
0.069258451 0.11797208 0.50981897 4294967295
0.083089679 0.48013085 0.5 4294967295
0.15948853 0.12896758 0.5 4294967295
0.20126222 0.46163645 0.5 4294967295
0.022779681 0.2389091 0.5 4294967295
0.013404529 0.24194123 0.5 4294967295
0.060284536 0.44170517 0.5 4294967295
0.22485515 0.16252619 0.5 4294967295
0.1603618 0.1546735 0.5 4294967295
0.17998919 0.31379887 0.5 4294967295
0.16476877 0.097002715 0.5 4294967295
0.1813654 0.08434125 0.5 4294967295
0.00091288483 0.31550756 0.5 4294967295
0.021760831 0.45633721 0.5 4294967295
0.0029639485 0.068035327 0.5 4294967295
0.20060839 0.038955268 0.5 4294967295
0.075641893 0.067396142 0.5 4294967295
0.0095430622 0.47026083 0.5 4294967295
0.098181866 0.42161056 0.5 4294967295
0.21594864 0.24192309 0.5 4294967295
0.13096063 0.50461417 0.5 4294967295
0.24193215 0.28108874 0.5 4294967295
0.20020576 0.43357462 0.5 4294967295
0.22180746 0.22113509 0.5 4294967295
0.044124059 0.30359331 0.5 4294967295
0.01746699 0.36855727 0.5 4294967295
0.18597135 0.39766479 0.5 4294967295
0.22644927 0.37376845 0.5 4294967295
0.10658618 0.4964202 0.5 4294967295
0.16505285 0.21910027 0.5 4294967295
0.058313057 0.2553975 0.5 4294967295
0.12902777 0.21573931 0.5 4294967295
0.14935932 0.27714166 0.5 4294967295
0.093000077 0.49508235 0.5 4294967295
0.099376112 0.11789744 0.5 4294967295
0.11850272 0.35927188 0.5 4294967295
0.038301893 0.22086975 0.5 4294967295
0.070180312 0.47701529 0.5 4294967295
0.077222183 0.083975561 0.5 4294967295
0.099075191 0.2426925 0.5 4294967295
0.22614539 0.26965648 0.5 4294967295
0.055624884 0.25951156 0.5 4294967295
0.065374576 0.064148299 0.5 4294967295
0.066640005 0.34392151 0.5 4294967295
0.030284245 0.4633857 0.5 4294967295
0.03151089 0.12502402 0.5 4294967295
0.097354084 0.32107732 0.5 4294967295
0.17038167 0.4934268 0.5 4294967295
0.049109481 0.026763469 0.5 4294967295
0.24425457 0.29697117 0.5 4294967295
0.093668036 0.26545429 0.5 4294967295
0.078121535 0.22126469 0.5 4294967295
0.22319217 0.29660371 0.5 4294967295
0.099139988 0.10082871 0.5 4294967295
0.19028963 0.39643037 0.5 4294967295
0.1717606 0.26814812 0.5 4294967295
0.064757369 0.45477098 0.5 4294967295
0.013829845 0.26026389 0.5 4294967295
0.0094596352 0.16093971 0.5 4294967295
0.052092701 0.079487763 0.5 4294967295
0.098686367 0.20561405 0.5 4294967295
0.10225589 0.31903359 0.5 4294967295
0.24414225 0.045275096 0.5 4294967295
0.15623018 0.086503446 0.5 4294967295
0.036019281 0.30096951 0.5 4294967295
0.19173731 0.21669947 0.5 4294967295
0.013242046 0.039717697 0.5 4294967295
0.21898209 0.47286844 0.5 4294967295
0.16816069 0.13624413 0.5 4294967295
0.036848567 0.21690065 0.5 4294967295
0.05202201 0.468447 0.5139578 4294967295
0.24252439 0.16218923 0.5 4294967295
0.18599465 0.012708474 0.5 4294967295
0.21122657 0.39090857 0.5 4294967295
0.086824089 0.026638528 0.5 4294967295
0.23519817 0.29797357 0.5 4294967295
0.09692286 0.17490812 0.5 4294967295
0.058503583 0.1821302 0.5 4294967295
0.1100916 0.42946756 0.5 4294967295
0.13431682 0.29222178 0.5 4294967295
0.15486582 0.18223527 0.5 4294967295
0.0044606226 0.25692114 0.5 4294967295
0.095912986 0.44688541 0.5 4294967295
0.11489479 0.02814737 0.5 4294967295
0.04156477 0.3034867 0.5 4294967295
0.12252401 0.11580405 0.5 4294967295
0.11035253 0.2300968 0.5 4294967295
0.13899665 0.092694372 0.5 4294967295
0.12140264 0.2004464 0.5 4294967295
0.24180147 0.41645345 0.5 4294967295
0.15529239 0.51165164 0.5 4294967295
0.10721353 0.42093065 0.5 4294967295
0.064453706 0.33143422 0.5 4294967295
0.051530421 0.34909064 0.5 4294967295
0.13045087 0.37169451 0.5 4294967295
0.070656203 0.49133882 0.5 4294967295
0.011901385 0.15023364 0.5 4294967295
0.12412999 0.21562874 0.5 4294967295
0.048559524 0.47804955 0.5 4294967295
0.12188806 0.18024859 0.5 4294967295
0.16386735 0.5184772 0.5119791 4294967295
0.14802632 0.0022413293 0.5 4294967295
0.10946047 0.074045911 0.5 4294967295
0.04746785 0.46172622 0.5 4294967295
0.13724616 0.078538656 0.5 4294967295
0.18908983 0.0015772523 0.5 4294967295
0.016268974 0.092606723 0.5 4294967295
0.21125396 0.16144536 0.5 4294967295
0.21202047 0.025568742 0.5 4294967295
0.0052679922 0.18494271 0.5 4294967295
0.23312859 0.18693136 0.5 4294967295
0.088140763 0.42106602 0.5 4294967295
0.15104102 0.4245415 0.5 4294967295
0.06834738 0.3992011 0.5 4294967295
0.20129552 0.38047087 0.5 4294967295
0.039724834 0.18412732 0.5 4294967295
0.1846475 0.37550232 0.5 4294967295
0.093184322 0.088215947 0.5 4294967295
0.22477411 0.28130436 0.5 4294967295
0.024971083 0.22404054 0.5 4294967295
0.2093173 0.46127212 0.5 4294967295
0.1128089 0.39238095 0.5 4294967295
0.010364287 0.14812569 0.5 4294967295
0.026913155 0.44476953 0.5 4294967295
0.086847216 0.064362295 0.5 4294967295
0.064856112 0.070957668 0.5 4294967295
0.10810534 0.30599374 0.5 4294967295
0.24601184 0.018292708 0.5 4294967295
0.11526762 0.12871842 0.5 4294967295
0.2087469 0.13312629 0.5 4294967295
0.029753497 0.52319878 0.51977217 4294967295
0.15862681 0.37848431 0.5 4294967295
0.18622288 0.003622262 0.5 4294967295
0.23335013 0.32199398 0.5 4294967295
0.14246331 0.01664241 0.5 4294967295
0.023017261 0.14476961 0.5 4294967295
0.22238213 0.27165231 0.5 4294967295
0.018575279 0.46549284 0.5 4294967295
0.20988901 0.090976864 0.5 4294967295
0.20513117 0.093472436 0.5 4294967295
0.10072407 0.073999628 0.5 4294967295
0.082215056 0.37154984 0.5 4294967295
0.17298417 0.15645377 0.5 4294967295
0.19492127 0.076503567 0.5 4294967295
0.1425861 0.30733633 0.5 4294967295
0.10481493 0.2943615 0.5 4294967295
0.1521399 0.026883477 0.5 4294967295
0.086422898 0.17672555 0.5 4294967295
0.01525287 0.13954604 0.5 4294967295
0.24935977 0.31543234 0.5 4294967295
0.098886386 0.0813592 0.5 4294967295
0.23010097 0.10095271 0.5 4294967295
0.15820318 0.49735251 0.5 4294967295
0.033222772 0.23618439 0.5 4294967295
0.044164695 0.47670788 0.5 4294967295
0.1648284 0.24366854 0.5 4294967295
0.0083412314 0.49408692 0.5 4294967295
0.057609193 0.36265078 0.5 4294967295
0.075270355 0.0050609289 0.5 4294967295
0.21957718 0.4357129 0.5 4294967295
0.18701538 0.17286178 0.5 4294967295
0.1150372 0.11667705 0.5 4294967295
0.087833852 0.40292022 0.5 4294967295
0.14670131 0.20617343 0.5 4294967295
0.021233127 0.29212216 0.5 4294967295
0.010802893 0.19865471 0.5 4294967295
0.16843811 0.48180774 0.5 4294967295
0.14980371 0.1532826 0.5 4294967295
0.23958014 0.36605296 0.5 4294967295
0.19473349 0.067489661 0.5 4294967295
0.19845343 0.24577393 0.5 4294967295
0.15557911 0.35944331 0.5 4294967295
0.10660537 0.42637658 0.5 4294967295
0.11104704 0.36375144 0.5 4294967295
0.21571876 0.16124845 0.5 4294967295
0.14973217 0.24383478 0.5 4294967295
0.15501633 0.029538769 0.5 4294967295
0.18025592 0.48570037 0.5 4294967295
0.21622948 0.15391445 0.5 4294967295
0.095936902 0.47492522 0.5 4294967295
0.25941473 0.24063218 0.5 4294967295
0.086789966 0.28291282 0.5 4294967295
0.097643666 0.47318736 0.5 4294967295
0.2180977 0.1744476 0.5 4294967295
0.16962016 0.3256624 0.5 4294967295
0.12096863 0.18200114 0.5 4294967295
0.0223931 0.053095467 0.5 4294967295
0.020722229 0.25799695 0.5 4294967295
0.23973604 0.26353854 0.5 4294967295
0.06087419 0.41090959 0.5 4294967295
0.25049055 0.45130256 0.5 4294967295
0.077372178 0.23481967 0.5 4294967295
0.22537576 0.015256198 0.5 4294967295
0.11026002 0.38321048 0.5 4294967295
0.084585324 0.41239384 0.5 4294967295
0.17906787 0.11520724 0.5 4294967295
0.062936708 0.03171565 0.5 4294967295
0.19906002 0.32116073 0.5 4294967295
0.0024515004 0.33431545 0.5 4294967295
0.24780418 0.3441433 0.5 4294967295
0.10983799 0.27415401 0.5 4294967295
0.013072228 0.20476405 0.5 4294967295
0.14532053 0.067588918 0.5 4294967295
0.23138049 0.27011314 0.5 4294967295
0.16556373 0.084509365 0.5 4294967295
0.090511359 0.25591448 0.5 4294967295
0.00286105 0.33576709 0.5 4294967295
0.24536707 0.45647362 0.5 4294967295
0.17551164 0.21125416 0.5 4294967295
0.16984205 0.020193923 0.5 4294967295
0.10488965 0.24771133 0.5 4294967295
0.06770058 0.2495214 0.5 4294967295
0.11476773 0.033521209 0.5 4294967295
0.035341073 0.23443846 0.5 4294967295
0.18391833 0.066290498 0.5 4294967295
0.039290883 0.027814513 0.5 4294967295
0.15191805 0.10472623 0.5 4294967295
0.11628928 0.094477184 0.5 4294967295
0.086157568 0.19533955 0.5 4294967295
0.18229516 0.0034426081 0.5 4294967295
0.16777173 0.084499113 0.5 4294967295
0.12967853 0.28557101 0.5 4294967295
0.19069006 0.25009122 0.5 4294967295
0.12102231 0.2324034 0.5 4294967295
0.23067269 0.081728704 0.5 4294967295
0.12629867 0.084993362 0.5 4294967295
0.13977425 0.38799849 0.5 4294967295
0.16725738 0.0090839695 0.5 4294967295
0.21075985 0.40519691 0.5 4294967295
0.12176122 0.28935635 0.5 4294967295
0.25656092 0.34602123 0.51276475 4294967295
0.15858544 0.27532351 0.5 4294967295
0.21341521 0.049749438 0.5 4294967295
0.18490036 0.099145561 0.5 4294967295
0.12254449 0.23439103 0.5 4294967295
0.051294085 0.024937885 0.5 4294967295
0.14000204 0.36194524 0.5 4294967295
0.15525444 0.1613842 0.5 4294967295
0.05601823 0.052553501 0.5 4294967295
0.1968938 0.073381826 0.5 4294967295
0.11001747 0.18221034 0.5 4294967295
0.079187594 0.41383073 0.5 4294967295
0.01719171 0.49288997 0.5 4294967295
0.21145734 0.45590311 0.5 4294967295
0.19904344 0.16643712 0.5 4294967295
0.12262974 0.36957428 0.5 4294967295
0.24427065 0.062430359 0.5 4294967295
0.072448902 0.41537172 0.5 4294967295
0.0560899 0.014698513 0.5 4294967295
0.0072586457 0.35726878 0.5 4294967295
0.1435746 0.14696577 0.5 4294967295
0.19110332 0.029093621 0.5 4294967295
0.23952535 0.19271556 0.5 4294967295
0.095238909 0.091087162 0.5 4294967295
0.12263452 0.084265433 0.5 4294967295
0.082234494 0.37955126 0.5 4294967295
0.11532518 0.32284418 0.5 4294967295
0.14669098 0.26503378 0.5 4294967295
0.15786707 0.21629664 0.5 4294967295
0.11046845 0.21382102 0.5 4294967295
0.22535315 0.5109306 0.5 4294967295
0.041697651 0.37127507 0.5 4294967295
0.014313372 0.22829311 0.5 4294967295
0.14332341 0.14080654 0.5 4294967295
0.12149581 0.30116409 0.5 4294967295
0.24903765 0.49208117 0.5 4294967295
0.20913477 0.38028198 0.5 4294967295
0.010587396 0.39732027 0.5 4294967295
0.036498766 0.21165262 0.5 4294967295
0.24420372 0.3182666 0.5 4294967295
0.17486146 0.1752913 0.5 4294967295
0.098908924 0.026568407 0.5 4294967295
0.23786029 0.49119982 0.5 4294967295
0.1458011 0.29145473 0.5 4294967295
0.10374823 0.012539093 0.5 4294967295
0.0026378785 0.090230219 0.5 4294967295
0.23936774 0.088671058 0.5 4294967295
0.23075265 0.0073622223 0.5 4294967295
0.15848209 0.24815209 0.5 4294967295
0.074084379 0.059955798 0.5 4294967295
0.060303971 0.18109666 0.5 4294967295
0.026018484 0.46758574 0.5 4294967295
0.013263034 0.073211759 0.5 4294967295
0.18245301 0.099523604 0.5 4294967295
0.14243218 0.35331342 0.5 4294967295
0.2088951 0.080782421 0.5 4294967295
0.0030949174 0.11560803 0.5 4294967295
0.053675413 0.48191044 0.5 4294967295
0.053403918 0.39895302 0.5 4294967295
0.13668258 0.31430429 0.5 4294967295
0.23529223 0.30228508 0.5 4294967295
0.20226726 0.39022759 0.5 4294967295
0.18365599 0.36603981 0.5 4294967295
0.1987949 0.18427616 0.5 4294967295
0.057095952 0.045758575 0.5 4294967295
0.12211598 0.16350809 0.5 4294967295
0.096001334 0.29626891 0.5 4294967295
0.065546915 0.21852873 0.5 4294967295
0.18474033 0.49599984 0.5 4294967295
0.15902616 0.15434505 0.5 4294967295
0.19872555 0.27550325 0.5 4294967295
0.11756374 0.35550308 0.5 4294967295
0.17572528 0.34247831 0.5 4294967295
0.16870676 0.45825839 0.5 4294967295
0.12071566 0.1107787 0.5 4294967295
0.13628134 0.15292343 0.5 4294967295
0.19470981 0.1770972 0.5 4294967295
0.021575509 0.2567316 0.5 4294967295
0.021568503 0.44074082 0.5 4294967295
0.22050388 0.1573289 0.5 4294967295
0.28248993 0.20811312 0.5 4294967295
0.1604185 0.17850207 0.5 4294967295
0.24075432 0.45193082 0.5 4294967295
0.1985154 0.35098934 0.5 4294967295
0.22396533 0.21508314 0.5 4294967295
0.0026671914 0.29724392 0.5 4294967295
0.22546282 0.24046186 0.5 4294967295
0.076373518 0.30237621 0.5 4294967295
0.041470077 0.49016055 0.5 4294967295
0.1303173 0.32437149 0.5 4294967295
0.077460982 0.065222614 0.5 4294967295
0.23864745 0.49035886 0.5 4294967295
0.10514724 0.020445921 0.5 4294967295
0.12354524 0.2534315 0.5 4294967295
0.23059337 0.18809825 0.5 4294967295
0.2053802 0.44768617 0.5 4294967295
0.18666899 0.23159739 0.5 4294967295
0.063094109 0.35484663 0.5 4294967295
0.091764115 0.023219023 0.5 4294967295
0.10291798 0.13145889 0.5 4294967295
0.14255683 0.23291484 0.5 4294967295
0.21435142 0.1892278 0.5 4294967295
0.2258161 0.081449859 0.5 4294967295
0.24580202 0.034572348 0.5 4294967295
0.035805207 0.25223863 0.5 4294967295
0.17947191 0.17254966 0.5 4294967295
0.14271796 0.33623871 0.5 4294967295
0.08145427 0.4957304 0.5 4294967295
0.17834233 0.40999901 0.5 4294967295
0.12458093 0.31787139 0.5 4294967295
0.079481095 0.20006874 0.5 4294967295
0.13277878 0.47143525 0.5 4294967295
0.19575983 0.39174578 0.5 4294967295
0.16314094 0.075047903 0.5 4294967295
0.2074824 0.032117825 0.5 4294967295
0.1032534 0.15326695 0.5 4294967295
0.12164408 0.13520963 0.5 4294967295
0.17124738 0.19492035 0.5 4294967295
0.10832975 0.33409879 0.5 4294967295
0.11474635 0.28826991 0.5 4294967295
0.073662557 0.12468594 0.5 4294967295
0.23040979 0.3717733 0.5 4294967295
0.21233761 0.12372812 0.5 4294967295
0.18375185 0.28135988 0.5 4294967295
0.016863568 0.11666556 0.5 4294967295
0.04961564 0.1318244 0.5 4294967295
0.13829392 0.36478883 0.5 4294967295
0.051629826 0.16810751 0.5 4294967295
0.1282673 0.42954153 0.5 4294967295
0.12157771 0.17149942 0.5 4294967295
0.26423594 0.47231233 0.50121069 4294967295
0.16238318 0.2049475 0.5 4294967295
0.042435929 0.16726114 0.5 4294967295
0.19993393 0.30153134 0.5 4294967295
0.00067996047 0.12936056 0.5 4294967295
0.044900633 0.087697327 0.5 4294967295
0.10889854 0.050620846 0.5 4294967295
0.22973531 0.14247231 0.5 4294967295
0.087174483 0.32697433 0.5 4294967295
0.2119161 0.2080761 0.5 4294967295
0.25219744 0.052884605 0.5 4294967295
0.16995025 0.22022773 0.5 4294967295
0.19392616 0.44316015 0.5 4294967295
0.19416763 0.14438692 0.5 4294967295
0.18635084 0.13149066 0.5 4294967295
0.15794316 0.33436102 0.5 4294967295
0.040576443 0.1406527 0.5 4294967295
0.019654267 0.16602474 0.5 4294967295
0.15395692 0.43917638 0.5 4294967295
0.23377804 0.30927375 0.5 4294967295
0.07101772 0.090434201 0.5 4294967295
0.19848554 0.28633404 0.5 4294967295
0.053989101 0.35644171 0.5 4294967295
0.21440317 0.28232718 0.5 4294967295
0.091708012 0.35263854 0.5 4294967295
0.24520163 0.12705591 0.5 4294967295
0.18785101 0.33030376 0.5 4294967295
0.17364183 0.26355433 0.5 4294967295
0.13673197 0.2356189 0.5 4294967295
0.20397063 0.14616561 0.5 4294967295
0.21603194 0.2508691 0.5 4294967295
0.24026331 0.44826245 0.5 4294967295
0.18224014 0.019835168 0.5 4294967295
0.057143595 0.17239411 0.5 4294967295
0.22950578 0.081843279 0.5 4294967295
0.24083394 0.027548507 0.5 4294967295
0.069600321 0.37863895 0.5 4294967295
0.15694126 0.24717884 0.5 4294967295
0.11754032 0.24268886 0.5 4294967295
0.014753001 0.41849667 0.5 4294967295
0.076368265 0.060088336 0.51467776 4294967295
0.022776298 0.47102943 0.5 4294967295
0.17510653 0.39283624 0.5 4294967295
0.11729188 0.12367697 0.5 4294967295
0.064227574 0.14252502 0.5 4294967295
0.13492128 0.49556473 0.5 4294967295
0.18317631 0.25036922 0.5 4294967295
0.22191358 0.23083289 0.5 4294967295
0.1351022 0.058114354 0.5 4294967295
0.2016135 0.22921593 0.5 4294967295
0.10028449 0.41975024 0.5 4294967295
0.12838222 0.27915826 0.5 4294967295
0.1317669 0.070646971 0.5 4294967295
0.013168552 0.49861446 0.5 4294967295
0.15666792 0.055843107 0.5 4294967295
0.20855556 0.40866324 0.5 4294967295
0.037876189 0.46266374 0.5 4294967295
0.18984635 0.4259654 0.5 4294967295
0.17774999 0.11427645 0.5 4294967295
0.02482119 0.48395514 0.5 4294967295
0.16304375 0.35500383 0.5 4294967295
0.23975992 0.12315408 0.5 4294967295
0.034927085 0.423347 0.5 4294967295
0.17699349 0.34005854 0.5 4294967295
0.24073069 0.25721395 0.5 4294967295
0.034637243 0.121419 0.5 4294967295
0.071054414 0.32603893 0.5 4294967295
0.20028862 0.40564263 0.5 4294967295
0.19834295 0.42691436 0.5 4294967295
0.20212854 0.21002175 0.5 4294967295
0.26219597 0.34528527 0.51276475 4294967295
0.059342504 0.058509845 0.5 4294967295
0.14201596 0.49837771 0.5 4294967295
0.24223763 0.13953193 0.5 4294967295
0.056327078 0.034117639 0.5 4294967295
0.061743528 0.36945564 0.5 4294967295
0.17680129 0.1030069 0.5 4294967295
0.24630485 0.42345676 0.5 4294967295
0.013176956 0.34659669 0.5 4294967295
0.13175766 0.0078152753 0.5 4294967295
0.083425343 0.39016309 0.5 4294967295
0.064617135 0.24591947 0.5 4294967295
0.079414368 0.029811529 0.5 4294967295
0.07578104 0.055514645 0.5 4294967295
0.22836295 0.055819165 0.5 4294967295
0.1327682 0.43948337 0.5 4294967295
0.18859369 0.3842214 0.5 4294967295
0.2489966 0.16121931 0.5 4294967295
0.19129956 0.48246846 0.5 4294967295
0.15037562 0.49525326 0.5 4294967295
0.042826597 0.47839856 0.5139578 4294967295
0.18235445 0.37018871 0.5 4294967295
0.013622596 0.35731861 0.5 4294967295
0.14682274 0.053599104 0.5 4294967295
0.10195764 0.057160772 0.5 4294967295
0.03070719 0.30772591 0.5 4294967295
0.19497529 0.19064865 0.5 4294967295
0.026822688 0.048779305 0.5 4294967295
0.11023009 0.20520747 0.5 4294967295
0.052146975 0.17718607 0.5 4294967295
0.1599298 0.39624506 0.5 4294967295
0.058334719 0.13821399 0.5 4294967295
0.12702587 0.11466265 0.5 4294967295
0.14971666 0.13665086 0.5 4294967295
0.048565559 0.10018455 0.5 4294967295
0.065952063 0.11371722 0.5 4294967295
0.012211422 0.49661303 0.5 4294967295
0.24195296 0.051668037 0.5 4294967295
0.1769658 0.27755138 0.5 4294967295
0.052633569 0.0578469 0.5 4294967295
0.2029777 0.20284921 0.5 4294967295
0.18278641 0.22466274 0.5 4294967295
0.17866509 0.41921818 0.5 4294967295
0.13672101 0.07779035 0.5 4294967295
0.062212825 0.377736 0.5 4294967295
0.12748821 0.38545227 0.5 4294967295
0.12378317 0.37164587 0.5 4294967295
0.011833137 0.0016180926 0.5 4294967295
0.24315426 0.32309958 0.5 4294967295
0.069134481 0.083439633 0.5 4294967295
0.24056692 0.29754233 0.5 4294967295
0.098578431 0.447707 0.5 4294967295
0.13339305 0.18106277 0.5 4294967295
0.24968751 0.12071772 0.5 4294967295
0.35784283 0.20957762 0.5 4294967295
0.27523717 0.23064846 0.5 4294967295
0.3492687 0.15944619 0.5 4294967295
0.44290161 0.20927189 0.5 4294967295
0.48021448 0.013325751 0.5 4294967295
0.47519088 0.072039902 0.5 4294967295
0.35311028 0.22803383 0.5 4294967295
0.35406548 0.0081391409 0.5 4294967295
0.49633145 0.20170888 0.5 4294967295
0.380611 0.16785409 0.5 4294967295
0.33826071 0.16969183 0.5 4294967295
0.35598707 0.077990897 0.5 4294967295
0.40918142 0.059912063 0.5 4294967295
0.31154531 0.035144102 0.5 4294967295
0.28154263 0.046103489 0.5 4294967295
0.3676326 0.13938545 0.5 4294967295
0.28129905 0.18313502 0.5 4294967295
0.37003392 0.10494981 0.5 4294967295
0.30231598 0.062935501 0.5 4294967295
0.31422168 0.032530446 0.5 4294967295
0.32626125 0.039412573 0.5 4294967295
0.35457036 0.14176802 0.5 4294967295
0.47856766 0.20863584 0.5 4294967295
0.39990717 0.22489913 0.5 4294967295
0.41034472 0.030518169 0.5 4294967295
0.39275321 0.24860545 0.5 4294967295
0.47023106 0.26586294 0.51712263 4294967295
0.32659632 0.10939142 0.5 4294967295
0.30865234 0.13814166 0.5 4294967295
0.39453554 0.090194985 0.5 4294967295
0.43424517 0.012168118 0.5 4294967295
0.47958043 0.18992625 0.5 4294967295
0.40503788 0.099614337 0.5 4294967295
0.29487607 0.20735388 0.5 4294967295
0.41254985 0.10909776 0.5 4294967295
0.48988432 0.23881109 0.5 4294967295
0.43652624 0.1347219 0.5 4294967295
0.38057911 0.12707801 0.5 4294967295
0.30309051 0.030486267 0.5 4294967295
0.35197714 0.21343525 0.5 4294967295
0.31100443 0.24473035 0.5 4294967295
0.46204066 0.011214432 0.5 4294967295
0.49347064 0.038637016 0.5 4294967295
0.37060586 0.052123003 0.5 4294967295
0.42677867 0.015141381 0.5 4294967295
0.39231801 0.11102384 0.5 4294967295
0.31308645 0.14355497 0.5 4294967295
0.30095008 0.18234739 0.5 4294967295
0.47151276 0.095826156 0.5 4294967295
0.38970125 0.1340626 0.5 4294967295
0.45492393 0.12958558 0.5 4294967295
0.37287366 0.10343426 0.5 4294967295
0.47404027 0.0034527874 0.5 4294967295
0.48051226 0.027130757 0.5 4294967295
0.28393906 0.082489409 0.5 4294967295
0.49056602 0.094943494 0.5 4294967295
0.36625239 0.24142967 0.5 4294967295
0.35615793 0.070690408 0.5 4294967295
0.49124369 0.22676378 0.5 4294967295
0.3728134 0.16802238 0.5 4294967295
0.49190515 0.015131399 0.5 4294967295
0.27904621 0.019214656 0.5 4294967295
0.38702983 0.079996303 0.5 4294967295
0.45156205 0.10854258 0.5 4294967295
0.42582247 0.091263317 0.5 4294967295
0.49260518 0.13074638 0.5 4294967295
0.50113809 0.14197694 0.5 4294967295
0.48418063 0.19488914 0.5 4294967295
0.36893165 0.21469291 0.5 4294967295
0.47201991 0.1528707 0.5 4294967295
0.29718232 0.2125859 0.5 4294967295
0.49781418 0.12440208 0.5 4294967295
0.41519257 0.10397211 0.5 4294967295
0.4450925 0.15643628 0.5 4294967295
0.33073589 0.067905895 0.5 4294967295
0.32445866 0.072641052 0.5 4294967295
0.36643589 0.13608043 0.5 4294967295
0.3418557 0.22006711 0.5 4294967295
0.43350118 0.043417759 0.5 4294967295
0.3286097 0.10932363 0.5 4294967295
0.38468108 0.071214877 0.5 4294967295
0.49006999 0.10552997 0.5 4294967295
0.43669373 0.22425064 0.5 4294967295
0.30041912 0.05562539 0.5 4294967295
0.43894356 0.022439012 0.5 4294967295
0.45849609 0.23612587 0.5 4294967295
0.51132369 0.22417824 0.50121069 4294967295
0.36052793 0.15021749 0.5 4294967295
0.31028241 0.055620436 0.5 4294967295
0.30665377 0.14101829 0.5 4294967295
0.37352633 0.13111243 0.5 4294967295
0.46365935 0.20656362 0.5 4294967295
0.48461729 0.055515055 0.5 4294967295
0.42663074 0.16811845 0.5 4294967295
0.3489328 0.0052404394 0.5 4294967295
0.27744207 0.23361388 0.5 4294967295
0.35145015 0.044988368 0.5 4294967295
0.33914387 0.01314906 0.5 4294967295
0.49176273 0.13956296 0.5 4294967295
0.31877446 0.18070629 0.5 4294967295
0.41200197 0.027270541 0.5 4294967295
0.41683215 0.1470269 0.5 4294967295
0.48358083 0.027360108 0.5 4294967295
0.29724437 0.043863226 0.5 4294967295
0.33298054 0.10389815 0.5 4294967295
0.43488151 0.20650688 0.5 4294967295
0.51183313 0.18053333 0.50120771 4294967295
0.4130705 0.21962786 0.5 4294967295
0.45405591 0.089701235 0.5 4294967295
0.38774633 0.05298873 0.5 4294967295
0.34494168 0.1651884 0.5 4294967295
0.28660262 0.17139699 0.5 4294967295
0.43270048 0.12574647 0.5 4294967295
0.43454605 0.17446321 0.5 4294967295
0.26530942 0.0033205007 0.5 4294967295
0.3551695 0.17731142 0.5 4294967295
0.3183642 0.063957527 0.50268161 4294967295
0.32433832 0.014171869 0.5 4294967295
0.29936177 0.12158269 0.5 4294967295
0.30803511 0.13234231 0.5 4294967295
0.47548085 0.24291661 0.5 4294967295
0.33884919 0.21049142 0.5 4294967295
0.3914575 0.0019196781 0.5 4294967295
0.43011928 0.095513396 0.5 4294967295
0.34162092 0.067865595 0.5 4294967295
0.39850211 0.18656258 0.5 4294967295
0.5137651 0.22430167 0.5 4294967295
0.35795957 0.16575448 0.5 4294967295
0.31085122 0.042505629 0.5 4294967295
0.34021771 0.076160654 0.5 4294967295
0.29582614 0.1953872 0.5 4294967295
0.25347206 0.07641717 0.5 4294967295
0.46738887 0.077810377 0.5 4294967295
0.34058905 0.016750628 0.5 4294967295
0.44939306 0.14862414 0.5 4294967295
0.39909294 0.1748739 0.5 4294967295
0.41700643 0.27700549 0.52692777 4294967295
0.38536531 0.03299823 0.5 4294967295
0.48986179 0.065484598 0.5 4294967295
0.37851161 0.081482716 0.5 4294967295
0.38335019 0.027013758 0.5 4294967295
0.26804531 0.11640419 0.5 4294967295
0.46211851 0.12600487 0.5 4294967295
0.28215867 0.022969719 0.5 4294967295
0.4185105 0.12237637 0.5 4294967295
0.34913036 0.21433663 0.5 4294967295
0.35436407 0.13758741 0.5 4294967295
0.29075381 0.035152428 0.5 4294967295
0.43041283 0.13134284 0.5 4294967295
0.30190307 0.12980588 0.5 4294967295
0.27996698 0.200996 0.5 4294967295
0.30467978 0.17150772 0.5 4294967295
0.43893814 0.1900451 0.5 4294967295
0.45450595 0.17879993 0.5 4294967295
0.2555297 0.08301758 0.5 4294967295
0.26028264 0.1388799 0.5 4294967295
0.39157552 0.068073519 0.5 4294967295
0.2552841 0.072149843 0.5 4294967295
0.40433282 0.037442766 0.5 4294967295
0.34511957 0.072843313 0.5 4294967295
0.40981913 0.19424993 0.5 4294967295
0.28717995 0.22758271 0.5 4294967295
0.29685238 0.077933744 0.5 4294967295
0.26273513 0.22726518 0.5 4294967295
0.45927659 0.06463819 0.5 4294967295
0.35707107 0.23924355 0.5 4294967295
0.303045 0.20076084 0.5 4294967295
0.41075128 0.20457232 0.5 4294967295
0.35179594 0.11525723 0.5 4294967295
0.38337225 0.10732564 0.5 4294967295
0.44827479 0.14365488 0.5 4294967295
0.49620554 0.05830615 0.5 4294967295
0.42198282 0.001489637 0.5 4294967295
0.38045597 0.076315627 0.5 4294967295
0.28893241 0.22557555 0.5 4294967295
0.39915895 0.19875154 0.5 4294967295
0.45848826 0.21970764 0.5 4294967295
0.42633426 0.21667786 0.5 4294967295
0.26427263 0.18906939 0.5 4294967295
0.44394302 0.2235492 0.5 4294967295
0.25370759 0.051014103 0.5 4294967295
0.46279275 0.019341771 0.5 4294967295
0.46276495 0.12354404 0.5 4294967295
0.47391409 0.064560883 0.5 4294967295
0.48880127 0.10728633 0.5 4294967295
0.42188653 0.18707608 0.5 4294967295
0.27970383 0.20656919 0.5 4294967295
0.49538225 0.17292401 0.5 4294967295
0.41958171 0.12583822 0.5 4294967295
0.49923962 0.20851411 0.5 4294967295
0.35141379 0.14839858 0.5 4294967295
0.40726566 0.021239256 0.5 4294967295
0.33473748 0.08359991 0.5 4294967295
0.48791713 0.099010088 0.5 4294967295
0.27266929 0.18186015 0.5 4294967295
0.3225593 0.026376875 0.5 4294967295
0.50794178 0.079978041 0.52010947 4294967295
0.29571864 0.19563919 0.5 4294967295
0.40889609 0.019632731 0.5 4294967295
0.26020008 0.14769737 0.5 4294967295
0.37691906 0.18208662 0.5 4294967295
0.33477345 0.12786025 0.5 4294967295
0.35017869 0.080155693 0.5 4294967295
0.30078426 0.0197604 0.5 4294967295
0.45599392 0.050023913 0.5 4294967295
0.47827452 0.057407685 0.5 4294967295
0.48161837 0.16987616 0.5 4294967295
0.32864696 0.033159956 0.5 4294967295
0.46914008 0.066564053 0.5 4294967295
0.38217005 0.24180938 0.5 4294967295
0.49842423 0.20472935 0.5 4294967295
0.26818624 0.23129846 0.5 4294967295
0.49008143 0.063904896 0.5 4294967295
0.42693767 0.14897752 0.5 4294967295
0.33353764 0.18713775 0.5 4294967295
0.29667491 0.21045668 0.5 4294967295
0.41300657 0.16631743 0.5 4294967295
0.33831695 0.21940306 0.5 4294967295
0.46160406 0.13910121 0.5 4294967295
0.48916346 0.16759796 0.5 4294967295
0.43912512 0.21743797 0.5 4294967295
0.47500566 0.13754761 0.5 4294967295
0.35297814 0.053652596 0.5 4294967295
0.42070758 0.072118223 0.5 4294967295
0.37021667 0.05287762 0.5 4294967295
0.31392759 0.11864086 0.5 4294967295
0.30261931 0.10374943 0.5 4294967295
0.34993935 0.24768838 0.5 4294967295
0.39601874 0.026876992 0.5 4294967295
0.3966659 0.22955638 0.5 4294967295
0.46401474 0.19334081 0.5 4294967295
0.44001305 0.083239101 0.5 4294967295
0.32478917 0.028330004 0.5 4294967295
0.30264217 0.036393218 0.5 4294967295
0.41743124 0.041805606 0.5 4294967295
0.45399117 0.10655633 0.5 4294967295
0.29002032 0.20895857 0.5 4294967295
0.49410397 0.11222172 0.5 4294967295
0.48264945 0.16481152 0.5 4294967295
0.43433994 0.10286609 0.5 4294967295
0.46768916 0.24826753 0.5 4294967295
0.47150695 0.22529611 0.5 4294967295
0.33038139 0.071446285 0.5 4294967295
0.47298449 0.22640014 0.5 4294967295
0.34832329 0.11965039 0.5 4294967295
0.45595652 0.062338013 0.5 4294967295
0.34797791 0.19350187 0.5 4294967295
0.39557713 0.13778035 0.5 4294967295
0.4242996 0.19821927 0.5 4294967295
0.42417359 0.091730811 0.5 4294967295
0.49002486 0.12816477 0.5 4294967295
0.44828713 0.24926846 0.5 4294967295
0.3071616 0.1923911 0.5 4294967295
0.36149019 0.039811037 0.5 4294967295
0.35720262 0.045830112 0.5 4294967295
0.39267713 0.074891746 0.5 4294967295
0.32767519 0.13811272 0.5 4294967295
0.30018786 0.12447904 0.5 4294967295
0.43563038 0.023172341 0.5 4294967295
0.35087919 0.033953641 0.5 4294967295
0.39282274 0.056835711 0.5 4294967295
0.34629166 0.20581391 0.5 4294967295
0.45280528 0.24186878 0.5 4294967295
0.34359428 0.12710489 0.5 4294967295
0.44008803 0.017767854 0.5 4294967295
0.46883571 0.18011293 0.5 4294967295
0.43775597 0.2181938 0.5 4294967295
0.42938137 0.20309421 0.5 4294967295
0.35951394 0.040871564 0.5 4294967295
0.49290526 0.21671654 0.5 4294967295
0.33670169 0.13558239 0.5 4294967295
0.29160827 0.13079932 0.5 4294967295
0.49976647 0.091796145 0.5 4294967295
0.25527838 0.18539684 0.5 4294967295
0.36496848 0.10615756 0.5 4294967295
0.46935046 0.0077912156 0.5 4294967295
0.44831511 0.10867732 0.5 4294967295
0.46360514 0.11579856 0.5 4294967295
0.30751091 0.057199415 0.5 4294967295
0.49290347 0.24759896 0.5 4294967295
0.32496727 0.21173915 0.5 4294967295
0.4277119 0.22089988 0.5 4294967295
0.37886199 0.10709327 0.5 4294967295
0.42399412 0.23837593 0.5 4294967295
0.39796484 0.16689935 0.5 4294967295
0.45509249 0.23466651 0.5 4294967295
0.3424204 0.28057566 0.52083135 4294967295
0.36546585 0.052248217 0.5 4294967295
0.33849692 0.12074422 0.5 4294967295
0.48764506 0.20346539 0.5 4294967295
0.47690177 0.20699553 0.5 4294967295
0.46125662 0.13989504 0.5 4294967295
0.27263767 0.17486174 0.5 4294967295
0.25569361 0.08014857 0.5 4294967295
0.48206115 0.24859707 0.5 4294967295
0.32774752 0.057028431 0.5 4294967295
0.49703738 0.029001204 0.51498508 4294967295
0.27792832 0.089198224 0.5 4294967295
0.3625527 0.20192242 0.5 4294967295
0.32757416 0.010517534 0.5 4294967295
0.36882177 0.032666631 0.5 4294967295
0.49518406 0.17130353 0.5 4294967295
0.27936739 0.1106499 0.5 4294967295
0.47355175 0.1178643 0.5 4294967295
0.48139411 0.2111968 0.5 4294967295
0.32132971 0.20829588 0.5 4294967295
0.45232373 0.063108288 0.5 4294967295
0.34819093 0.19082999 0.5 4294967295
0.45744807 0.10388454 0.5 4294967295
0.27097857 0.18950921 0.5 4294967295
0.3524816 0.098726086 0.5 4294967295
0.49653763 0.062817827 0.5 4294967295
0.35418552 0.024465963 0.5 4294967295
0.40201604 0.21673819 0.5 4294967295
0.47638839 0.22959021 0.5 4294967295
0.47725573 0.095210165 0.5 4294967295
0.30512193 0.24937685 0.5 4294967295
0.26651368 0.041624226 0.5 4294967295
0.33308968 0.24006543 0.5 4294967295
0.40948853 0.064483792 0.5 4294967295
0.45126224 0.23081823 0.5 4294967295
0.27277967 0.11945455 0.5 4294967295
0.26340452 0.12097061 0.5 4294967295
0.31028453 0.22085258 0.5 4294967295
0.47485515 0.081263095 0.5 4294967295
0.4103618 0.077336751 0.5 4294967295
0.46551469 0.2073952 0.5 4294967295
0.39015457 0.034174688 0.5 4294967295
0.4313654 0.042170625 0.5 4294967295
0.25091287 0.15775378 0.5 4294967295
0.27176082 0.22816861 0.5 4294967295
0.25296396 0.034017663 0.5 4294967295
0.45060837 0.019477634 0.5 4294967295
0.3256419 0.033698071 0.5 4294967295
0.25954306 0.23513041 0.5 4294967295
0.34818187 0.21080528 0.5 4294967295
0.48940089 0.15289952 0.5 4294967295
0.33025983 0.22935317 0.5 4294967295
0.49193215 0.14054437 0.5 4294967295
0.45020574 0.21678731 0.5 4294967295
0.47180748 0.11056755 0.5 4294967295
0.29412407 0.15179665 0.5 4294967295
0.26746699 0.18427864 0.5 4294967295
0.43597135 0.19883239 0.5 4294967295
0.47644925 0.18688422 0.5 4294967295
0.35658619 0.2482101 0.5 4294967295
0.45254925 0.14351448 0.5 4294967295
0.28222775 0.11566123 0.5 4294967295
0.37902778 0.10786965 0.5 4294967295
0.39935932 0.13857083 0.5 4294967295
0.34300008 0.24754117 0.5 4294967295
0.34937611 0.058948718 0.5 4294967295
0.36850274 0.17963594 0.5 4294967295
0.28830189 0.11043487 0.5 4294967295
0.3201803 0.23850764 0.5 4294967295
0.32722217 0.04198778 0.5 4294967295
0.38552177 0.15858442 0.5 4294967295
0.44378442 0.11654218 0.5 4294967295
0.30562487 0.12975578 0.5 4294967295
0.31537458 0.03207415 0.5 4294967295
0.31664002 0.17196076 0.5 4294967295
0.28028426 0.23169285 0.5 4294967295
0.28151089 0.06251201 0.5 4294967295
0.34735408 0.16053866 0.5 4294967295
0.42038167 0.2467134 0.5 4294967295
0.29910949 0.013381734 0.5 4294967295
0.51215988 0.18531998 0.5119791 4294967295
0.32233045 0.11275729 0.5 4294967295
0.32812154 0.11063235 0.5 4294967295
0.47319216 0.14830185 0.5 4294967295
0.34913999 0.050414354 0.5 4294967295
0.44028962 0.19821519 0.5 4294967295
0.42176062 0.13407406 0.5 4294967295
0.31475738 0.22738549 0.5 4294967295
0.26382986 0.13013195 0.5 4294967295
0.25945964 0.080469854 0.5 4294967295
0.3242985 0.069084898 0.5 4294967295
0.3121627 0.083603591 0.5 4294967295
0.35225588 0.1595168 0.5 4294967295
0.49414223 0.022637548 0.5 4294967295
0.40623018 0.043251723 0.5 4294967295
0.28601927 0.15048476 0.5 4294967295
0.44173729 0.10834973 0.5 4294967295
0.26324204 0.019858848 0.5 4294967295
0.4689821 0.23643422 0.5 4294967295
0.41816068 0.068122067 0.5 4294967295
0.31769222 0.13979541 0.5 4294967295
0.26633725 0.20860916 0.5 4294967295
0.49252439 0.081094615 0.5 4294967295
0.43599465 0.006354237 0.5 4294967295
0.46122658 0.19545428 0.5 4294967295
0.33682409 0.013319264 0.5 4294967295
0.48519817 0.14898679 0.5 4294967295
0.34692287 0.087454058 0.5 4294967295
0.30850357 0.091065101 0.5 4294967295
0.3600916 0.21473378 0.5 4294967295
0.42181423 0.19144967 0.5 4294967295
0.36521852 0.076054141 0.5 4294967295
0.25446063 0.12846057 0.5 4294967295
0.34591299 0.2234427 0.5 4294967295
0.36489481 0.014073685 0.5 4294967295
0.21568565 0.5 0.20957762 4294967295
0.050474372 0.5 0.23064846 4294967295
0.19853741 0.5 0.15944619 4294967295
0.38580319 0.5 0.20927189 4294967295
0.46042892 0.5 0.013325751 4294967295
0.47999984 0.5 0.10283164 4294967295
0.13101354 0.5 0.1891551 4294967295
0.20813099 0.5 0.0081391409 4294967295
0.49266291 0.5 0.20170888 4294967295
0.261222 0.5 0.16785409 4294967295
0.17652141 0.5 0.16969183 4294967295
0.21197417 0.5 0.077990897 4294967295
0.31836286 0.5 0.059912063 4294967295
0.12309065 0.5 0.035144102 4294967295
0.063085258 0.5 0.046103489 4294967295
0.26987252 0.5 0.17493844 4294967295
0.011362213 0.5 0.14286977 4294967295
0.24006781 0.5 0.10494981 4294967295
0.10463195 0.5 0.062935501 4294967295
0.12844339 0.5 0.032530446 4294967295
0.1525225 0.5 0.039412573 4294967295
0.2091407 0.5 0.14176802 4294967295
0.45713535 0.5 0.20863584 4294967295
0.29981431 0.5 0.22489913 4294967295
0.32068947 0.5 0.030518169 4294967295
0.31971687 0.52418667 0.26757991 4294967295
0.40041998 0.5 0.2487403 4294967295
0.15319267 0.5 0.10939142 4294967295
0.11730471 0.5 0.13814166 4294967295
0.28907105 0.5 0.090194985 4294967295
0.36849031 0.5 0.012168118 4294967295
0.45916086 0.5 0.18992625 4294967295
0.31007579 0.5 0.099614337 4294967295
0.089752138 0.5 0.20735388 4294967295
0.32509968 0.5 0.10909776 4294967295
0.50027841 0.50624305 0.2711634 4294967295
0.29702067 0.5 0.094454668 4294967295
0.2611582 0.5 0.12707801 4294967295
0.10618102 0.5 0.030486267 4294967295
0.20395428 0.5 0.21343525 4294967295
0.12200888 0.5 0.24473035 4294967295
0.42408136 0.5 0.011214432 4294967295
0.48694128 0.5 0.038637016 4294967295
0.24121171 0.5 0.052123003 4294967295
0.35355735 0.5 0.015141381 4294967295
0.32988223 0.5 0.15506418 4294967295
0.054618996 0.5 0.12189843 4294967295
0.10190018 0.5 0.18234739 4294967295
0.44302553 0.5 0.095826156 4294967295
0.27940252 0.5 0.1340626 4294967295
0.40984786 0.5 0.12958558 4294967295
0.24574736 0.5 0.10343426 4294967295
0.44808051 0.5 0.0034527874 4294967295
0.46102455 0.5 0.027130757 4294967295
0.067878112 0.5 0.082489409 4294967295
0.51488358 0.50040448 0.12353922 4294967295
0.15443952 0.5 0.20260668 4294967295
0.21231584 0.5 0.070690408 4294967295
0.48248738 0.5 0.22676378 4294967295
0.24562682 0.5 0.16802238 4294967295
0.48381031 0.5 0.015131399 4294967295
0.058092419 0.5 0.019214656 4294967295
0.27405965 0.5 0.079996303 4294967295
0.40312409 0.5 0.10854258 4294967295
0.35164493 0.5 0.091263317 4294967295
0.51581705 0.51302177 0.15848158 4294967295
0.44169781 0.5 0.11547886 4294967295
0.46836129 0.5 0.19488914 4294967295
0.2378633 0.5 0.21469291 4294967295
0.44403979 0.5 0.1528707 4294967295
0.094364636 0.5 0.2125859 4294967295
0.49562839 0.5 0.12440208 4294967295
0.33038515 0.5 0.10397211 4294967295
0.39018497 0.5 0.15643628 4294967295
0.16147178 0.5 0.067905895 4294967295
0.20453385 0.5 0.11201347 4294967295
0.16607459 0.5 0.10350487 4294967295
0.18371142 0.5 0.22006711 4294967295
0.36700234 0.5 0.043417759 4294967295
0.1572194 0.5 0.10932363 4294967295
0.26936215 0.5 0.071214877 4294967295
0.48014 0.5 0.10552997 4294967295
0.37338749 0.5 0.22425064 4294967295
0.10083822 0.5 0.05562539 4294967295
0.3778871 0.5 0.022439012 4294967295
0.45698649 0.51020938 0.26444933 4294967295
0.47004983 0.5 0.20631029 4294967295
0.2210559 0.5 0.15021749 4294967295
0.1205648 0.5 0.055620436 4294967295
0.11330754 0.5 0.14101829 4294967295
0.24705265 0.5 0.13111243 4294967295
0.42731869 0.5 0.20656362 4294967295
0.46923459 0.5 0.055515055 4294967295
0.35326147 0.5 0.16811845 4294967295
0.19786562 0.5 0.0052404394 4294967295
0.086316764 0.5 0.25091305 4294967295
0.15291063 0.5 0.017512087 4294967295
0.17828771 0.5 0.01314906 4294967295
0.48352545 0.5 0.13956296 4294967295
0.13754889 0.5 0.18070629 4294967295
0.32400396 0.5 0.027270541 4294967295
0.33366433 0.5 0.1470269 4294967295
0.46716166 0.5 0.027360108 4294967295
0.094488762 0.5 0.043863226 4294967295
0.16596109 0.5 0.10389815 4294967295
0.40044808 0.5 0.23341124 4294967295
0.47002116 0.5 0.14854087 4294967295
0.326141 0.5 0.21962786 4294967295
0.40811184 0.5 0.089701235 4294967295
0.27549264 0.5 0.05298873 4294967295
0.18988335 0.5 0.1651884 4294967295
0.073205233 0.5 0.17139699 4294967295
0.36540097 0.5 0.12574647 4294967295
0.36909211 0.5 0.17446321 4294967295
0.030618872 0.5 0.0033205007 4294967295
0.2526533 0.5 0.21743107 4294967295
0.061182085 0.5 0.022001661 4294967295
0.14867662 0.5 0.014171869 4294967295
0.098723538 0.5 0.12158269 4294967295
0.11607019 0.5 0.13234231 4294967295
0.45096168 0.5 0.24291661 4294967295
0.17769837 0.5 0.21049142 4294967295
0.28291497 0.5 0.0019196781 4294967295
0.36023855 0.5 0.095513396 4294967295
0.18324183 0.5 0.067865595 4294967295
0.33475307 0.5 0.21785133 4294967295
0.46610799 0.5 0.18510474 4294967295
0.21591915 0.5 0.16575448 4294967295
0.12170243 0.5 0.042505629 4294967295
0.18043539 0.5 0.076160654 4294967295
0.091652259 0.5 0.1953872 4294967295
0.0069441353 0.5 0.07641717 4294967295
0.43477771 0.5 0.077810377 4294967295
0.18117808 0.5 0.016750628 4294967295
0.39878613 0.5 0.14862414 4294967295
0.33836895 0.5 0.20526308 4294967295
0.2830815 0.5 0.23794213 4294967295
0.27073064 0.5 0.03299823 4294967295
0.4797236 0.5 0.065484598 4294967295
0.25702325 0.5 0.081482716 4294967295
0.26670039 0.5 0.027013758 4294967295
0.036090598 0.5 0.11640419 4294967295
0.42423701 0.5 0.12600487 4294967295
0.064317346 0.5 0.022969719 4294967295
0.33702099 0.5 0.12237637 4294967295
0.23828982 0.5 0.23115873 4294967295
0.13552713 0.5 0.10260244 4294967295
0.081507601 0.5 0.035152428 4294967295
0.36082563 0.5 0.13134284 4294967295
0.10380612 0.5 0.12980588 4294967295
0.059933946 0.5 0.200996 4294967295
0.10935956 0.5 0.17150772 4294967295
0.37787625 0.5 0.1900451 4294967295
0.4090119 0.5 0.17879993 4294967295
0.011059402 0.5 0.08301758 4294967295
0.0650279 0.505997 0.1753463 4294967295
0.22006267 0.5 0.028327938 4294967295
0.010568187 0.5 0.072149843 4294967295
0.30866563 0.5 0.037442766 4294967295
0.19023912 0.5 0.072843313 4294967295
0.31963828 0.5 0.19424993 4294967295
0.074359886 0.5 0.22758271 4294967295
0.093704745 0.5 0.077933744 4294967295
0.025470272 0.5 0.22726518 4294967295
0.41855317 0.5 0.06463819 4294967295
0.24943447 0.5 0.28315613 4294967295
0.031268381 0.5 0.16175084 4294967295
0.32150257 0.5 0.20457232 4294967295
0.20359188 0.5 0.11525723 4294967295
0.26674446 0.5 0.10732564 4294967295
0.39654961 0.5 0.14365488 4294967295
0.49241108 0.5 0.05830615 4294967295
0.34396562 0.5 0.001489637 4294967295
0.26091197 0.5 0.076315627 4294967295
0.077864811 0.5 0.22557555 4294967295
0.3395189 0.5 0.24316746 4294967295
0.33965096 0.5 0.18633889 4294967295
0.35266849 0.5 0.21667786 4294967295
0.028545253 0.5 0.18906939 4294967295
0.38788608 0.5 0.2235492 4294967295
0.0074151596 0.5 0.051014103 4294967295
0.42558554 0.5 0.019341771 4294967295
0.4255299 0.5 0.12354404 4294967295
0.44782817 0.5 0.064560883 4294967295
0.47760254 0.5 0.10728633 4294967295
0.37039372 0.5 0.22980446 4294967295
0.0018824011 0.5 0.16809207 4294967295
0.49076447 0.5 0.17292401 4294967295
0.33916342 0.5 0.12583822 4294967295
0.49847928 0.5 0.20851411 4294967295
0.20282754 0.5 0.14839858 4294967295
0.31453133 0.5 0.021239256 4294967295
0.16947493 0.5 0.08359991 4294967295
0.47583422 0.5 0.099010088 4294967295
0.04533859 0.5 0.18186015 4294967295
0.16611086 0.5 0.048520416 4294967295
0.46574852 0.5 0.035352066 4294967295
0.091437295 0.5 0.19563919 4294967295
0.31779221 0.5 0.019632731 4294967295
0.02040017 0.5 0.14769737 4294967295
0.25383812 0.5 0.18208662 4294967295
0.16954692 0.5 0.12786025 4294967295
0.20035738 0.5 0.080155693 4294967295
0.10156854 0.5 0.0197604 4294967295
0.41198784 0.5 0.050023913 4294967295
0.48866647 0.5 0.096166655 4294967295
0.39684498 0.5 0.13554017 4294967295
0.15729389 0.5 0.033159956 4294967295
