# .PCD v0.7 - Point Cloud Data file format
VERSION 0.7
FIELDS x y z rgba
SIZE 4 4 4 4
TYPE F F F U
COUNT 1 1 1 1
WIDTH 1320
HEIGHT 1
VIEWPOINT 0 0 0 1 0 0 0
POINTS 1320
DATA ascii
0.19786562 0 0.010480879 4294967295
0.054884158 0 0.46722776 4294967295
0.15291063 0 0.035024174 4294967295
0.17828771 0 0.026298121 4294967295
0.48352545 0 0.27912593 4294967295
0.17972194 0.042173047 0.40358564 4294967295
0.32400396 0 0.054541081 4294967295
0.33366433 0 0.29405379 4294967295
0.46716166 0 0.054720215 4294967295
0.094488762 0 0.087726451 4294967295
0.16596109 0 0.20779631 4294967295
0.36976305 0 0.41301376 4294967295
0.47002116 0 0.29708174 4294967295
0.326141 0 0.43925571 4294967295
0.40811184 0 0.17940247 4294967295
0.30880809 0.033315443 0.13929291 4294967295
0.18988335 0 0.3303768 4294967295
0.073205233 0 0.34279397 4294967295
0.36540097 0 0.25149295 4294967295
0.36909211 0 0.34892642 4294967295
0.030618872 0 0.0066410014 4294967295
0.21033901 0 0.35462284 4294967295
0.061182085 0 0.044003323 4294967295
0.14867662 0 0.028343737 4294967295
0.098723538 0 0.24316537 4294967295
0.1233058 0.0072356113 0.27192023 4294967295
0.45096168 0 0.48583323 4294967295
0.17769837 0 0.42098284 4294967295
0.28291497 0 0.0038393561 4294967295
0.36023855 0 0.19102679 4294967295
0.18324183 0 0.13573119 4294967295
0.29700425 0 0.37312517 4294967295
0.46610799 0 0.37020949 4294967295
0.21591915 0 0.33150896 4294967295
0.12170243 0 0.085011259 4294967295
0.23656391 0.056128517 0.20844983 4294967295
0.091652259 0 0.3907744 4294967295
0.0069441353 0 0.15283434 4294967295
0.43477771 0 0.15562075 4294967295
0.18117808 0 0.033501256 4294967295
0.39878613 0 0.29724827 4294967295
0.29818588 0 0.34974781 4294967295
0.2830815 0 0.47588426 4294967295
0.27073064 0 0.065996461 4294967295
0.4797236 0 0.1309692 4294967295
0.33367252 0.076649264 0.2396147 4294967295
0.26670039 0 0.054027516 4294967295
0.036090598 0 0.23280838 4294967295
0.42423701 0 0.25200975 4294967295
0.064317346 0 0.045939438 4294967295
0.33702099 0 0.24475273 4294967295
0.19826074 0 0.42867327 4294967295
0.13552713 0 0.20520487 4294967295
0.081507601 0 0.070304856 4294967295
0.36082563 0 0.26268569 4294967295
0.16842932 0.064623192 0.32423493 4294967295
0.059933946 0 0.40199199 4294967295
0.10935956 0 0.34301543 4294967295
0.37787625 0 0.38009021 4294967295
0.4090119 0 0.35759985 4294967295
0.011059402 0 0.16603516 4294967295
0.020565279 0 0.27775979 4294967295
0.22006267 0 0.056655876 4294967295
0.010568187 0 0.14429969 4294967295
0.30866563 0 0.074885532 4294967295
0.23559578 0.045356661 0.19104329 4294967295
0.31963828 0 0.38849986 4294967295
0.074359886 0 0.45516542 4294967295
0.093704745 0 0.15586749 4294967295
0.025470272 0 0.45453036 4294967295
0.41855317 0 0.12927638 4294967295
0.21414213 0 0.4784871 4294967295
0.031268381 0 0.32350168 4294967295
0.32150257 0 0.40914464 4294967295
0.20359188 0 0.23051445 4294967295
0.33279562 0.066051155 0.28070244 4294967295
0.39654961 0 0.28730977 4294967295
0.49241108 0 0.1166123 4294967295
0.34396562 0 0.0029792739 4294967295
0.26091197 0 0.15263125 4294967295
0.077864811 0 0.4511511 4294967295
0.29831788 0 0.39750308 4294967295
0.33965096 0 0.37267777 4294967295
0.35266849 0 0.43335572 4294967295
0.028545253 0 0.37813878 4294967295
0.45402753 0.066141464 0.51323986 4294967295
0.0074151596 0 0.10202821 4294967295
0.42558554 0 0.038683541 4294967295
0.4255299 0 0.24708809 4294967295
0.44782817 0 0.12912177 4294967295
0.47760254 0 0.21457265 4294967295
0.34377307 0 0.37415215 4294967295
0.0018824011 0 0.33618414 4294967295
0.49076447 0 0.34584802 4294967295
0.33916342 0 0.25167644 4294967295
0.55764538 0.059166085 0.47619429 4294967295
0.20282754 0 0.29679716 4294967295
0.31453133 0 0.042478513 4294967295
0.16947493 0 0.16719982 4294967295
0.47583422 0 0.19802018 4294967295
0.04533859 0 0.3637203 4294967295
0.14511859 0 0.05275375 4294967295
0.46574852 0 0.070704132 4294967295
0.091437295 0 0.39127839 4294967295
0.31779221 0 0.039265461 4294967295
0.07284306 0.052442893 0.34783763 4294967295
0.25383812 0 0.36417323 4294967295
0.16954692 0 0.2557205 4294967295
0.20035738 0 0.16031139 4294967295
0.10156854 0 0.0395208 4294967295
0.41198784 0 0.10004783 4294967295
0.45654902 0 0.11481537 4294967295
0.39684498 0 0.27108034 4294967295
0.15729389 0 0.066319913 4294967295
0.43828017 0 0.13312811 4294967295
0.33416665 0.069826543 0.55344528 4294967295
0.49684843 0 0.4094587 4294967295
0.036372505 0 0.46259692 4294967295
0.48016283 0 0.12780979 4294967295
0.35387534 0 0.29795504 4294967295
0.16707526 0 0.37427551 4294967295
0.0933498 0 0.42091337 4294967295
0.23844872 0 0.26289672 4294967295
0.17663388 0 0.43880612 4294967295
0.42320812 0 0.27820241 4294967295
0.5145244 0.036197476 0.37139341 4294967295
0.37825024 0 0.43487594 4294967295
0.45001131 0 0.27509522 4294967295
0.20595628 0 0.10730519 4294967295
0.34141514 0 0.14423645 4294967295
0.24043331 0 0.10575524 4294967295
0.1278552 0 0.23728172 4294967295
0.015213935 0 0.16422771 4294967295
0.19987866 0 0.49537677 4294967295
0.29203752 0 0.053753983 4294967295
0.36022344 0.066891626 0.52600437 4294967295
0.42802948 0 0.38668162 4294967295
0.38002613 0 0.1664782 4294967295
0.14957833 0 0.056660008 4294967295
0.10528431 0 0.072786435 4294967295
0.33486244 0 0.083611213 4294967295
0.40798238 0 0.21311267 4294967295
0.01848715 0 0.35799369 4294967295
0.48820791 0 0.22444344 4294967295
0.46529886 0 0.32962304 4294967295
0.37415355 0.0054736822 0.21120587 4294967295
0.43537828 0 0.49653506 4294967295
0.44301391 0 0.45059222 4294967295
0.16076279 0 0.14289257 4294967295
0.44596899 0 0.45280027 4294967295
0.19664656 0 0.23930077 4294967295
0.41191304 0 0.12467603 4294967295
0.12598239 0 0.29193917 4294967295
0.29115424 0 0.27556071 4294967295
0.3485992 0 0.39643854 4294967295
0.36644137 0.018094204 0.20155583 4294967295
0.48004976 0 0.25632954 4294967295
0.39657429 0 0.49853691 4294967295
0.11432321 0 0.3847822 4294967295
0.22298035 0 0.079622075 4294967295
0.21440522 0 0.091660224 4294967295
0.28535426 0 0.14978349 4294967295
0.088195302 0 0.22836816 4294967295
0.10037571 0 0.24895808 4294967295
0.37126073 0 0.046344683 4294967295
0.21851566 0.016757289 0.084664568 4294967295
0.28564546 0 0.11367142 4294967295
0.19258331 0 0.41162783 4294967295
0.40561059 0 0.48373756 4294967295
0.18718855 0 0.25420979 4294967295
0.3801761 0 0.035535708 4294967295
0.43767139 0 0.36022586 4294967295
0.29186523 0 0.33424568 4294967295
0.35876277 0 0.40618843 4294967295
0.21902786 0 0.081743129 4294967295
0.50878501 0.022974472 0.45640755 4294967295
0.17340335 0 0.27116477 4294967295
0.083216578 0 0.26159865 4294967295
0.49953294 0 0.18359229 4294967295
0.010556743 0 0.37079367 4294967295
0.22993697 0 0.21231511 4294967295
0.43870094 0 0.015582431 4294967295
0.32598653 0 0.13128427 4294967295
0.42721027 0 0.23159713 4294967295
0.11502182 0 0.11439883 4294967295
0.50358653 0.017779594 0.51297754 4294967295
0.14993455 0 0.42347831 4294967295
0.35542378 0 0.44179976 4294967295
0.25772399 0 0.21418655 4294967295
0.34798822 0 0.47675186 4294967295
0.29592967 0 0.33379871 4294967295
0.41018495 0 0.46933302 4294967295
0.10496349 0 0.49340153 4294967295
0.2309317 0 0.10449643 4294967295
0.17699382 0 0.24148844 4294967295
0.52890247 0.053612337 0.4605431 4294967295
0.45380354 0 0.41399106 4294967295
0.42251322 0 0.27979007 4294967295
0.045275327 0 0.34972349 4294967295
0.011387214 0 0.16029714 4294967295
0.46412233 0 0.49719414 4294967295
0.15549505 0 0.11405686 4294967295
0.42067245 0 0.01091883 4294967295
0.055856634 0 0.17839645 4294967295
0.22510539 0 0.40384483 4294967295
0.20654418 0.051395867 0.072430931 4294967295
0.23764355 0 0.065333262 4294967295
0.4903681 0 0.34260705 4294967295
0.058734786 0 0.2212998 4294967295
0.44710347 0 0.23572861 4294967295
0.46278822 0 0.42239359 4294967295
0.1426594 0 0.41659176 4294967295
0.33638465 0 0.065172613 4294967295
0.19638187 0 0.38165998 4294967295
0.4148961 0 0.20776908 4294967295
0.11417351 0.072216384 0.45123482 4294967295
0.20496321 0 0.19745217 4294967295
0.49307528 0 0.12563565 4294967295
0.20837101 0 0.048931926 4294967295
0.30403209 0 0.43347639 4294967295
0.45277676 0 0.45918041 4294967295
0.45451146 0 0.19042033 4294967295
0.024513667 0 0.44487956 4294967295
0.033027373 0 0.083248451 4294967295
0.16617936 0 0.48013085 4294967295
0.36141491 0.042437855 0.17140543 4294967295
0.40252444 0 0.46163645 4294967295
0.045559362 0 0.2389091 4294967295
0.026809057 0 0.24194123 4294967295
0.12056907 0 0.44170517 4294967295
0.44971031 0 0.16252619 4294967295
0.32072359 0 0.1546735 4294967295
0.35997838 0 0.31379887 4294967295
0.28030914 0 0.068349376 4294967295
0.3627308 0 0.08434125 4294967295
0.010021708 0.0081959385 0.3237035 4294967295
0.043521661 0 0.45633721 4294967295
0.0059278971 0 0.068035327 4294967295
0.40121678 0 0.038955268 4294967295
0.15128379 0 0.067396142 4294967295
0.019086124 0 0.47026083 4294967295
0.19636373 0 0.42161056 4294967295
0.43189728 0 0.24192309 4294967295
0.16051966 0 0.45870635 4294967295
0.48386431 0 0.28108874 4294967295
0.44473162 0.044320107 0.47789472 4294967295
0.44361493 0 0.22113509 4294967295
0.088248119 0 0.30359331 4294967295
0.034933981 0 0.36855727 4294967295
0.3719427 0 0.39766479 4294967295
0.45289853 0 0.37376845 4294967295
0.21317236 0 0.4964202 4294967295
0.33010569 0 0.21910027 4294967295
0.064455524 0 0.23132247 4294967295
0.25805554 0 0.21573931 4294967295
0.33061093 0.0318923 0.30903396 4294967295
0.18600015 0 0.49508235 4294967295
0.19875222 0 0.11789744 4294967295
0.23700544 0 0.35927188 4294967295
0.076603785 0 0.22086975 4294967295
0.14036062 0 0.47701529 4294967295
0.15444437 0 0.083975561 4294967295
0.19815038 0 0.2426925 4294967295
0.38756886 0 0.23308437 4294967295
0.11124977 0 0.25951156 4294967295
0.19576323 0.065014087 0.12916239 4294967295
0.13328001 0 0.34392151 4294967295
0.060568489 0 0.4633857 4294967295
0.063021779 0 0.12502402 4294967295
0.19470817 0 0.32107732 4294967295
0.34076333 0 0.4934268 4294967295
0.098218963 0 0.026763469 4294967295
0.48850915 0 0.29697117 4294967295
0.14466091 0 0.22551458 4294967295
0.15624307 0 0.22126469 4294967295
0.44662756 0.00024320745 0.29684693 4294967295
0.19827998 0 0.10082871 4294967295
0.38057926 0 0.39643037 4294967295
0.34352121 0 0.26814812 4294967295
0.12951474 0 0.45477098 4294967295
0.02765969 0 0.26026389 4294967295
0.01891927 0 0.16093971 4294967295
0.1041854 0 0.079487763 4294967295
0.12432541 0 0.16720718 4294967295
0.20451178 0 0.31903359 4294967295
0.53410268 0.045818165 0.091093257 4294967295
0.31246036 0 0.086503446 4294967295
0.072038561 0 0.30096951 4294967295
0.38347462 0 0.21669947 4294967295
0.026484093 0 0.039717697 4294967295
0.43796417 0 0.47286844 4294967295
0.33632138 0 0.13624413 4294967295
0.073697135 0 0.21690065 4294967295
0.032674503 0 0.41721833 4294967295
0.48504877 0 0.16218923 4294967295
0.38870755 0.01671824 0.029426714 4294967295
0.42245314 0 0.39090857 4294967295
0.17364818 0 0.026638528 4294967295
0.47039634 0 0.29797357 4294967295
0.19384572 0 0.17490812 4294967295
0.11700717 0 0.1821302 4294967295
0.22018321 0 0.42946756 4294967295
0.26863363 0 0.29222178 4294967295
0.23043706 0 0.15210828 4294967295
0.0089212451 0 0.25692114 4294967295
0.22694567 0.035119705 0.48200512 4294967295
0.22978958 0 0.02814737 4294967295
0.08312954 0 0.3034867 4294967295
0.24504802 0 0.11580405 4294967295
0.22070506 0 0.2300968 4294967295
0.27799329 0 0.092694372 4294967295
0.24280527 0 0.2004464 4294967295
0.48360294 0 0.41645345 4294967295
0.22708493 0 0.45399928 4294967295
0.21442705 0 0.42093065 4294967295
0.15167934 0.022771921 0.35420614 4294967295
0.10306084 0 0.34909064 4294967295
0.26090175 0 0.37169451 4294967295
0.14131241 0 0.49133882 4294967295
0.02380277 0 0.15023364 4294967295
0.24825998 0 0.21562874 4294967295
0.097119048 0 0.47804955 4294967295
0.24377611 0 0.18024859 4294967295
0.28153628 0 0.48882413 4294967295
0.29605263 0 0.0022413293 4294967295
0.23213978 0.013218832 0.087264746 4294967295
0.0949357 0 0.46172622 4294967295
0.27449232 0 0.078538656 4294967295
0.37817967 0 0.0015772523 4294967295
0.032537948 0 0.092606723 4294967295
0.42250791 0 0.16144536 4294967295
0.42404094 0 0.025568742 4294967295
0.010535984 0 0.18494271 4294967295
0.39726323 0 0.15184839 4294967295
0.17628153 0 0.42106602 4294967295
0.30507344 0.0029914193 0.42753291 4294967295
0.13669476 0 0.3992011 4294967295
0.40259105 0 0.38047087 4294967295
0.079449669 0 0.18412732 4294967295
0.369295 0 0.37550232 4294967295
0.18636864 0 0.088215947 4294967295
0.44954821 0 0.28130436 4294967295
0.049942166 0 0.22404054 4294967295
0.35984302 0 0.42812183 4294967295
0.2256178 0 0.39238095 4294967295
0.073298968 0.052570395 0.20069608 4294967295
0.05382631 0 0.44476953 4294967295
0.17369443 0 0.064362295 4294967295
0.12971222 0 0.070957668 4294967295
0.21621068 0 0.30599374 4294967295
0.49202368 0 0.018292708 4294967295
0.23053524 0 0.12871842 4294967295
0.41749379 0 0.13312629 4294967295
0.0091892947 0 0.49694347 4294967295
0.31725362 0 0.37848431 4294967295
0.41882244 0.046376668 0.049998928 4294967295
0.46670026 0 0.32199398 4294967295
0.28492662 0 0.01664241 4294967295
0.046034522 0 0.14476961 4294967295
0.44476426 0 0.27165231 4294967295
0.037150558 0 0.46549284 4294967295
0.41977802 0 0.090976864 4294967295
0.41026235 0 0.093472436 4294967295
0.15533917 0 0.039974574 4294967295
0.16443011 0 0.37154984 4294967295
0.36009637 0.014128027 0.1705818 4294967295
0.38984254 0 0.076503567 4294967295
0.28517219 0 0.30733633 4294967295
0.20962986 0 0.2943615 4294967295
0.3042798 0 0.026883477 4294967295
0.1728458 0 0.17672555 4294967295
0.030505739 0 0.13954604 4294967295
0.49871954 0 0.31543234 4294967295
0.15618846 0 0.044754066 4294967295
0.46020195 0 0.10095271 4294967295
0.36239102 0.045984644 0.54333717 4294967295
0.066445544 0 0.23618439 4294967295
0.08832939 0 0.47670788 4294967295
0.32965681 0 0.24366854 4294967295
0.016682463 0 0.49408692 4294967295
0.11521839 0 0.36265078 4294967295
0.15054071 0 0.0050609289 4294967295
0.43915436 0 0.4357129 4294967295
0.31239727 0 0.14878422 4294967295
0.23007441 0 0.11667705 4294967295
0.19939511 0.02372741 0.42664763 4294967295
0.29340261 0 0.20617343 4294967295
0.042466253 0 0.29212216 4294967295
0.021605786 0 0.19865471 4294967295
0.33687621 0 0.48180774 4294967295
0.29960743 0 0.1532826 4294967295
0.47916028 0 0.36605296 4294967295
0.38946697 0 0.067489661 4294967295
0.34276083 0 0.21912381 4294967295
0.31115821 0 0.35944331 4294967295
0.22780636 0.014595624 0.44097221 4294967295
0.22209409 0 0.36375144 4294967295
0.43143752 0 0.16124845 4294967295
0.29946434 0 0.24383478 4294967295
0.31003267 0 0.029538769 4294967295
0.36051184 0 0.48570037 4294967295
0.43245897 0 0.15391445 4294967295
0.1918738 0 0.47492522 4294967295
0.44603661 0 0.21347958 4294967295
0.17357993 0 0.28291282 4294967295
0.2438212 0.048533872 0.52172124 4294967295
0.4361954 0 0.1744476 4294967295
0.33924031 0 0.3256624 4294967295
0.24193726 0 0.18200114 4294967295
0.0447862 0 0.053095467 4294967295
0.041444458 0 0.25799695 4294967295
0.47947207 0 0.26353854 4294967295
0.12174838 0 0.41090959 4294967295
0.42478701 0 0.42121273 4294967295
0.15474436 0 0.23481967 4294967295
0.4695105 0.018758971 0.034015168 4294967295
0.22052003 0 0.38321048 4294967295
0.16917065 0 0.41239384 4294967295
0.35813573 0 0.11520724 4294967295
0.12587342 0 0.03171565 4294967295
0.39812005 0 0.32116073 4294967295
0.0049030008 0 0.33431545 4294967295
0.49560836 0 0.3441433 4294967295
0.15997785 0 0.23754561 4294967295
0.026144456 0 0.20476405 4294967295
0.29713565 0.0064945715 0.074083492 4294967295
0.46276098 0 0.27011314 4294967295
0.33112746 0 0.084509365 4294967295
0.18102272 0 0.25591448 4294967295
0.0057220999 0 0.33576709 4294967295
0.49073413 0 0.45647362 4294967295
0.35102329 0 0.21125416 4294967295
0.3396841 0 0.020193923 4294967295
0.12364799 0 0.19781981 4294967295
0.13540116 0 0.2495214 4294967295
0.29806226 0.068526797 0.102048 4294967295
0.070682146 0 0.23443846 4294967295
0.36783665 0 0.066290498 4294967295
0.078581765 0 0.027814513 4294967295
0.30383611 0 0.10472623 4294967295
0.23257856 0 0.094477184 4294967295
0.17231514 0 0.19533955 4294967295
0.36459032 0 0.0034426081 4294967295
0.2798489 0 0.045613043 4294967295
0.25935706 0 0.28557101 4294967295
0.3881883 0.0068081929 0.25689942 4294967295
0.24204461 0 0.2324034 4294967295
0.46134537 0 0.081728704 4294967295
0.25259733 0 0.084993362 4294967295
0.2795485 0 0.38799849 4294967295
0.33451477 0 0.0090839695 4294967295
0.4215197 0 0.40519691 4294967295
0.24352244 0 0.28935635 4294967295
0.4714874 0 0.32210419 4294967295
0.31717089 0 0.27532351 4294967295
0.4567056 0.02987518 0.079624616 4294967295
0.36980072 0 0.099145561 4294967295
0.24508898 0 0.23439103 4294967295
0.10258817 0 0.024937885 4294967295
0.28000408 0 0.36194524 4294967295
0.31050888 0 0.1613842 4294967295
0.11203646 0 0.052553501 4294967295
0.39378759 0 0.073381826 4294967295
0.1342822 0 0.14638494 4294967295
0.15837519 0 0.41383073 4294967295
0.07806737 0.043683946 0.53657395 4294967295
0.42291468 0 0.45590311 4294967295
0.39808688 0 0.16643712 4294967295
0.24525948 0 0.36957428 4294967295
0.48854131 0 0.062430359 4294967295
0.1448978 0 0.41537172 4294967295
0.1121798 0 0.014698513 4294967295
0.014517291 0 0.35726878 4294967295
0.24908954 0 0.11710546 4294967295
0.38220665 0 0.029093621 4294967295
0.50007302 0.021022337 0.21373789 4294967295
0.19047782 0 0.091087162 4294967295
0.24526905 0 0.084265433 4294967295
0.16446899 0 0.37955126 4294967295
0.23065037 0 0.32284418 4294967295
0.29338196 0 0.26503378 4294967295
0.31573415 0 0.21629664 4294967295
0.22093689 0 0.21382102 4294967295
0.38273376 0 0.46619639 4294967295
0.083395302 0 0.37127507 4294967295
0.049362231 0.020735487 0.24902859 4294967295
0.28664681 0 0.14080654 4294967295
0.24299163 0 0.30116409 4294967295
0.49807531 0 0.49208117 4294967295
0.41826954 0 0.38028198 4294967295
0.021174792 0 0.39732027 4294967295
0.072997533 0 0.21165262 4294967295
0.48840743 0 0.3182666 4294967295
0.29591805 0 0.15287641 4294967295
0.19781785 0 0.026568407 4294967295
0.49029556 0.014574984 0.5057748 4294967295
0.29160219 0 0.29145473 4294967295
0.20749646 0 0.012539093 4294967295
0.0052757571 0 0.090230219 4294967295
0.47873548 0 0.088671058 4294967295
0.46150529 0 0.0073622223 4294967295
0.31696418 0 0.24815209 4294967295
0.14816876 0 0.059955798 4294967295
0.04931619 0 0.14624408 4294967295
0.052036967 0 0.46758574 4294967295
0.026778277 0.00025220934 0.073463969 4294967295
0.36490601 0 0.099523604 4294967295
0.28486437 0 0.35331342 4294967295
0.4177902 0 0.080782421 4294967295
0.0061898348 0 0.11560803 4294967295
0.10735083 0 0.48191044 4294967295
0.10680784 0 0.39895302 4294967295
0.27336517 0 0.31430429 4294967295
0.41149211 0 0.27864093 4294967295
0.40453452 0 0.39022759 4294967295
0.39101949 0.023707498 0.38974732 4294967295
0.3975898 0 0.18427616 4294967295
0.1141919 0 0.045758575 4294967295
0.24423195 0 0.16350809 4294967295
0.19200267 0 0.29626891 4294967295
0.13109383 0 0.21852873 4294967295
0.36948067 0 0.49599984 4294967295
0.31805232 0 0.15434505 4294967295
0.34931326 0 0.23584253 4294967295
0.23512748 0 0.35550308 4294967295
0.38630965 0.034859095 0.3773374 4294967295
0.33741352 0 0.45825839 4294967295
0.24143131 0 0.1107787 4294967295
0.27256268 0 0.15292343 4294967295
0.38941962 0 0.1770972 4294967295
0.043151017 0 0.2567316 4294967295
0.043137006 0 0.44074082 4294967295
0.44100776 0 0.1573289 4294967295
0.4864994 0 0.18523973 4294967295
0.32083699 0 0.17850207 4294967295
0.54641646 0.064907819 0.51683867 4294967295
0.3970308 0 0.35098934 4294967295
0.44793066 0 0.21508314 4294967295
0.0053343829 0 0.29724392 4294967295
0.45092565 0 0.24046186 4294967295
0.15274704 0 0.30237621 4294967295
0.082940154 0 0.49016055 4294967295
0.2606346 0 0.32437149 4294967295
0.10093925 0 0.033197284 4294967295
0.47729489 0 0.49035886 4294967295
0.26061785 0.05032336 0.07076928 4294967295
0.24709047 0 0.2534315 4294967295
0.46118674 0 0.18809825 4294967295
0.4107604 0 0.44768617 4294967295
0.37333798 0 0.23159739 4294967295
0.12618822 0 0.35484663 4294967295
0.18352823 0 0.023219023 4294967295
0.20583595 0 0.13145889 4294967295
0.23830216 0 0.21117033 4294967295
0.42870283 0 0.1892278 4294967295
0.50798863 0.056356452 0.13780631 4294967295
0.49160403 0 0.034572348 4294967295
0.071610413 0 0.25223863 4294967295
0.35894382 0 0.17254966 4294967295
0.28543591 0 0.33623871 4294967295
0.16290854 0 0.4957304 4294967295
0.35668465 0 0.40999901 4294967295
0.24916187 0 0.31787139 4294967295
0.098097272 0 0.15992227 4294967295
0.26555756 0 0.47143525 4294967295
0.45033276 0.058813088 0.45055887 4294967295
0.32628188 0 0.075047903 4294967295
0.4149648 0 0.032117825 4294967295
0.2065068 0 0.15326695 4294967295
0.24328816 0 0.13520963 4294967295
0.34249476 0 0.19492035 4294967295
0.2166595 0 0.33409879 4294967295
0.22949269 0 0.28826991 4294967295
0.086337402 0 0.088436522 4294967295
0.46081957 0 0.3717733 4294967295
0.48948595 0.064810716 0.18853883 4294967295
0.3675037 0 0.28135988 4294967295
0.033727136 0 0.11666556 4294967295
0.09923128 0 0.1318244 4294967295
0.27658784 0 0.36478883 4294967295
0.10325965 0 0.16810751 4294967295
0.25653461 0 0.42954153 4294967295
0.24315542 0 0.17149942 4294967295
0.46165934 0 0.44966221 4294967295
0.32476637 0 0.2049475 4294967295
0.099380068 0.014508206 0.18176934 4294967295
0.39986786 0 0.30153134 4294967295
0.0013599209 0 0.12936056 4294967295
0.089801267 0 0.087697327 4294967295
0.21779707 0 0.050620846 4294967295
0.45947063 0 0.14247231 4294967295
0.17434897 0 0.32697433 4294967295
0.42383221 0 0.2080761 4294967295
0.4436399 0 0.023063481 4294967295
0.33990049 0 0.22022773 4294967295
0.42718378 0.039331477 0.48249161 4294967295
0.38833526 0 0.14438692 4294967295
0.37270167 0 0.13149066 4294967295
0.31588632 0 0.33436102 4294967295
0.081152886 0 0.1406527 4294967295
0.039308533 0 0.16602474 4294967295
0.30791384 0 0.43917638 4294967295
0.46755609 0 0.30927375 4294967295
0.068536945 0 0.057357356 4294967295
0.39697108 0 0.28633404 4294967295
0.17800082 0.070022613 0.42646432 4294967295
0.42880633 0 0.28232718 4294967295
0.18341602 0 0.35263854 4294967295
0.49040326 0 0.12705591 4294967295
0.37570202 0 0.33030376 4294967295
0.34728366 0 0.26355433 4294967295
0.27346393 0 0.2356189 4294967295
0.40794125 0 0.14616561 4294967295
0.36710957 0 0.22382759 4294967295
0.48052663 0 0.44826245 4294967295
0.42648941 0.062009126 0.081844293 4294967295
0.11428719 0 0.17239411 4294967295
0.45901155 0 0.081843279 4294967295
0.48166788 0 0.027548507 4294967295
0.13920064 0 0.37863895 4294967295
0.31388253 0 0.24717884 4294967295
0.23508064 0 0.24268886 4294967295
0.029506002 0 0.41849667 4294967295
0.095327407 0 0.019909266 4294967295
0.045552596 0 0.47102943 4294967295
0.39312997 0.042916909 0.43575317 4294967295
0.23458377 0 0.12367697 4294967295
0.12845515 0 0.14252502 4294967295
0.26984257 0 0.49556473 4294967295
0.36635262 0 0.25036922 4294967295
0.44382715 0 0.23083289 4294967295
0.2702044 0 0.058114354 4294967295
0.403227 0 0.22921593 4294967295
0.13995764 0 0.38489485 4294967295
0.25676444 0 0.27915826 4294967295
0.28562018 0.022086367 0.092733338 4294967295
0.026337104 0 0.49861446 4294967295
0.31333584 0 0.055843107 4294967295
0.41711113 0 0.40866324 4294967295
0.075752378 0 0.46266374 4294967295
0.3796927 0 0.4259654 4294967295
0.35549998 0 0.11427645 4294967295
0.04964238 0 0.48395514 4294967295
0.25680149 0 0.31948495 4294967295
0.47951984 0 0.12315408 4294967295
0.10494114 0.035086967 0.45843396 4294967295
0.35398698 0 0.34005854 4294967295
0.48146138 0 0.25721395 4294967295
0.069274485 0 0.121419 4294967295
0.14210883 0 0.32603893 4294967295
0.40057725 0 0.40564263 4294967295
0.3966859 0 0.42691436 4294967295
0.40425709 0 0.21002175 4294967295
0.48275748 0 0.32136822 4294967295
0.11868501 0 0.058509845 4294967295
0.34760961 0.063577689 0.56195539 4294967295
0.48447526 0 0.13953193 4294967295
0.11265416 0 0.034117639 4294967295
0.12348706 0 0.36945564 4294967295
0.35360259 0 0.1030069 4294967295
0.49260971 0 0.42345676 4294967295
0.026353912 0 0.34659669 4294967295
0.26351532 0 0.0078152753 4294967295
0.10381064 0 0.33278981 4294967295
0.12923427 0 0.24591947 4294967295
0.18051475 0.021686019 0.051497549 4294967295
0.15156208 0 0.055514645 4294967295
0.4567259 0 0.055819165 4294967295
0.2655364 0 0.43948337 4294967295
0.37718737 0 0.3842214 4294967295
0.4979932 0 0.16121931 4294967295
0.38259912 0 0.48246846 4294967295
0.30075124 0 0.49525326 4294967295
0.016586106 0 0.42423829 4294967295
0.3647089 0 0.37018871 4294967295
0.082037464 0.05479227 0.41211089 4294967295
0.29364547 0 0.053599104 4294967295
0.20391528 0 0.057160772 4294967295
0.06141438 0 0.30772591 4294967295
0.38995057 0 0.19064865 4294967295
0.053645376 0 0.048779305 4294967295
0.22046018 0 0.20520747 4294967295
0.10429395 0 0.17718607 4294967295
0.26102662 0 0.36983034 4294967295
0.11666944 0 0.13821399 4294967295
0.26410332 0.010051582 0.12471423 4294967295
0.29943332 0 0.13665086 4294967295
0.097131118 0 0.10018455 4294967295
0.13190413 0 0.11371722 4294967295
0.024422843 0 0.49661303 4294967295
0.48390591 0 0.051668037 4294967295
0.35393161 0 0.27755138 4294967295
0.10526714 0 0.0578469 4294967295
0.33471215 0 0.16668151 4294967295
0.36557281 0 0.22466274 4294967295
0.3934643 0.036134124 0.45535231 4294967295
0.27344203 0 0.07779035 4294967295
0.12442565 0 0.377736 4294967295
0.25497642 0 0.38545227 4294967295
0.24756634 0 0.37164587 4294967295
0.023666274 0 0.0016180926 4294967295
0.48630852 0 0.32309958 4294967295
0.13826896 0 0.083439633 4294967295
0.42328414 0 0.27017307 4294967295
0.19715686 0 0.447707 4294967295
0.31852785 0.051741756 0.23280454 4294967295
0.49937502 0 0.12071772 4294967295
0 0.21568565 0.41915524 4294967295
0 0.050474372 0.46129692 4294967295
0 0.19853741 0.31889239 4294967295
0 0.38580319 0.41854379 4294967295
0 0.46042892 0.026651502 4294967295
0 0.45038176 0.1440798 4294967295
0 0.13101354 0.3783102 4294967295
0 0.20813099 0.016278282 4294967295
0.017791083 0.510454 0.42120886 4294967295
0 0.261222 0.33570817 4294967295
0 0.17652141 0.33938366 4294967295
0 0.21197417 0.15598179 4294967295
0 0.31836286 0.11982413 4294967295
0 0.12309065 0.070288204 4294967295
0 0.063085258 0.092206977 4294967295
0 0.23526518 0.27877089 4294967295
0 0.011362213 0.28573954 4294967295
0 0.24006781 0.20989962 4294967295
0.0090313228 0.11366328 0.13490233 4294967295
0 0.12844339 0.065060891 4294967295
0 0.1525225 0.078825146 4294967295
0 0.2091407 0.28353605 4294967295
0 0.45713535 0.41727167 4294967295
0 0.29981431 0.44979826 4294967295
0 0.32068947 0.061036337 4294967295
0 0.28550643 0.49721089 4294967295
0 0.40041998 0.4974806 4294967295
0 0.15319267 0.21878284 4294967295
0.02937313 0.14667784 0.30565646 4294967295
0 0.28907105 0.18038997 4294967295
0 0.36849031 0.024336236 4294967295
0 0.45916086 0.3798525 4294967295
0 0.31007579 0.19922867 4294967295
0 0.089752138 0.41470775 4294967295
0 0.32509968 0.21819553 4294967295
0 0.47976863 0.47762218 4294967295
0 0.29702067 0.18890934 4294967295
0 0.2611582 0.25415602 4294967295
0.071652777 0.1778338 0.13262531 4294967295
0 0.20395428 0.4268705 4294967295
0 0.12200888 0.48946071 4294967295
0 0.42408136 0.022428865 4294967295
0 0.48694128 0.077274032 4294967295
0 0.24121171 0.10424601 4294967295
0 0.35355735 0.030282762 4294967295
0 0.28463599 0.22204767 4294967295
0 0.054618996 0.24379686 4294967295
0 0.10190018 0.36469477 4294967295
0.044143647 0.48716918 0.23579596 4294967295
0 0.27940252 0.26812521 4294967295
0 0.40984786 0.25917116 4294967295
0 0.24574736 0.20686851 4294967295
0 0.44808051 0.0069055748 4294967295
0 0.46102455 0.054261513 4294967295
0 0.067878112 0.16497882 4294967295
0 0.481132 0.18988699 4294967295
0 0.15443952 0.40521336 4294967295
0 0.21231584 0.14138082 4294967295
0.058455501 0.54094291 0.5119831 4294967295
0 0.24562682 0.33604476 4294967295
0 0.48381031 0.030262798 4294967295
0 0.058092419 0.038429312 4294967295
0 0.27405965 0.15999261 4294967295
0 0.40312409 0.21708517 4294967295
0 0.35164493 0.18252663 4294967295
0 0.48521036 0.26149276 4294967295
0 0.44169781 0.23095772 4294967295
0 0.46836129 0.38977829 4294967295
0.02495791 0.2628212 0.45434371 4294967295
0 0.44403979 0.3057414 4294967295
0 0.094364636 0.42517179 4294967295
0 0.49562839 0.24880415 4294967295
0 0.33038515 0.20794423 4294967295
0 0.39018497 0.31287256 4294967295
0 0.16147178 0.13581179 4294967295
0 0.1489173 0.1452821 4294967295
0 0.16607459 0.20700973 4294967295
0 0.18371142 0.44013423 4294967295
0.049944833 0.41694719 0.13678035 4294967295
0 0.1572194 0.21864726 4294967295
0 0.26936215 0.14242975 4294967295
0 0.48014 0.21105994 4294967295
0 0.37338749 0.44850129 4294967295
0 0.10083822 0.11125078 4294967295
0 0.3778871 0.044878025 4294967295
0 0.41699219 0.47225174 4294967295
0 0.47004983 0.41262057 4294967295
0 0.2210559 0.30043498 4294967295
0.018984504 0.13954931 0.13022538 4294967295
0 0.11330754 0.28203657 4294967295
0 0.24705265 0.26222485 4294967295
0 0.42731869 0.41312724 4294967295
0 0.46923459 0.11103011 4294967295
0 0.35326147 0.33623689 4294967295
0 0.19786562 0.010480879 4294967295
0 0.054884158 0.46722776 4294967295
0 0.15291063 0.035024174 4294967295
0 0.17828771 0.026298121 4294967295
0.0058776783 0.48940313 0.2850036 4294967295
0 0.13754889 0.36141258 4294967295
0 0.32400396 0.054541081 4294967295
0 0.33366433 0.29405379 4294967295
0 0.46716166 0.054720215 4294967295
0 0.094488762 0.087726451 4294967295
0 0.16596109 0.20779631 4294967295
0 0.36976305 0.41301376 4294967295
0 0.47002116 0.29708174 4294967295
0 0.326141 0.43925571 4294967295
0.053575233 0.46168709 0.2329777 4294967295
0 0.27549264 0.10597746 4294967295
0 0.18988335 0.3303768 4294967295
0 0.073205233 0.34279397 4294967295
0 0.36540097 0.25149295 4294967295
0 0.36909211 0.34892642 4294967295
0 0.030618872 0.0066410014 4294967295
0 0.21033901 0.35462284 4294967295
0 0.061182085 0.044003323 4294967295
0 0.14867662 0.028343737 4294967295
0.021984801 0.12070834 0.26515019 4294967295
0 0.11607019 0.26468462 4294967295
0 0.45096168 0.48583323 4294967295
0 0.17769837 0.42098284 4294967295
0 0.28291497 0.0038393561 4294967295
0 0.36023855 0.19102679 4294967295
0 0.18324183 0.13573119 4294967295
0 0.29700425 0.37312517 4294967295
0 0.46610799 0.37020949 4294967295
0 0.21591915 0.33150896 4294967295
0.0069985655 0.128701 0.092009827 4294967295
0 0.18043539 0.15232131 4294967295
0 0.091652259 0.3907744 4294967295
0 0.0069441353 0.15283434 4294967295
0 0.43477771 0.15562075 4294967295
0 0.18117808 0.033501256 4294967295
0 0.39878613 0.29724827 4294967295
0 0.29818588 0.34974781 4294967295
0 0.2830815 0.47588426 4294967295
0 0.27073064 0.065996461 4294967295
0.070416905 0.5501405 0.20138611 4294967295
0 0.25702325 0.16296543 4294967295
0 0.26670039 0.054027516 4294967295
0 0.036090598 0.23280838 4294967295
0 0.42423701 0.25200975 4294967295
0 0.064317346 0.045939438 4294967295
0 0.33702099 0.24475273 4294967295
0 0.19826074 0.42867327 4294967295
0 0.13552713 0.20520487 4294967295
0 0.081507601 0.070304856 4294967295
0.019530598 0.38035622 0.28221628 4294967295
0 0.10380612 0.25961176 4294967295
0 0.059933946 0.40199199 4294967295
0 0.10935956 0.34301543 4294967295
0 0.37787625 0.38009021 4294967295
0 0.4090119 0.35759985 4294967295
0 0.011059402 0.16603516 4294967295
0 0.020565279 0.27775979 4294967295
0 0.22006267 0.056655876 4294967295
0 0.010568187 0.14429969 4294967295
0.055506546 0.36417219 0.13039207 4294967295
0 0.19023912 0.14568663 4294967295
0 0.31963828 0.38849986 4294967295
0 0.074359886 0.45516542 4294967295
0 0.093704745 0.15586749 4294967295
0 0.025470272 0.45453036 4294967295
0 0.41855317 0.12927638 4294967295
0 0.21414213 0.4784871 4294967295
0 0.031268381 0.32350168 4294967295
0 0.32150257 0.40914464 4294967295
0.011733832 0.21532571 0.24224828 4294967295
0 0.26674446 0.21465129 4294967295
0 0.39654961 0.28730977 4294967295
0 0.49241108 0.1166123 4294967295
0 0.34396562 0.0029792739 4294967295
0 0.26091197 0.15263125 4294967295
0 0.077864811 0.4511511 4294967295
0 0.29831788 0.39750308 4294967295
0 0.33965096 0.37267777 4294967295
0 0.35266849 0.43335572 4294967295
0.044503625 0.073048875 0.42264241 4294967295
0 0.38788608 0.4470984 4294967295
0 0.0074151596 0.10202821 4294967295
0 0.42558554 0.038683541 4294967295
0 0.4255299 0.24708809 4294967295
0 0.44782817 0.12912177 4294967295
0 0.47760254 0.21457265 4294967295
0 0.34377307 0.37415215 4294967295
0 0.0018824011 0.33618414 4294967295
0 0.49076447 0.34584802 4294967295
0.015435105 0.35459852 0.26711154 4294967295
0 0.49847928 0.41702822 4294967295
0 0.20282754 0.29679716 4294967295
0 0.31453133 0.042478513 4294967295
0 0.16947493 0.16719982 4294967295
0 0.47583422 0.19802018 4294967295
0 0.04533859 0.3637203 4294967295
0 0.14511859 0.05275375 4294967295
0 0.46574852 0.070704132 4294967295
0 0.091437295 0.39127839 4294967295
0.031468667 0.34926087 0.070734128 4294967295
0 0.02040017 0.29539475 4294967295
0 0.25383812 0.36417323 4294967295
0 0.16954692 0.2557205 4294967295
0 0.20035738 0.16031139 4294967295
0 0.10156854 0.0395208 4294967295
0 0.41198784 0.10004783 4294967295
0 0.45654902 0.11481537 4294967295
0 0.39684498 0.27108034 4294967295
0 0.15729389 0.066319913 4294967295
0.028199488 0.46647966 0.1613276 4294967295
0 0.2643401 0.48361877 4294967295
0 0.49684843 0.4094587 4294967295
0 0.036372505 0.46259692 4294967295
0 0.48016283 0.12780979 4294967295
0 0.35387534 0.29795504 4294967295
0 0.16707526 0.37427551 4294967295
0 0.0933498 0.42091337 4294967295
0 0.23844872 0.26289672 4294967295
0 0.17663388 0.43880612 4294967295
0.025577597 0.44878572 0.30378002 4294967295
0 0.47832692 0.33519593 4294967295
0 0.37825024 0.43487594 4294967295
0 0.45001131 0.27509522 4294967295
0 0.20595628 0.10730519 4294967295
0 0.34141514 0.14423645 4294967295
0 0.24043331 0.10575524 4294967295
0 0.1278552 0.23728172 4294967295
0 0.015213935 0.16422771 4294967295
0 0.19987866 0.49537677 4294967295
0.046153594 0.33819112 0.099907577 4294967295
0 0.2933318 0.45911276 4294967295
0 0.42802948 0.38668162 4294967295
0 0.38002613 0.1664782 4294967295
0 0.14957833 0.056660008 4294967295
0 0.10528431 0.072786435 4294967295
0 0.33486244 0.083611213 4294967295
0 0.40798238 0.21311267 4294967295
0 0.01848715 0.35799369 4294967295
0 0.48820791 0.22444344 4294967295
0.023837388 0.48913625 0.35346043 4294967295
0 0.36867988 0.20573218 4294967295
0 0.43537828 0.49653506 4294967295
0 0.44301391 0.45059222 4294967295
0 0.16076279 0.14289257 4294967295
0 0.44596899 0.45280027 4294967295
0 0.19664656 0.23930077 4294967295
0 0.41191304 0.12467603 4294967295
0 0.12598239 0.29193917 4294967295
0 0.29115424 0.27556071 4294967295
0.0096658971 0.3582651 0.40610445 4294967295
0 0.34834716 0.18346162 4294967295
0 0.48004976 0.25632954 4294967295
0 0.39657429 0.49853691 4294967295
0 0.11432321 0.3847822 4294967295
0 0.22298035 0.079622075 4294967295
0 0.21440522 0.091660224 4294967295
0 0.28535426 0.14978349 4294967295
0 0.088195302 0.22836816 4294967295
0 0.10037571 0.24895808 4294967295
0.00040877718 0.3716695 0.046753459 4294967295
0 0.20175837 0.067907281 4294967295
0 0.28564546 0.11367142 4294967295
0 0.19258331 0.41162783 4294967295
0 0.40561059 0.48373756 4294967295
0 0.18718855 0.25420979 4294967295
0 0.3801761 0.035535708 4294967295
0 0.43767139 0.36022586 4294967295
0 0.29186523 0.33424568 4294967295
0 0.35876277 0.40618843 4294967295
0.055635095 0.27466294 0.13737822 4294967295
0 0.48581052 0.43343309 4294967295
0 0.17340335 0.27116477 4294967295
0 0.083216578 0.26159865 4294967295
0 0.49953294 0.18359229 4294967295
0 0.010556743 0.37079367 4294967295
0 0.22993697 0.21231511 4294967295
0 0.43870094 0.015582431 4294967295
0 0.32598653 0.13128427 4294967295
0 0.42721027 0.23159713 4294967295
0.0088810008 0.12390282 0.12327983 4294967295
0 0.48580691 0.49519792 4294967295
0 0.14993455 0.42347831 4294967295
0 0.35542378 0.44179976 4294967295
0 0.25772399 0.21418655 4294967295
0 0.34798822 0.47675186 4294967295
0 0.29592967 0.33379871 4294967295
0 0.41018495 0.46933302 4294967295
0 0.10496349 0.49340153 4294967295
0 0.2309317 0.10449643 4294967295
0.051371254 0.22836506 0.2928597 4294967295
0 0.47529012 0.40693077 4294967295
0 0.45380354 0.41399106 4294967295
0 0.42251322 0.27979007 4294967295
0 0.045275327 0.34972349 4294967295
0 0.011387214 0.16029714 4294967295
0 0.46412233 0.49719414 4294967295
0 0.15549505 0.11405686 4294967295
0 0.42067245 0.01091883 4294967295
0 0.055856634 0.17839645 4294967295
0.038951784 0.26405719 0.44279662 4294967295
0 0.15514831 0.021035068 4294967295
0 0.23764355 0.065333262 4294967295
0 0.4903681 0.34260705 4294967295
0 0.058734786 0.2212998 4294967295
0 0.44710347 0.23572861 4294967295
0 0.46278822 0.42239359 4294967295
0 0.1426594 0.41659176 4294967295
0 0.33638465 0.065172613 4294967295
0 0.19638187 0.38165998 4294967295
0.049881108 0.4647772 0.2576502 4294967295
0 0.041957121 0.37901843 4294967295
0 0.20496321 0.19745217 4294967295
0 0.49307528 0.12563565 4294967295
0 0.20837101 0.048931926 4294967295
0 0.30403209 0.43347639 4294967295
0 0.45277676 0.45918041 4294967295
0 0.45451146 0.19042033 4294967295
0 0.024513667 0.44487956 4294967295
0 0.033027373 0.083248451 4294967295
0.037556585 0.20373595 0.51768744 4294967295
0 0.31897706 0.12896758 4294967295
0 0.40252444 0.46163645 4294967295
0 0.045559362 0.2389091 4294967295
0 0.026809057 0.24194123 4294967295
0 0.12056907 0.44170517 4294967295
0 0.44971031 0.16252619 4294967295
0 0.32072359 0.1546735 4294967295
0 0.35997838 0.31379887 4294967295
0 0.28030914 0.068349376 4294967295
0.0066921436 0.36942294 0.091033392 4294967295
0 0.0018257697 0.31550756 4294967295
0 0.043521661 0.45633721 4294967295
0 0.0059278971 0.068035327 4294967295
0 0.40121678 0.038955268 4294967295
0 0.15128379 0.067396142 4294967295
0 0.019086124 0.47026083 4294967295
0 0.19636373 0.42161056 4294967295
0 0.43189728 0.24192309 4294967295
0 0.16051966 0.45870635 4294967295
0.031853609 0.51571792 0.31294236 4294967295
0 0.40041152 0.43357462 4294967295
0 0.44361493 0.22113509 4294967295
0 0.088248119 0.30359331 4294967295
0 0.034933981 0.36855727 4294967295
0 0.3719427 0.39766479 4294967295
0 0.45289853 0.37376845 4294967295
0 0.21317236 0.4964202 4294967295
0 0.33010569 0.21910027 4294967295
0 0.064455524 0.23132247 4294967295
0.050794218 0.30884975 0.26653352 4294967295
0 0.29871863 0.27714166 4294967295
0 0.18600015 0.49508235 4294967295
0 0.19875222 0.11789744 4294967295
0 0.23700544 0.35927188 4294967295
0 0.076603785 0.22086975 4294967295
0 0.14036062 0.47701529 4294967295
0 0.15444437 0.083975561 4294967295
0 0.19815038 0.2426925 4294967295
0 0.38756886 0.23308437 4294967295
0.0094369743 0.12068674 0.26894853 4294967295
0 0.13074915 0.064148299 4294967295
0 0.13328001 0.34392151 4294967295
0 0.060568489 0.4633857 4294967295
0 0.063021779 0.12502402 4294967295
0 0.19470817 0.32107732 4294967295
0 0.34076333 0.4934268 4294967295
0 0.098218963 0.026763469 4294967295
0 0.48850915 0.29697117 4294967295
0 0.14466091 0.22551458 4294967295
0.0046212198 0.16086429 0.22588591 4294967295
0 0.44638434 0.29660371 4294967295
0 0.19827998 0.10082871 4294967295
0 0.38057926 0.39643037 4294967295
0 0.34352121 0.26814812 4294967295
0 0.12951474 0.45477098 4294967295
0 0.02765969 0.26026389 4294967295
0 0.01891927 0.16093971 4294967295
0 0.1041854 0.079487763 4294967295
0 0.12432541 0.16720718 4294967295
0.058537345 0.26304913 0.37757093 4294967295
0 0.4882845 0.045275096 4294967295
0 0.31246036 0.086503446 4294967295
0 0.072038561 0.30096951 4294967295
0 0.38347462 0.21669947 4294967295
0 0.026484093 0.039717697 4294967295
0 0.43796417 0.47286844 4294967295
0 0.33632138 0.13624413 4294967295
0 0.073697135 0.21690065 4294967295
0 0.032674503 0.41721833 4294967295
0.032119591 0.51716834 0.19430882 4294967295
0 0.37198931 0.012708474 4294967295
0 0.42245314 0.39090857 4294967295
0 0.17364818 0.026638528 4294967295
0 0.47039634 0.29797357 4294967295
0 0.19384572 0.17490812 4294967295
0 0.11700717 0.1821302 4294967295
0 0.22018321 0.42946756 4294967295
0 0.26863363 0.29222178 4294967295
0 0.23043706 0.15210828 4294967295
0.048507188 0.057428434 0.30542833 4294967295
0 0.19182597 0.44688541 4294967295
0 0.22978958 0.02814737 4294967295
0 0.08312954 0.3034867 4294967295
0 0.24504802 0.11580405 4294967295
0 0.22070506 0.2300968 4294967295
0 0.27799329 0.092694372 4294967295
0 0.24280527 0.2004464 4294967295
0 0.48360294 0.41645345 4294967295
0 0.22708493 0.45399928 4294967295
0.039011486 0.25343853 0.45994213 4294967295
0 0.12890741 0.33143422 4294967295
0 0.10306084 0.34909064 4294967295
0 0.26090175 0.37169451 4294967295
0 0.14131241 0.49133882 4294967295
0 0.02380277 0.15023364 4294967295
0 0.24825998 0.21562874 4294967295
0 0.097119048 0.47804955 4294967295
0 0.24377611 0.18024859 4294967295
0 0.28153628 0.48882413 4294967295
0.026586082 0.32263872 0.028827412 4294967295
0 0.21892095 0.074045911 4294967295
0 0.0949357 0.46172622 4294967295
0 0.27449232 0.078538656 4294967295
0 0.37817967 0.0015772523 4294967295
0 0.032537948 0.092606723 4294967295
0 0.42250791 0.16144536 4294967295
0 0.42404094 0.025568742 4294967295
0 0.010535984 0.18494271 4294967295
0 0.39726323 0.15184839 4294967295
0.068654478 0.244936 0.48972049 4294967295
0 0.30208203 0.4245415 4294967295
0 0.13669476 0.3992011 4294967295
0 0.40259105 0.38047087 4294967295
0 0.079449669 0.18412732 4294967295
0 0.369295 0.37550232 4294967295
0 0.18636864 0.088215947 4294967295
0 0.44954821 0.28130436 4294967295
0 0.049942166 0.22404054 4294967295
0 0.35984302 0.42812183 4294967295
0.012691839 0.23830964 0.40507278 4294967295
0 0.020728573 0.14812569 4294967295
0 0.05382631 0.44476953 4294967295
0 0.17369443 0.064362295 4294967295
0 0.12971222 0.070957668 4294967295
0 0.21621068 0.30599374 4294967295
0 0.49202368 0.018292708 4294967295
0 0.23053524 0.12871842 4294967295
0 0.41749379 0.13312629 4294967295
0 0.0091892947 0.49694347 4294967295
0.038546115 0.35579973 0.41703042 4294967295
0 0.37244576 0.003622262 4294967295
0 0.46670026 0.32199398 4294967295
0 0.28492662 0.01664241 4294967295
0 0.046034522 0.14476961 4294967295
0 0.44476426 0.27165231 4294967295
0 0.037150558 0.46549284 4294967295
0 0.41977802 0.090976864 4294967295
0 0.41026235 0.093472436 4294967295
0 0.15533917 0.039974574 4294967295
0.043659087 0.2080892 0.41520894 4294967295
0 0.34596834 0.15645377 4294967295
0 0.38984254 0.076503567 4294967295
0 0.28517219 0.30733633 4294967295
0 0.20962986 0.2943615 4294967295
0 0.3042798 0.026883477 4294967295
0 0.1728458 0.17672555 4294967295
0 0.030505739 0.13954604 4294967295
0 0.49871954 0.31543234 4294967295
0 0.15618846 0.044754066 4294967295
0.065301962 0.52550393 0.16625467 4294967295
0 0.31640637 0.49735251 4294967295
0 0.066445544 0.23618439 4294967295
0 0.08832939 0.47670788 4294967295
0 0.32965681 0.24366854 4294967295
0 0.016682463 0.49408692 4294967295
0 0.11521839 0.36265078 4294967295
0 0.15054071 0.0050609289 4294967295
0 0.43915436 0.4357129 4294967295
0 0.31239727 0.14878422 4294967295
0.008398382 0.23847279 0.12507543 4294967295
0 0.1756677 0.40292022 4294967295
0 0.29340261 0.20617343 4294967295
0 0.042466253 0.29212216 4294967295
0 0.021605786 0.19865471 4294967295
0 0.33687621 0.48180774 4294967295
0 0.29960743 0.1532826 4294967295
0 0.47916028 0.36605296 4294967295
0 0.38946697 0.067489661 4294967295
0 0.34276083 0.21912381 4294967295
0.012021543 0.32317975 0.37146485 4294967295
0 0.21321073 0.42637658 4294967295
0 0.22209409 0.36375144 4294967295
0 0.43143752 0.16124845 4294967295
0 0.29946434 0.24383478 4294967295
0 0.31003267 0.029538769 4294967295
0 0.36051184 0.48570037 4294967295
0 0.43245897 0.15391445 4294967295
0 0.1918738 0.47492522 4294967295
0 0.44603661 0.21347958 4294967295
0.01683864 0.19041857 0.29975146 4294967295
0 0.19528733 0.47318736 4294967295
0 0.4361954 0.1744476 4294967295
0 0.33924031 0.3256624 4294967295
0 0.24193726 0.18200114 4294967295
0 0.0447862 0.053095467 4294967295
0 0.041444458 0.25799695 4294967295
0 0.47947207 0.26353854 4294967295
0 0.12174838 0.41090959 4294967295
0 0.42478701 0.42121273 4294967295
0.020801503 0.17554586 0.25562117 4294967295
0 0.45075151 0.015256198 4294967295
0 0.22052003 0.38321048 4294967295
0 0.16917065 0.41239384 4294967295
0 0.35813573 0.11520724 4294967295
0 0.12587342 0.03171565 4294967295
0 0.39812005 0.32116073 4294967295
0 0.0049030008 0.33431545 4294967295
0 0.49560836 0.3441433 4294967295
0 0.15997785 0.23754561 4294967295
0.067066103 0.093210556 0.27183014 4294967295
0 0.29064107 0.067588918 4294967295
0 0.46276098 0.27011314 4294967295
0 0.33112746 0.084509365 4294967295
0 0.18102272 0.25591448 4294967295
0 0.0057220999 0.33576709 4294967295
0 0.49073413 0.45647362 4294967295
0 0.35102329 0.21125416 4294967295
0 0.3396841 0.020193923 4294967295
0 0.12364799 0.19781981 4294967295
0.062395263 0.19779642 0.31191668 4294967295
0 0.22953546 0.033521209 4294967295
0 0.070682146 0.23443846 4294967295
0 0.36783665 0.066290498 4294967295
0 0.078581765 0.027814513 4294967295
0 0.30383611 0.10472623 4294967295
0 0.23257856 0.094477184 4294967295
0 0.17231514 0.19533955 4294967295
0 0.36459032 0.0034426081 4294967295
0 0.2798489 0.045613043 4294967295
0.0026469391 0.26200402 0.28821796 4294967295
0 0.38138011 0.25009122 4294967295
0 0.24204461 0.2324034 4294967295
0 0.46134537 0.081728704 4294967295
0 0.25259733 0.084993362 4294967295
0 0.2795485 0.38799849 4294967295
0 0.33451477 0.0090839695 4294967295
0 0.4215197 0.40519691 4294967295
0 0.24352244 0.28935635 4294967295
0 0.4714874 0.32210419 4294967295
0.060834896 0.37800577 0.33615839 4294967295
0 0.42683041 0.049749438 4294967295
0 0.36980072 0.099145561 4294967295
0 0.24508898 0.23439103 4294967295
0 0.10258817 0.024937885 4294967295
0 0.28000408 0.36194524 4294967295
0 0.31050888 0.1613842 4294967295
0 0.11203646 0.052553501 4294967295
0 0.39378759 0.073381826 4294967295
0 0.1342822 0.14638494 4294967295
0.061171051 0.21954624 0.47500178 4294967295
0 0.03438342 0.49288997 4294967295
0 0.42291468 0.45590311 4294967295
0 0.39808688 0.16643712 4294967295
0 0.24525948 0.36957428 4294967295
0 0.48854131 0.062430359 4294967295
0 0.1448978 0.41537172 4294967295
0 0.1121798 0.014698513 4294967295
0 0.014517291 0.35726878 4294967295
0 0.24908954 0.11710546 4294967295
0.017058445 0.39926508 0.046152066 4294967295
0 0.4790507 0.19271556 4294967295
0 0.19047782 0.091087162 4294967295
0 0.24526905 0.084265433 4294967295
0 0.16446899 0.37955126 4294967295
0 0.23065037 0.32284418 4294967295
0 0.29338196 0.26503378 4294967295
0 0.31573415 0.21629664 4294967295
0 0.22093689 0.21382102 4294967295
0 0.38273376 0.46619639 4294967295
0.048743133 0.13213843 0.4200182 4294967295
0 0.028626744 0.22829311 4294967295
0 0.28664681 0.14080654 4294967295
0 0.24299163 0.30116409 4294967295
0 0.49807531 0.49208117 4294967295
0 0.41826954 0.38028198 4294967295
0 0.021174792 0.39732027 4294967295
0 0.072997533 0.21165262 4294967295
0 0.48840743 0.3182666 4294967295
0 0.29591805 0.15287641 4294967295
0.055782866 0.25360072 0.082351275 4294967295
0 0.47572058 0.49119982 4294967295
0 0.29160219 0.29145473 4294967295
0 0.20749646 0.012539093 4294967295
0 0.0052757571 0.090230219 4294967295
0 0.47873548 0.088671058 4294967295
0 0.46150529 0.0073622223 4294967295
0 0.31696418 0.24815209 4294967295
0 0.14816876 0.059955798 4294967295
0 0.04931619 0.14624408 4294967295
0.051694911 0.10373188 0.51928067 4294967295
0 0.026526067 0.073211759 4294967295
0 0.36490601 0.099523604 4294967295
0 0.28486437 0.35331342 4294967295
0 0.4177902 0.080782421 4294967295
0 0.0061898348 0.11560803 4294967295
0 0.10735083 0.48191044 4294967295
0 0.10680784 0.39895302 4294967295
0 0.27336517 0.31430429 4294967295
0 0.41149211 0.27864093 4294967295
0.031905022 0.43643954 0.42213261 4294967295
0 0.36731198 0.36603981 4294967295
0 0.3975898 0.18427616 4294967295
0 0.1141919 0.045758575 4294967295
0 0.24423195 0.16350809 4294967295
