# .PCD v0.7 - Point Cloud Data file format
VERSION 0.7
FIELDS x y z rgba
SIZE 4 4 4 4
TYPE F F F U
COUNT 1 1 1 1
WIDTH 1337
HEIGHT 1
VIEWPOINT 0 0 0 1 0 0 0
POINTS 1337
DATA ascii
0 0.15847038 0.67643744 4294967295
0 0.28552952 0.48555279 4294967295
0 0.30478758 0.45662084 4294967295
0 0.19915475 0.61531615 4294967295
0 0.31154147 0.44647425 4294967295
0 0.053346414 0.51698232 4294967295
0 0.11267105 0.065109611 4294967295
0 0.071827628 0.37621188 4294967295
0 0.10895446 0.093418717 4294967295
0 0.085086972 0.2752161 4294967295
0 0.094794907 0.2012713 4294967295
0 0.061525024 0.45468628 4294967295
0 0.07472422 0.35414869 4294967295
0 0.0572307 0.48739591 4294967295
0.024720181 0.1060022 0.32891846 4294967295
0 0.096762605 0.18628341 4294967295
0 0.022843819 0.74931902 4294967295
0 0.091559194 0.22591752 4294967295
0 0.024615331 0.73582554 4294967295
0 0.11318743 0.06117636 4294967295
0 0.1056481 0.11860305 4294967295
0 0.11411303 0.054126143 4294967295
0 0.042829163 0.59709167 4294967295
0 0.059164289 0.47266787 4294967295
0 0.00073646347 0.91770959 4294967295
0 0.010583231 0.84270728 4294967295
0 0.035573721 0.13774373 4294967295
0 0.058627866 0.10865355 4294967295
0 0.094323255 0.063612409 4294967295
0 0.10804251 0.046301186 4294967295
0 0.10598053 0.048903033 4294967295
0 0.023661401 0.15277493 4294967295
0 0.12558733 0.024162784 4294967295
0 0.094882019 0.062907353 4294967295
0 0.087357439 0.072402015 4294967295
0 0.11538097 0.037041381 4294967295
0 0.035908286 0.13732156 4294967295
0 0.072713435 0.090880103 4294967295
0 0.072238982 0.09147878 4294967295
0 0.0043576518 0.17713277 4294967295
0 0.0014382949 0.18081647 4294967295
0 0.016723789 0.16152894 4294967295
0 0.07269156 0.090907708 4294967295
0 0.098489672 0.058355145 4294967295
0 0.1322591 0.015744224 4294967295
0 0.099967264 0.05649069 4294967295
0 0.063075572 0.10304135 4294967295
0 0.035915237 0.43251413 4294967295
0 0.0068052798 0.58806342 4294967295
0 0.11425689 0.013894796 4294967295
0 0.092950612 0.12774509 4294967295
0 0.0075152428 0.58426976 4294967295
0 0.0076020956 0.58380562 4294967295
0 0.10986412 0.037367642 4294967295
0 0.028857032 0.47022969 4294967295
0 0.03632357 0.43033218 4294967295
0 0.040341813 0.40886068 4294967295
0 0.10501165 0.063296854 4294967295
0 0.0066976119 0.58863872 4294967295
0 0.0090510594 0.5760631 4294967295
0 0.0072581568 0.58564347 4294967295
0 0.10809418 0.04682529 4294967295
0 0.085656814 0.16671956 4294967295
0 0.077788718 0.20876279 4294967295
0.020585803 0.10497894 0.19405785 4294967295
0 0.1146484 0.011802793 4294967295
0 0.019638805 0.51948738 4294967295
0 0.025860168 0.48624346 4294967295
0 0.0037745845 0.11803883 4294967295
0 0.0057534738 0.086605564 4294967295
0 0.0096198115 0.025191486 4294967295
0 0.0028085632 0.13338341 4294967295
0 0.0022873629 0.14166231 4294967295
0 0.0032974824 0.12561727 4294967295
0 0.0041180355 0.11258335 4294967295
0 0.0092845391 0.030517057 4294967295
0 0.0067414897 0.070911616 4294967295
0 0.0047706123 0.10221763 4294967295
0 0.0090351878 0.03447783 4294967295
0 0.0044490234 0.10732584 4294967295
0 0.0054912688 0.090770505 4294967295
0 0.009764174 0.022898391 4294967295
0 0.0037784372 0.11797763 4294967295
0 0.0082584461 0.046815827 4294967295
0 0.0020415892 0.14556625 4294967295
0 0.0076469202 0.056529492 4294967295
0 0.0071225432 0.064858854 4294967295
0 0.0026838412 0.13536453 4294967295
0 0.0085148504 0.042743027 4294967295
0 0.34388754 0.08343152 4294967295
0 0.25355366 0.1047313 4294967295
0 0.61867887 0.018638611 4294967295
0 0.33069929 0.086541168 4294967295
0 0.3708123 0.077082947 4294967295
0 0.075357273 0.14674813 4294967295
0 0.33851784 0.084697634 4294967295
0 0.49500448 0.047799736 4294967295
0 0.31038201 0.091331773 4294967295
0 0.69675827 0.00022831559 4294967295
0 0.39625603 0.071083583 4294967295
0 0.48525739 0.050097995 4294967295
0 0.14145449 0.13116311 4294967295
0 0.601574 0.022671759 4294967295
0 0.043940559 0.15415587 4294967295
0 0.021830365 0.15936922 4294967295
0 0.3236067 0.088213526 4294967295
0 0.340983 0.084116377 4294967295
0 0.58440691 0.026719585 4294967295
0 0.6006254 0.02289544 4294967295
0 0.68289721 0.0034966022 4294967295
0 0.50740999 0.056291163 4294967295
0 0.63176072 0.021557868 4294967295
0 0.62417328 0.02367717 4294967295
0 0.24908255 0.12844646 4294967295
0.00029587635 0.092910826 0.17244643 4294967295
0 0.45393133 0.071228668 4294967295
0 0.034788396 0.18830249 4294967295
0 0.20924756 0.13957305 4294967295
0 0.094404951 0.17165056 4294967295
0 0.29241753 0.11634225 4294967295
0 0.12892935 0.1620073 4294967295
0 0.43041968 0.077795878 4294967295
0 0.66918999 0.011103243 4294967295
0 0.20549786 0.14062041 4294967295
0 0.065437302 0.17974173 4294967295
0 0.46320951 0.068637118 4294967295
0 0.52086878 0.052531898 4294967295
0 0.064453445 0.18001653 4294967295
0 0.15689337 0.15419647 4294967295
0 0.30498448 0.11283208 4294967295
0 0.20818157 0.13987079 4294967295
0 0.027131829 0.33292231 4294967295
0 0.045698531 0.22325987 4294967295
0 0.081985146 0.0089364946 4294967295
0 0.013570667 0.41302001 4294967295
0 0.034078263 0.29189387 4294967295
0 0.080210492 0.019418299 4294967295
0 0.072765969 0.063388675 4294967295
0 0.050612532 0.1942358 4294967295
0 0.056474395 0.15961328 4294967295
0 0.063675739 0.11707923 4294967295
0 0.040628657 0.25320458 4294967295
0 0.0023128435 0.47951326 4294967295
0 0.074583806 0.052651793 4294967295
0 0.010593918 0.43060189 4294967295
0 0.0064101741 0.45531276 4294967295
0 0.015730539 0.40026292 4294967295
0 0.021712806 0.36492926 4294967295
0 0.040850721 0.25189298 4294967295
0 0.030915665 0.31057346 4294967295
0 0.072407059 0.065508515 4294967295
0 0.036168862 0.27954596 4294967295
0 0.057134543 0.87642854 4294967295
0 0.26063901 0.58063912 4294967295
0 0.033261817 0.91112703 4294967295
0 0.20322374 0.66409099 4294967295
0 0.54462129 0.16787696 4294967295
0 0.22710738 0.62937665 4294967295
0 0.25834268 0.58397681 4294967295
0 0.21005449 0.65416265 4294967295
0 0.4416067 0.31760651 4294967295
0 0.619627 0.058857799 4294967295
0 0.19809285 0.6715486 4294967295
0 0.54889399 0.16166669 4294967295
0.010101417 0.23902361 0.63684034 4294967295
0 0.17210107 0.70932716 4294967295
0 0.46404716 0.28498977 4294967295
0 0.62905568 0.045153379 4294967295
0 0.61857748 0.06038326 4294967295
0 0.30733466 0.51276803 4294967295
0 0.29013708 0.53776431 4294967295
0 0.6368624 0.033806503 4294967295
0 0.23685934 0.61520243 4294967295
0 0.30993554 0.018807156 4294967295
0 0.46809083 0.0072091036 4294967295
0 0.30063024 0.019489544 4294967295
0 0.51964712 0.0034283102 4294967295
0 0.39285609 0.012726316 4294967295
0 0.5459761 0.0014975183 4294967295
0 0.32714102 0.017545421 4294967295
0 0.36990136 0.014409663 4294967295
0 0.028601801 0.039438289 4294967295
0 0.55077422 0.0011456572 4294967295
0 0.3984406 0.012316786 4294967295
0 0.20297167 0.02665117 4294967295
0 0.45167291 0.0084130839 4294967295
0 0.026906265 0.039562628 4294967295
0 0.42463464 0.010395892 4294967295
0 0.065506883 0.036731917 4294967295
0 0.40581331 0.011776121 4294967295
0 0.38988963 0.012943858 4294967295
0 0.23547433 0.024267642 4294967295
0 0.31037796 0.018774711 4294967295
0 0.019912414 0.040075511 4294967295
0 0.66839945 0.002987504 4294967295
0 0.41501579 0.096991122 4294967295
0 0.48469967 0.071138874 4294967295
0 0.28926206 0.1436449 4294967295
0 0.39118135 0.10583355 4294967295
0 0.050966498 0.23205094 4294967295
0 0.67240244 0.0015024245 4294967295
0 0.41927829 0.095409766 4294967295
0 0.42112491 0.094724685 4294967295
0 0.55499482 0.04505986 4294967295
0 0.10187118 0.21316564 4294967295
0 0.36529139 0.11543854 4294967295
0 0.34773374 0.12195231 4294967295
0 0.077482536 0.22221366 4294967295
0 0.079546273 0.22144803 4294967295
0 0.11305764 0.20901555 4294967295
0 0.11164188 0.20954078 4294967295
0 0.060888115 0.22837009 4294967295
0 0.58891839 0.032474443 4294967295
0 0.35405251 0.11960809 4294967295
0.031255268 0.63157988 0.059498064 4294967295
0 0.0028608427 0.27225748 4294967295
0 0.5826146 0.099797875 4294967295
0 0.88273472 0.010521024 4294967295
0 0.38455382 0.1587151 4294967295
0 0.1676199 0.22324651 4294967295
0 0.91501182 0.00091952085 4294967295
0 0.087503545 0.24707876 4294967295
0 0.39802626 0.15470745 4294967295
0 0.90408242 0.0041707158 4294967295
0 0.65077651 0.079521716 4294967295
0 0.13777348 0.23212495 4294967295
0 0.37857535 0.16049352 4294967295
0 0.26359764 0.19469598 4294967295
0 0.20694688 0.21154791 4294967295
0 0.37307897 0.16212852 4294967295
0 0.83265585 0.025417998 4294967295
0 0.77851135 0.04152438 4294967295
0 0.20823307 0.21116531 4294967295
0 0.052815761 0.25739735 4294967295
0 0.35619378 0.16715136 4294967295
0 0.68018866 0.070772484 4294967295
0 0.15623856 0.046513379 4294967295
0 0.058006357 0.33513105 4294967295
0 0.10247973 0.20446309 4294967295
0 0.13397253 0.11193359 4294967295
0 0.14806694 0.070522547 4294967295
0 0.083115123 0.26135856 4294967295
0 0.11988054 0.15333748 4294967295
0 0.022991018 0.43801022 4294967295
0 0.083651297 0.25978324 4294967295
0 0.057003785 0.33807674 4294967295
0 0.016362349 0.45748603 4294967295
0 0.15572384 0.048025697 4294967295
0 0.088418871 0.24577555 4294967295
0 0.015783008 0.45918819 4294967295
0 5.4049087e-05 0.50540173 4294967295
0 0.16301639 0.026599318 4294967295
0 0.013155294 0.46690872 4294967295
0 0.12202168 0.1470466 4294967295
0 0.01676813 0.45629379 4294967295
0 0.084107354 0.2584433 4294967295
0 0.17142479 0.001894474 4294967295
0 0.29159889 0.086666048 4294967295
0 0.05514821 0.74225235 4294967295
0 0.039377224 0.78597921 4294967295
0 0.31017187 0.035170317 4294967295
0 0.18040603 0.39496082 4294967295
0 0.27856988 0.12279046 4294967295
0 0.042868957 0.77629799 4294967295
0.013665211 0.034438107 0.85122705 4294967295
0 0.24886589 0.2051481 4294967295
0 0.15170717 0.47453168 4294967295
0 0.21305718 0.30443186 4294967295
0 0.17738383 0.40334025 4294967295
0 0.10667065 0.59940052 4294967295
0 0.046150576 0.76719934 4294967295
0 0.079460755 0.67484307 4294967295
0 0.14980905 0.47979444 4294967295
0 0.20310676 0.33202046 4294967295
0 0.1864178 0.3782925 4294967295
0 0.18050995 0.39467269 4294967295
0 0.172437 0.41705588 4294967295
0 0.029462719 0.81346834 4294967295
0 0.025149778 0.51376051 4294967295
0 0.47333354 0.14574462 4294967295
0 0.15851097 0.40425399 4294967295
0 0.088572666 0.46168223 4294967295
0 0.14062987 0.41893664 4294967295
0 0.15607212 0.40625662 4294967295
0 0.29869655 0.2891438 4294967295
0 0.072395243 0.47496596 4294967295
0 0.093061335 0.45799649 4294967295
0 0.40986636 0.19785923 4294967295
0 0.15177335 0.40978643 4294967295
0 0.067490697 0.47899321 4294967295
0 0.12270882 0.4336521 4294967295
0 0.062498216 0.48309267 4294967295
0 0.15390757 0.40803397 4294967295
0 0.16458361 0.39926758 4294967295
0 0.56417155 0.071155041 4294967295
0 0.45972461 0.15691927 4294967295
0 0.59407234 0.046602696 4294967295
0 0.27092168 0.3119505 4294967295
0 0.023928471 0.51476336 4294967295
0 0.027913656 0.33068058 4294967295
0 0.038173068 0.20876351 4294967295
0 0.013366153 0.50355488 4294967295
0 0.0033377206 0.6227271 4294967295
0 0.012203351 0.51737297 4294967295
0 0.018452844 0.44310755 4294967295
0 0.039615255 0.19162539 4294967295
0 0.041991822 0.1633836 4294967295
0 0.02060682 0.4175109 4294967295
0 0.024413668 0.37227246 4294967295
0 0.055567641 0.002056241 4294967295
0 0.028192708 0.32736447 4294967295
0 0.036458042 0.22914395 4294967295
0 0.013193906 0.50560176 4294967295
0 0.053774852 0.023360729 4294967295
0.031990569 0.074648976 0.1874529 4294967295
0 0.021164231 0.41088694 4294967295
0 0.033137567 0.26860258 4294967295
0 0.055657174 0.00099229813 4294967295
0 0.026944535 0.34219706 4294967295
0 0.043647077 0.14371347 4294967295
0 0.0033957385 0.69401175 4294967295
0 0.090880513 0.027798235 4294967295
0 0.040292934 0.41303244 4294967295
0 0.089683175 0.036916196 4294967295
0 0.035700284 0.44800636 4294967295
0 0.04376848 0.38656548 4294967295
0 0.0004215049 0.7166611 4294967295
0 0.0037857832 0.69104147 4294967295
0 0.091107383 0.026070595 4294967295
0 0.065159395 0.22366953 4294967295
0 0.026453506 0.51842237 4294967295
0 0.0022369598 0.70283604 4294967295
0 0.085855111 0.066067636 4294967295
0 0.05774777 0.28011048 4294967295
0 0.069420651 0.19121927 4294967295
0 0.062538363 0.24362919 4294967295
0 0.092694975 0.013980746 4294967295
0 0.016293032 0.59579635 4294967295
0 0.062244907 0.24586391 4294967295
0 0.045976244 0.36975294 4294967295
0 0.0781224 0.12495375 4294967295
0 0.52968854 0.18417156 4294967295
0 0.24603873 0.32710978 4294967295
0 0.040810499 0.43052942 4294967295
0 0.52834749 0.18484735 4294967295
0 0.67875218 0.10905465 4294967295
0 0.74175704 0.077304959 4294967295
0 0.61296803 0.14220494 4294967295
0 0.42799112 0.23541942 4294967295
0 0.77391309 0.061100721 4294967295
0 0.57840073 0.15962428 4294967295
0 0.80954611 0.043144345 4294967295
0 0.72800756 0.084233642 4294967295
0 0.021302823 0.4403598 4294967295
0 0.32885024 0.28537899 4294967295
0 0.73199898 0.082222283 4294967295
0 0.057152398 0.42229432 4294967295
0 0.29643136 0.30171567 4294967295
0 0.4538649 0.22238098 4294967295
0 0.30765459 0.29606003 4294967295
0 0.31761432 0.29104105 4294967295
0 0.37170953 0.26378113 4294967295
0 0.073318712 0.08233209 4294967295
0 0.8926717 0.005783245 4294967295
0.011419579 0.26107746 0.077277012 4294967295
0 0.7018683 0.023609236 4294967295
0 0.40236658 0.051590472 4294967295
0 0.083964974 0.081337452 4294967295
0 0.60179335 0.032958835 4294967295
0 0.83296978 0.011360951 4294967295
0 0.64880824 0.028566424 4294967295
0 0.86416137 0.0084468499 4294967295
0 0.87648886 0.0072951391 4294967295
0 0.25764802 0.065110944 4294967295
0 0.63338798 0.030007076 4294967295
0 0.71290183 0.022578418 4294967295
0 0.91129798 0.004043065 4294967295
0 0.13521075 0.076549768 4294967295
0 0.58360499 0.0346581 4294967295
0 0.57351291 0.03560096 4294967295
0 0.043911926 0.085079446 4294967295
0 0.40535599 0.051311184 4294967295
0 0.59622955 0.033478636 4294967295
0 0.28458086 0.075511739 4294967295
0 0.30775595 0.061923206 4294967295
0 0.30977303 0.060740516 4294967295
0 0.013283306 0.23458493 4294967295
0 0.041057561 0.21829972 4294967295
0 0.068054542 0.20247024 4294967295
0 0.40787086 0.0032216161 4294967295
0 0.077922285 0.19668438 4294967295
0 0.09980423 0.18385407 4294967295
0 0.3810651 0.018938959 4294967295
0 0.18603329 0.13329434 4294967295
0 0.40373886 0.005644381 4294967295
0 0.14193928 0.15914851 4294967295
0 0.2223932 0.11197498 4294967295
0 0.25097212 0.095217958 4294967295
0 0.089280382 0.19002464 4294967295
0 0.089985639 0.18961112 4294967295
0 0.21182033 0.11817431 4294967295
0 0.055466834 0.20985095 4294967295
0 0.20155665 0.12419233 4294967295
0 0.072735228 0.19972576 4294967295
0 0.27981257 0.30179951 4294967295
0 0.43380004 0.22449835 4294967295
0 0.037944924 0.42321619 4294967295
0 0.32034051 0.28145462 4294967295
0 0.80791801 0.03669247 4294967295
0 0.58822715 0.1469765 4294967295
0 0.68451995 0.098637849 4294967295
0 0.14044066 0.37176371 4294967295
0 0.31374717 0.28476447 4294967295
0 0.45943332 0.21163054 4294967295
0.0066234055 0.80728757 0.046957273 4294967295
0 0.34205809 0.27055246 4294967295
0 0.54693985 0.16770259 4294967295
0 0.064698644 0.40978593 4294967295
0 0.33034778 0.27643102 4294967295
0 0.71301669 0.084332585 4294967295
0 0.27741277 0.30300421 4294967295
0 0.26150596 0.31098935 4294967295
0 0.2285009 0.32755777 4294967295
0 0.25689587 0.31330359 4294967295
0 0.56402308 0.15912685 4294967295
0 0.68269426 0.12925255 4294967295
0 0.012007529 0.88520181 4294967295
0 0.32784989 0.52920729 4294967295
0 0.78968799 0.0086570382 4294967295
0 0.40080395 0.44697881 4294967295
0 0.46815383 0.37106693 4294967295
0 0.69481003 0.11559653 4294967295
0 0.7534517 0.049499929 4294967295
0 0.72140127 0.085624874 4294967295
0 0.29005679 0.57180494 4294967295
0 0.78779417 0.0107916 4294967295
0 0.21396029 0.65757537 4294967295
0 0.22390313 0.6463685 4294967295
0 0.52280688 0.309466 4294967295
0 0.036123827 0.85801965 4294967295
0 0.35101044 0.50310242 4294967295
0 0.0093985517 0.88814247 4294967295
0 0.45193893 0.3893432 4294967295
0 0.27829161 0.58506578 4294967295
0 0.31898189 0.53920269 4294967295
0 0.14958411 0.7301355 4294967295
0 0.42114541 0.0023920536 4294967295
0 0.31148425 0.2035718 4294967295
0 0.030345529 0.71933693 4294967295
0 0.10826347 0.57639199 4294967295
0 0.012217814 0.75259328 4294967295
0 0.30079743 0.22317737 4294967295
0 0.022661971 0.73343283 4294967295
0 0.39188811 0.056066275 4294967295
0 0.24004248 0.33463582 4294967295
0 0.029023614 0.72176206 4294967295
0 0.1431351 0.51241797 4294967295
0 0.23597328 0.34210098 4294967295
0 0.24137126 0.33219808 4294967295
0 0.39116502 0.057392836 4294967295
0 0.18163729 0.44178349 4294967295
0 0.2181039 0.37488338 4294967295
0 0.35091719 0.13122976 4294967295
0 0.33531064 0.15986091 4294967295
0.02034435 0.23337568 0.40453365 4294967295
0 0.041824974 0.69827724 4294967295
0 0.031486176 0.71724433 4294967295
0 0.082329087 0.070027217 4294967295
0 0.02746666 0.11952755 4294967295
0 0.11373435 0.041691415 4294967295
0 0.13815081 0.019661345 4294967295
0 0.091450348 0.06179744 4294967295
0 0.143739 0.014619336 4294967295
0 0.045776229 0.10300751 4294967295
0 0.055464618 0.094266027 4294967295
0 0.14324535 0.015064731 4294967295
0 0.0037641586 0.14091344 4294967295
0 0.066953629 0.083899923 4294967295
0 0.024292629 0.12239136 4294967295
0 0.0083899004 0.13673981 4294967295
0 0.020895477 0.12545648 4294967295
0 0.032872595 0.11464997 4294967295
0 0.1567612 0.0028698742 4294967295
0 0.11177707 0.043457389 4294967295
0 0.043861117 0.10473543 4294967295
0 0.051011097 0.098284274 4294967295
0 0.041176077 0.10715805 4294967295
0 0.1352458 0.022282429 4294967295
0 0.088616699 0.43864959 4294967295
0 0.018501582 0.63547027 4294967295
0 0.11782089 0.35667026 4294967295
0 0.21210426 0.092006624 4294967295
0 0.042746205 0.56741303 4294967295
0 0.13607243 0.30543622 4294967295
0 0.0063903653 0.66946781 4294967295
0 0.078084841 0.46821365 4294967295
0 0.01724254 0.63900459 4294967295
0 0.04844344 0.55142027 4294967295
0 0.0073382705 0.66680694 4294967295
0 0.22875959 0.045253336 4294967295
0 0.18845932 0.15838057 4294967295
0 0.22741118 0.04903847 4294967295
0 0.053965129 0.53592026 4294967295
0 0.028498359 0.60740829 4294967295
0 0.2018477 0.12079793 4294967295
0 0.05972828 0.51974249 4294967295
0 0.13100831 0.31965175 4294967295
0 0.23904115 0.016391873 4294967295
0 0.072573707 0.483684 4294967295
0 0.18403201 0.13145131 4294967295
0 0.24261844 0.11546034 4294967295
0 0.30347109 0.098850816 4294967295
0 0.39632562 0.073506482 4294967295
0 0.4139815 0.068687364 4294967295
0.024157202 0.22484992 0.15106103 4294967295
0 0.55932617 0.029016018 4294967295
0 0.20590885 0.1254801 4294967295
0 0.44157004 0.061157167 4294967295
0 0.60961699 0.015289307 4294967295
0 0.52616876 0.038066223 4294967295
0 0.3524777 0.085474625 4294967295
0 0.060176741 0.1652572 4294967295
0 0.23040725 0.11879335 4294967295
0 0.36984792 0.080733478 4294967295
0 0.27242646 0.10732435 4294967295
0 0.2772758 0.10600074 4294967295
0 0.50152653 0.044792235 4294967295
0 0.29237327 0.10187993 4294967295
0 0.23345588 0.11796124 4294967295
0 0.34816268 0.086652391 4294967295
0 0.23524871 0.20592085 4294967295
0 0.070700839 0.46135104 4294967295
0 0.29984397 0.10564867 4294967295
0 0.06416975 0.47148934 4294967295
0 0.061927825 0.47496951 4294967295
0 0.040974244 0.50749606 4294967295
0 0.30905783 0.091345817 4294967295
0 0.12876922 0.37121058 4294967295
0 0.14269081 0.3495999 4294967295
0 0.075253069 0.45428452 4294967295
0 0.2965011 0.11083785 4294967295
0 0.36174446 0.0095595717 4294967295
0 0.30406532 0.099095792 4294967295
0 0.039523523 0.50974804 4294967295
0 0.30298761 0.10076874 4294967295
0 0.049970735 0.49353069 4294967295
0 0.28358427 0.13088882 4294967295
0 0.27202708 0.14882922 4294967295
0 0.34079018 0.042087197 4294967295
0 0.11049993 0.39957029 4294967295
0 0.30528745 0.097198635 4294967295
0 0.065137811 0.65133637 4294967295
0 0.18772341 0.26620036 4294967295
0 0.16604443 0.33431083 4294967295
0 0.1848103 0.27535272 4294967295
0 0.010827361 0.82196742 4294967295
0 0.036099497 0.74256814 4294967295
0 0.01259362 0.81641823 4294967295
0 0.16642544 0.33311379 4294967295
0 0.21031448 0.1952244 4294967295
0 0.064951599 0.65192139 4294967295
0 0.11602406 0.49146339 4294967295
0 0.25783584 0.045923173 4294967295
0 0.11081266 0.50783646 4294967295
0.0067834761 0.15315127 0.40291375 4294967295
0 0.21425787 0.18283516 4294967295
0 0.20617355 0.20823425 4294967295
0 0.25203842 0.06413734 4294967295
0 0.26998702 0.0077469349 4294967295
0 0.15329662 0.37436152 4294967295
0 0.24747789 0.078465462 4294967295
0 0.22271182 0.1562748 4294967295
0 0.63876247 0.03420943 4294967295
0 0.29543716 0.40920055 4294967295
0 0.31580088 0.38695863 4294967295
0 0.58938074 0.088145792 4294967295
0 0.49669725 0.18937773 4294967295
0 0.20175599 0.51152217 4294967295
0 0.10186367 0.62062782 4294967295
0 0.40019491 0.2947807 4294967295
0 0.36195895 0.33654326 4294967295
0 0.56355935 0.11634874 4294967295
0 0.13848919 0.58062422 4294967295
0 0.14640689 0.57197624 4294967295
0 0.59018868 0.087263286 4294967295
0 0.22727399 0.48365057 4294967295
0 0.17738022 0.53814614 4294967295
0 0.32942 0.37208337 4294967295
0 0.074448131 0.65057194 4294967295
0 0.33712518 0.36366752 4294967295
0 0.614775 0.060409307 4294967295
0 0.038498465 0.68983734 4294967295
0 0.60966301 0.065992832 4294967295
0 0.30307525 0.2813729 4294967295
0 0.17266846 0.52339768 4294967295
0 0.37957272 0.13939959 4294967295
0 0.10422121 0.65043044 4294967295
0 0.13098903 0.60075146 4294967295
0 0.29656234 0.29346037 4294967295
0 0.40889689 0.084976256 4294967295
0 0.0090823192 0.8270008 4294967295
0 0.27530977 0.3329035 4294967295
0 0.1546817 0.55677974 4294967295
0 0.22336832 0.42930275 4294967295
0 0.22054937 0.43453449 4294967295
0 0.037031103 0.77513003 4294967295
0 0.3602694 0.17522508 4294967295
0 0.28966874 0.30625439 4294967295
0 0.30858248 0.2711519 4294967295
0 0.15119243 0.56325555 4294967295
0 0.21738729 0.44040307 4294967295
0 0.40255401 0.096748114 4294967295
0 0.2505365 0.37888074 4294967295
0 0.16317509 0.5410167 4294967295
0.026761759 0.21771558 0.14872359 4294967295
0 0.075355679 0.5419479 4294967295
0 0.071586072 0.55564344 4294967295
0 0.17242187 0.1892913 4294967295
0 0.088255256 0.49508172 4294967295
0 0.05134128 0.62919593 4294967295
0 0.049985804 0.63412058 4294967295
0 0.05319754 0.62245184 4294967295
0 0.20100002 0.085462451 4294967295
0 0.13524958 0.32434401 4294967295
0 0.016107824 0.75720459 4294967295
0 0.027941566 0.71421075 4294967295
0 0.19993204 0.089342594 4294967295
0 0.16255048 0.22515559 4294967295
0 0.0053321547 0.79635429 4294967295
0 0.20441689 0.073048413 4294967295
0 0.073975675 0.54696167 4294967295
0 0.081714064 0.51884687 4294967295
0 0.090193361 0.48804027 4294967295
0 0.18288308 0.1512841 4294967295
0 0.10000005 0.45241103 4294967295
0 0.024076365 0.39558885 4294967295
0 0.10219098 0.21380271 4294967295
0 0.18042563 0.031737238 4294967295
0 0.0018270236 0.44736686 4294967295
0 0.015059081 0.41657361 4294967295
0 0.056007031 0.32128069 4294967295
0 0.04539869 0.34596813 4294967295
0 0.17336173 0.04817614 4294967295
0 0.026992027 0.3888036 4294967295
0 0.11053134 0.19439325 4294967295
0 0.041172862 0.35580236 4294967295
0 0.17602251 0.041984051 4294967295
0 0.18681356 0.016871423 4294967295
0 0.085548997 0.25253147 4294967295
0 0.025163742 0.39305833 4294967295
0 0.038730804 0.36148542 4294967295
0 0.065217279 0.29984686 4294967295
0 0.14206487 0.12100932 4294967295
0 0.052653383 0.3290852 4294967295
0 0.089368187 0.24364355 4294967295
0 0.12081006 0.17047289 4294967295
0 0.53047526 0.22615921 4294967295
0 0.3232559 0.32698077 4294967295
0 0.84421998 0.073508322 4294967295
0 0.93029922 0.03162691 4294967295
0 0.1386679 0.41679111 4294967295
0 0.29221439 0.34208384 4294967295
0 0.12814866 0.42190918 4294967295
0 0.58816499 0.19809058 4294967295
0.019494718 0.43519077 0.30149919 4294967295
0 0.6522606 0.16690519 4294967295
0 0.51822072 0.23212162 4294967295
0 0.42506641 0.27744538 4294967295
0 0.72949487 0.12932724 4294967295
0 0.80546677 0.092363507 4294967295
0 0.65790486 0.164159 4294967295
0 0.62332165 0.18098527 4294967295
0 0.94390208 0.0250085 4294967295
0 0.22949025 0.37260196 4294967295
0 0.83448696 0.078243881 4294967295
0 0.85137534 0.070026904 4294967295
0 0.19230805 0.39069277 4294967295
0 0.10969006 0.59813535 4294967295
0 0.17183122 0.37893552 4294967295
0 0.20025885 0.27865851 4294967295
0 0.18545797 0.33086783 4294967295
0 0.021175515 0.91036588 4294967295
0 0.094847836 0.65049052 4294967295
0 0.18414611 0.33549541 4294967295
0 0.15640783 0.43334073 4294967295
0 0.24368544 0.12547344 4294967295
0 0.27484334 0.015565515 4294967295
0 0.11401805 0.58286858 4294967295
0 0.22544728 0.18980759 4294967295
0 0.034493927 0.86338586 4294967295
0 0.19600584 0.29366082 4294967295
0 0.26140246 0.062977552 4294967295
0 0.19951777 0.28127259 4294967295
0 0.033383347 0.86730337 4294967295
0 0.16515389 0.40248948 4294967295
0 0.06566105 0.75344539 4294967295
0 0.15264596 0.44661057 4294967295
0 0.090575241 0.66556185 4294967295
0 0.042204138 0.010254979 4294967295
0 0.04407528 0.0015044063 4294967295
0 0.019454759 0.11664466 4294967295
0 0.035030726 0.043802142 4294967295
0 0.037655201 0.031528533 4294967295
0 0.028032951 0.076527908 4294967295
0 0.0030318792 0.19344784 4294967295
0 0.036991972 0.034630179 4294967295
0 0.0010748408 0.20260012 4294967295
0 0.03035013 0.065691397 4294967295
0 0.024432763 0.093364537 4294967295
0 0.030559516 0.064712182 4294967295
0 0.033716675 0.049947426 4294967295
0 0.03951196 0.022845209 4294967295
0 0.015438652 0.13542637 4294967295
0 0.014185898 0.141285 4294967295
0.033657007 0.067513853 0.082948931 4294967295
0 0.014737109 0.13870721 4294967295
0 0.032312836 0.056512609 4294967295
0 0.025302166 0.089298688 4294967295
0 0.020221058 0.11306098 4294967295
0 0.073015898 0.41999859 4294967295
0 0.23601206 0.22807026 4294967295
0 0.041845113 0.45670223 4294967295
0 0.17405109 0.30102944 4294967295
0 0.041192275 0.45747095 4294967295
0 0.18121673 0.29259187 4294967295
0 0.19312856 0.27856568 4294967295
0 0.1304099 0.35241705 4294967295
0 0.1599931 0.31758276 4294967295
0 0.19001502 0.28223187 4294967295
0 0.31870535 0.13069874 4294967295
0 0.069340676 0.42432615 4294967295
0 0.12476391 0.35906518 4294967295
0 0.16032402 0.31719309 4294967295
0 0.098685123 0.38977301 4294967295
0 0.053093646 0.44345707 4294967295
0 0.170727 0.30494356 4294967295
0 0.39243287 0.043884456 4294967295
0 0.28956941 0.16500637 4294967295
0 0.036799349 0.46264365 4294967295
0 0.28906223 0.16560358 4294967295
0 0.55947167 0.0033682585 4294967295
0 0.18406872 0.29190439 4294967295
0 0.43152863 0.10170576 4294967295
0 0.40599978 0.12132734 4294967295
0 0.50541335 0.044917673 4294967295
0 0.12448777 0.33769855 4294967295
0 0.084434986 0.36848328 4294967295
0 0.22685537 0.25901842 4294967295
0 0.22029907 0.26405764 4294967295
0 0.39412946 0.1304509 4294967295
0 0.28176442 0.21681511 4294967295
0 0.44868851 0.088516623 4294967295
0 0.44818184 0.08890605 4294967295
0 0.51955658 0.034047127 4294967295
0 0.13825738 0.32711518 4294967295
0 0.055451445 0.39076015 4294967295
0 0.1656452 0.30606478 4294967295
0 0.38759467 0.13547358 4294967295
0 0.47365588 0.069326609 4294967295
0 0.25663388 0.23613055 4294967295
0 0.55130959 0.0096416473 4294967295
0 0.021593357 0.6154235 4294967295
0 0.13011074 0.26676258 4294967295
0 0.12747134 0.27524284 4294967295
0.036463965 0.20168768 0.1904103 4294967295
0 0.14836372 0.20811665 4294967295
0 0.057712115 0.49937573 4294967295
0 0.072264418 0.45261991 4294967295
0 0.027595524 0.59613883 4294967295
0 0.056055605 0.50469804 4294967295
0 0.14184281 0.22906801 4294967295
0 0.1907143 0.07204634 4294967295
0 0.20952441 0.011610448 4294967295
0 0.11975211 0.30004433 4294967295
0 0.024632905 0.60565758 4294967295
0 0.028302982 0.59386581 4294967295
0 0.20550393 0.024528027 4294967295
0 0.10790644 0.33810389 4294967295
0 0.17728478 0.11519474 4294967295
0 0.098873466 0.36712638 4294967295
0 0.064373635 0.47797263 4294967295
0 0.13356048 0.25567874 4294967295
0 0.27935892 0.15049773 4294967295
0 0.26168123 0.17560264 4294967295
0 0.09041094 0.41883171 4294967295
0 0.21771842 0.2380363 4294967295
0 0.051730029 0.4737643 4294967295
0 0.081838213 0.43100625 4294967295
0 0.29984739 0.12140107 4294967295
0 0.31560627 0.099021137 4294967295
0 0.12087683 0.37556565 4294967295
0 0.14974236 0.33457235 4294967295
0 0.16072947 0.31896904 4294967295
0 0.034252554 0.4985849 4294967295
0 0.032636896 0.50087935 4294967295
0 0.26506719 0.1707941 4294967295
0 0.16489939 0.31304711 4294967295
0 0.082526833 0.43002832 4294967295
0 0.36641011 0.026872218 4294967295
0 0.036004741 0.49609655 4294967295
0 0.04198695 0.48760092 4294967295
0 0.35987702 0.036150157 4294967295
0 0.25250456 0.18863487 4294967295
0 0.13909365 0.025393095 4294967295
0 0.16409288 0.017963391 4294967295
0 0.20174858 0.0067722164 4294967295
0 0.018718831 0.061168175 4294967295
0 0.0073733628 0.064540021 4294967295
0 0.11791562 0.031687152 4294967295
0 0.1052396 0.03545443 4294967295
0 0.13024561 0.02802271 4294967295
0 0.056164306 0.050039478 4294967295
0 0.033187374 0.056868162 4294967295
0 0.18292862 0.012365457 4294967295
0.034488104 0.2175183 0.046823371 4294967295
0 0.063330792 0.047909617 4294967295
0 0.0060807629 0.064924181 4294967295
0 0.13321765 0.027139429 4294967295
0 0.022701034 0.059984677 4294967295
0 0.076516457 0.043990873 4294967295
0 0.22047347 0.001207225 4294967295
0 0.1163591 0.032149743 4294967295
0 0.096475638 0.038059056 4294967295
0 0.014955686 0.062286574 4294967295
0 0.05787224 0.61681098 4294967295
0 0.032361537 0.72295707 4294967295
0 0.196024 0.04198283 4294967295
0 0.080331028 0.52336341 4294967295
0 0.018745564 0.77961105 4294967295
0 0.12497456 0.33760858 4294967295
0 0.12661095 0.33079982 4294967295
0 0.032499827 0.72238165 4294967295
0 0.046542604 0.66395187 4294967295
0 0.071127199 0.5616591 4294967295
0 0.011582397 0.80941588 4294967295
0 0.063725688 0.59245569 4294967295
0 0.077895626 0.53349674 4294967295
0 0.11982389 0.35903972 4294967295
0 0.16033113 0.19049531 4294967295
0 0.19745553 0.036026478 4294967295
0 0.17138031 0.14452142 4294967295
0 0.19079572 0.063736856 4294967295
0 0.15926218 0.19494307 4294967295
0 0.13328022 0.30304998 4294967295
0 0.042816691 0.6794548 4294967295
0 0.24699765 0.16583587 4294967295
0 0.11240631 0.20621419 4294967295
0 0.17742608 0.18670782 4294967295
0 0.66145635 0.041495457 4294967295
0 0.45604217 0.1031211 4294967295
0 0.23069665 0.17072628 4294967295
0 0.026528949 0.23197798 4294967295
0 0.34216148 0.13728608 4294967295
0 0.4552547 0.10335734 4294967295
0 0.15209943 0.19430599 4294967295
0 0.30300996 0.1490318 4294967295
0 0.7669583 0.0098441541 4294967295
0 0.22483671 0.17248431 4294967295
0 0.7879411 0.0035491735 4294967295
0 0.45846754 0.10239348 4294967295
0 0.35094377 0.13465133 4294967295
0 0.16876605 0.18930589 4294967295
0 0.73445803 0.019594461 4294967295
0 0.39588627 0.12116828 4294967295
0.020590339 0.43662724 0.13571329 4294967295
0 0.23694021 0.16885318 4294967295
0 0.019411344 0.22228579 4294967295
0 0.069310039 0.027473152 4294967295
0 0.017082738 0.23137705 4294967295
0 0.0020569155 0.29004031 4294967295
0 0.042331599 0.13280138 4294967295
0 0.032942522 0.16945787 4294967295
0 0.063117005 0.051651761 4294967295
0 0.060650036 0.061283216 4294967295
0 0.056521144 0.077403083 4294967295
0 0.073847421 0.0097584724 4294967295
0 0.001240373 0.29322824 4294967295
0 0.043317456 0.12895243 4294967295
0 0.041034706 0.13786466 4294967295
0 0.02326289 0.20724873 4294967295
0 0.045849934 0.11906523 4294967295
0 0.073697761 0.010342777 4294967295
0 0.066721931 0.03757754 4294967295
0 0.060369488 0.062378526 4294967295
0 0.026276445 0.19548333 4294967295
0 0.063589558 0.049806833 4294967295
0 0.0054856823 0.27665386 4294967295
0 0.16819996 0.19874702 4294967295
0 0.17799576 0.18666802 4294967295
0 0.10687894 0.27436069 4294967295
0 0.0018631009 0.40385351 4294967295
0 0.019957786 0.38154131 4294967295
0 0.20446086 0.15403447 4294967295
0 0.02701021 0.37284511 4294967295
0 0.1181362 0.26047957 4294967295
0 0.28820619 0.050769866 4294967295
0 0.32603079 0.0041291416 4294967295
0 0.19183533 0.16960274 4294967295
0 0.29708022 0.039827496 4294967295
0 0.1792803 0.18508409 4294967295
0 0.0045780414 0.40050575 4294967295
0 0.24000308 0.11020809 4294967295
0 0.11156005 0.26858848 4294967295
0 0.24842419 0.09982422 4294967295
0 0.22921957 0.12350503 4294967295
0 0.11691132 0.26198995 4294967295
0 0.10592692 0.2755346 4294967295
0 0.076873958 0.3113592 4294967295
0 0.13106546 0.73892099 4294967295
0 0.35196936 0.4301106 4294967295
0 0.47023937 0.26477623 4294967295
0 0.35809618 0.42154568 4294967295
0 0.24174464 0.58419812 4294967295
0 0.51763612 0.19851846 4294967295
0.028291041 0.6036604 0.14610189 4294967295
0 0.50965959 0.20966911 4294967295
0 0.19484405 0.64976233 4294967295
0 0.27219519 0.54163009 4294967295
0 0.064060703 0.83258963 4294967295
0 0.19857527 0.64454633 4294967295
0 0.3121644 0.48575556 4294967295
0 0.47353184 0.26017356 4294967295
0 0.25266826 0.56892759 4294967295
0 0.54875422 0.1550172 4294967295
0 0.39107466 0.37544376 4294967295
0 0.24596196 0.57830256 4294967295
0 0.27329642 0.54009068 4294967295
0 0.32638943 0.46586981 4294967295
0 0.60500425 0.076383054 4294967295
0 0.10956369 0.16627583 4294967295
0 0.078116633 0.18268561 4294967295
0 0.39367822 0.018018425 4294967295
0 0.26155365 0.086964026 4294967295
0 0.21582635 0.11082556 4294967295
0 0.065409794 0.18931633 4294967295
0 0.11581047 0.16301611 4294967295
0 0.18248719 0.12822269 4294967295
0 0.15049095 0.14491905 4294967295
0 0.34429145 0.043789566 4294967295
0 0.059535161 0.19238186 4294967295
0 0.38294914 0.023617104 4294967295
0 0.073012024 0.18534932 4294967295
0 0.39555874 0.017037123 4294967295
0 0.32824227 0.052164391 4294967295
0 0.40385765 0.012706563 4294967295
0 0.093833804 0.17448404 4294967295
0 0.076729849 0.18340927 4294967295
0 0.01723467 0.2144552 4294967295
0 0.22273898 0.10721839 4294967295
0 0.27937144 0.077666298 4294967295
0 0.36716273 0.46576855 4294967295
0 0.26606962 0.58620989 4294967295
0 0.20929356 0.65385234 4294967295
0 0.68125373 0.091563582 4294967295
0 0.64117873 0.13930851 4294967295
0 0.14649792 0.72866648 4294967295
0 0.24777359 0.60800767 4294967295
0 0.052468911 0.84069175 4294967295
0 0.34047168 0.49756801 4294967295
0 0.38607284 0.44323924 4294967295
0 0.74944472 0.010321438 4294967295
0 0.045423459 0.84908563 4294967295
0 0.010068091 0.8912077 4294967295
0 0.10713948 0.77555776 4294967295
0.021287613 0.27174428 0.62609869 4294967295
0 0.33314708 0.50629449 4294967295
0 0.37357172 0.45813295 4294967295
0 0.1018891 0.78181303 4294967295
0 0.43854934 0.38071924 4294967295
0 0.29344457 0.55359566 4294967295
0 0.23115107 0.62781155 4294967295
0 0.12457346 0.11551885 4294967295
0 0.36229229 0.042805083 4294967295
0 0.1671489 0.10249582 4294967295
0 0.14478749 0.10933575 4294967295
0 0.12130378 0.11651898 4294967295
0 0.49481535 0.0022687465 4294967295
0 0.023301532 0.14649604 4294967295
0 0.072689056 0.13138932 4294967295
0 0.23582137 0.081490189 4294967295
0 0.19956769 0.092579514 4294967295
0 0.21134213 0.088977933 4294967295
0 0.18490678 0.097064011 4294967295
0 0.1221042 0.11627415 4294967295
0 0.30839425 0.059291489 4294967295
0 0.34905213 0.046855003 4294967295
0 0.15686388 0.10564181 4294967295
0 0.031717964 0.14392161 4294967295
0 0.10258576 0.12224448 4294967295
0 0.15112457 0.10739736 4294967295
0 0.061810154 0.13471697 4294967295
0 0.10925568 0.12020427 4294967295
0 0.290539 0.15553701 4294967295
0 0.41348499 0.029474229 4294967295
0 0.25996104 0.18689016 4294967295
0 0.1041294 0.34667227 4294967295
0 0.14243081 0.30739987 4294967295
0 0.39479938 0.048633516 4294967295
0 0.32623187 0.11893928 4294967295
0 0.21036783 0.23774059 4294967295
0 0.062259525 0.38960359 4294967295
0 0.20301044 0.2452845 4294967295
0 0.35754737 0.086829901 4294967295
0 0.18974918 0.25888193 4294967295
0 0.30982202 0.13576514 4294967295
0 0.3510164 0.093526453 4294967295
0 0.21026686 0.23784412 4294967295
0 0.37382686 0.070137709 4294967295
0 0.11643358 0.33405617 4294967295
0 0.38599211 0.057664067 4294967295
0 0.11768937 0.33276853 4294967295
0 0.27924946 0.16711274 4294967295
0 0.051277984 0.40086353 4294967295
0 0.37696633 0.18664053 4294967295
0.036266964 0.86655915 0.054768097 4294967295
0 0.46712363 0.15320101 4294967295
0 0.64181554 0.088407457 4294967295
0 0.058442175 0.30478173 4294967295
0 0.65859669 0.082183301 4294967295
0 0.15088148 0.2704958 4294967295
0 0.45754939 0.15675212 4294967295
0 0.3566843 0.19416317 4294967295
0 0.093669206 0.29171595 4294967295
0 0.094777562 0.29130486 4294967295
0 0.56393361 0.11729401 4294967295
0 0.37715 0.1865724 4294967295
0 0.00037522326 0.32631886 4294967295
0 0.33306104 0.20292509 4294967295
0 0.79584622 0.03127721 4294967295
0 0.12429068 0.2803584 4294967295
0 0.73711383 0.053061157 4294967295
0 0.62730098 0.093790948 4294967295
0 0.50194949 0.14028405 4294967295
0 0.47358054 0.15080614 4294967295
0 0.19415723 0.028212804 4294967295
0 0.38982344 0.01053571 4294967295
0 0.46520963 0.0037250854 4294967295
0 0.32893509 0.016036551 4294967295
0 0.20317763 0.027397873 4294967295
0 0.017490918 0.044173393 4294967295
0 0.26824999 0.021519033 4294967295
0 0.36850977 0.012461253 4294967295
0 0.23439319 0.024577763 4294967295
0 0.23954868 0.024111999 4294967295
0 0.13084534 0.0339326 4294967295
0 0.097244553 0.036968198 4294967295
0 0.27317566 0.021074032 4294967295
0 0.0033523724 0.045450713 4294967295
0 0.1840601 0.029125011 4294967295
0 0.030002315 0.043043073 4294967295
0 0.20858459 0.026909392 4294967295
0 0.23795633 0.024255857 4294967295
0 0.084536277 0.038116306 4294967295
0 0.026623564 0.04334832 4294967295
0 0.45496431 0.0046506785 4294967295
0 0.1343046 0.085097462 4294967295
0 0.051636901 0.29799247 4294967295
0 0.044922534 0.31528404 4294967295
0 0.086225718 0.20891552 4294967295
0 0.14707299 0.052214891 4294967295
0 0.13496479 0.083397239 4294967295
0 0.003629728 0.42162585 4294967295
0 0.15472977 0.032496303 4294967295
0 0.031773716 0.34914634 4294967295
0.011485884 0.14392841 0.10137878 4294967295
0 0.14110491 0.067584544 4294967295
0 0.14046662 0.069228351 4294967295
0 0.032232124 0.34796578 4294967295
0 0.14688458 0.052700102 4294967295
0 0.061758656 0.27192581 4294967295
0 0.15400204 0.034370422 4294967295
0 0.056989022 0.28420907 4294967295
0 0.14091483 0.068074077 4294967295
0 0.029890262 0.35399681 4294967295
0 0.089122385 0.2014557 4294967295
0 0.063834511 0.26657984 4294967295
0 0.081629068 0.50113964 4294967295
0 0.11059999 0.36100215 4294967295
0 0.067767195 0.56819206 4294967295
0 0.11254811 0.35157871 4294967295
0 0.12033753 0.31389987 4294967295
0 0.048939191 0.65926647 4294967295
0 0.14354613 0.20163566 4294967295
0 0.014936368 0.8237443 4294967295
0 0.012364659 0.83618408 4294967295
0 0.01547017 0.82116216 4294967295
0 0.064659245 0.58322573 4294967295
0 0.1078043 0.37452537 4294967295
0 0.1782591 0.033722758 4294967295
0 0.028815452 0.75660866 4294967295
0 0.11182188 0.35509157 4294967295
0 0.16429232 0.10128266 4294967295
0 0.063984446 0.58648992 4294967295
0 0.073186286 0.54197896 4294967295
0 0.13524476 0.24179095 4294967295
0 0.034230396 0.73041558 4294967295
0 0.10886268 0.36940581 4294967295
0 0.30877113 0.27251029 4294967295
0 0.57649666 0.02857691 4294967295
0 0.24064453 0.33458263 4294967295
0 0.41734189 0.17358795 4294967295
0 0.29235622 0.28746644 4294967295
0 0.47251141 0.12332124 4294967295
0 0.52993637 0.070999473 4294967295
0 0.22913517 0.34506917 4294967295
0 0.13252798 0.43309113 4294967295
0 0.28502512 0.29414606 4294967295
0 0.45152286 0.14244458 4294967295
0 0.50187057 0.096571147 4294967295
0 0.072069027 0.48817724 4294967295
0 0.0042629512 0.54995751 4294967295
0 0.36507681 0.22120836 4294967295
0 0.12108484 0.44351733 4294967295
0 0.044839337 0.51298708 4294967295
0.020970967 0.43681535 0.19592336 4294967295
0 0.33327332 0.25018555 4294967295
0 0.39861447 0.19065112 4294967295
0 0.39296612 0.1957975 4294967295
0 0.37545133 0.12105314 4294967295
0 0.034677256 0.24667278 4294967295
0 0.46070734 0.08962521 4294967295
0 0.18551527 0.19106932 4294967295
0 0.16474555 0.19872567 4294967295
0 0.17052498 0.19659519 4294967295
0 0.61335057 0.033356294 4294967295
0 0.55456018 0.055028215 4294967295
0 0.52804887 0.064801082 4294967295
0 0.57703429 0.046743572 4294967295
0 0.12936307 0.21176872 4294967295
0 0.30744836 0.1461211 4294967295
0 0.21171379 0.18141176 4294967295
0 0.67648065 0.010084644 4294967295
0 0.21722017 0.17938194 4294967295
0 0.47702774 0.083609015 4294967295
0 0.12609616 0.212973 4294967295
0 0.54724872 0.057723433 4294967295
0 0.29600516 0.15033941 4294967295
0 0.0033708569 0.25821325 4294967295
0 0.63069695 0.026961893 4294967295
0 0.040739577 0.54770046 4294967295
0 0.21435787 0.30188122 4294967295
0 0.12377915 0.43012804 4294967295
0 0.27516544 0.21578622 4294967295
0 0.067173101 0.51027429 4294967295
0 0.40019318 0.038764358 4294967295
0 0.14853477 0.39507753 4294967295
0 0.17810912 0.3532044 4294967295
0 0.20070292 0.32121474 4294967295
0 0.16960074 0.36525106 4294967295
0 0.030410741 0.56232464 4294967295
0 0.31340092 0.16165009 4294967295
0 0.26968145 0.22355077 4294967295
0 0.13400236 0.41565341 4294967295
0 0.25843123 0.23947951 4294967295
0 0.17899738 0.35194674 4294967295
0 0.027213017 0.56685221 4294967295
0 0.18139988 0.34854513 4294967295
0 0.25758368 0.24067953 4294967295
0 0.21398373 0.30241096 4294967295
0 0.31001315 0.16644672 4294967295
0 0.22700837 0.48317951 4294967295
0 0.4185715 0.208161 4294967295
0 0.33059096 0.33447069 4294967295
0 0.46402076 0.14291155 4294967295
0.027735658 0.44900623 0.23202176 4294967295
0 0.27202693 0.41854841 4294967295
0 0.1414201 0.60605472 4294967295
0 0.19887756 0.52356565 4294967295
0 0.32572412 0.34145778 4294967295
0 0.42395663 0.2004298 4294967295
0 0.36202589 0.28934097 4294967295
0 0.12484336 0.62985319 4294967295
0 0.5124948 0.073319614 4294967295
0 0.32593915 0.34114909 4294967295
0 0.3206211 0.34878397 4294967295
0 0.18368798 0.54537261 4294967295
0 0.026912287 0.77044839 4294967295
0 0.54416502 0.027852118 4294967295
0 0.22377115 0.48782703 4294967295
0 0.43999347 0.17740649 4294967295
0 0.33605599 0.32662478 4294967295
0 0.0106147 0.37939361 4294967295
0 0.54998064 0.08700031 4294967295
0 0.57505429 0.073407739 4294967295
0 0.43862367 0.14736755 4294967295
0 0.19507606 0.27939606 4294967295
0 0.37971511 0.1793022 4294967295
0 0.12855144 0.31545943 4294967295
0 0.059437428 0.35292655 4294967295
0 0.66589642 0.024161726 4294967295
0 0.6562295 0.029402196 4294967295
0 0.47620156 0.12699637 4294967295
0 0.5404042 0.092191756 4294967295
0 0.4768436 0.12664831 4294967295
0 0.10866963 0.32623747 4294967295
0 0.0082208915 0.38069132 4294967295
0 0.01709489 0.37588066 4294967295
0 0.51929832 0.10363337 4294967295
0 0.54268777 0.090953797 4294967295
0 0.47348788 0.12846747 4294967295
0 0.67668384 0.018313795 4294967295
0 0.47830498 0.12585607 4294967295
0 0.24459428 0.00043493509 4294967295
0 0.071616322 0.36883903 4294967295
0 0.11920252 0.2674911 4294967295
0 0.096996307 0.31478536 4294967295
0 0.017939841 0.48315781 4294967295
0 0.020378228 0.47796461 4294967295
0 0.026118949 0.46573818 4294967295
0 0.11222347 0.28235492 4294967295
0 0.024035631 0.47017515 4294967295
0 0.21562041 0.06214273 4294967295
0 0.065565817 0.38172522 4294967295
0 0.1751679 0.14829746 4294967295
0.028578533 0.066615894 0.46893317 4294967295
0 0.19640054 0.10307673 4294967295
0 0.2194616 0.053961843 4294967295
0 0.058517132 0.39673734 4294967295
0 0.18104348 0.13578382 4294967295
0 0.20077369 0.093762904 4294967295
0 0.22259726 0.04728362 4294967295
0 0.12244675 0.26058164 4294967295
0 0.12027653 0.26520371 4294967295
0 0.032089952 0.2480064 4294967295
0 0.049386665 0.10583857 4294967295
0 0.017160555 0.37071642 4294967295
0 0.011321771 0.41870746 4294967295
0 0.046426043 0.13017297 4294967295
0 0.059077941 0.026182532 4294967295
0 0.026563762 0.29342812 4294967295
0 0.016624635 0.37512136 4294967295
0 0.059026003 0.026609421 4294967295
0 0.044779055 0.14371014 4294967295
0 0.046943266 0.12592173 4294967295
0 0.021433173 0.33559826 4294967295
0 0.049341973 0.10620591 4294967295
0 0.052126378 0.083319902 4294967295
0 0.028076412 0.2809951 4294967295
0 0.015622105 0.38336149 4294967295
0 0.058239732 0.033072054 4294967295
0 0.020655094 0.34199357 4294967295
0 0.032298476 0.24629247 4294967295
0 0.040529501 0.17863876 4294967295
0 0.030329727 0.2624743 4294967295
0 0.23312259 0.14990872 4294967295
0 0.019453119 0.51426315 4294967295
0 0.1180102 0.34620121 4294967295
0 0.2040074 0.19955665 4294967295
0 0.18003242 0.24043939 4294967295
0 0.27574342 0.077230632 4294967295
0 0.22399607 0.16547149 4294967295
0 0.023292415 0.5077163 4294967295
0 0.1201672 0.34252304 4294967295
0 0.15760279 0.27868694 4294967295
0 0.1117733 0.3568365 4294967295
0 0.17854296 0.24297926 4294967295
0 0.075944334 0.41793296 4294967295
0 0.095348842 0.38484392 4294967295
0 0.31550735 0.0094242096 4294967295
0 0.16166198 0.27176511 4294967295
0 0.078656554 0.41330802 4294967295
0 0.22535694 0.16315091 4294967295
0 0.082670368 0.40646356 4294967295
0 0.18916734 0.22486231 4294967295
0.023588199 0.18232138 0.30034757 4294967295
0 0.070587315 0.010230282 4294967295
0 0.0028487446 0.038964972 4294967295
0 0.03522142 0.025232486 4294967295
0 0.02501002 0.029564161 4294967295
0 0.064494975 0.01281465 4294967295
0 0.081353575 0.0056632347 4294967295
0 0.05541322 0.016667129 4294967295
0 0.021635281 0.030995727 4294967295
0 0.055419996 0.016664255 4294967295
0 0.061151821 0.014232816 4294967295
0 0.056447897 0.016228219 4294967295
0 0.020897536 0.031308677 4294967295
0 0.019556817 0.03187741 4294967295
0 0.043087326 0.021895772 4294967295
0 0.086975634 0.0032783598 4294967295
0 0.026428001 0.028962653 4294967295
0 0.07853625 0.0068583451 4294967295
0 0.038763963 0.023729742 4294967295
0 0.05940076 0.014975617 4294967295
0 0.036501858 0.024689326 4294967295
0 0.061167289 0.014226254 4294967295
0 0.13812202 0.31318778 4294967295
0 0.15641783 0.3058987 4294967295
0 0.064869978 0.34237158 4294967295
0 0.37612334 0.21836747 4294967295
0 0.70101523 0.088929713 4294967295
0 0.52184999 0.1603096 4294967295
0 0.46365169 0.18349595 4294967295
0 0.73814476 0.074137211 4294967295
0 0.28649184 0.25407687 4294967295
0 0.49145302 0.17241983 4294967295
0 0.15764517 0.30540973 4294967295
0 0.53056854 0.15683611 4294967295
0 0.19663867 0.28987461 4294967295
0 0.027356567 0.35731703 4294967295
0 0.14712389 0.30960143 4294967295
0 0.4077808 0.20575505 4294967295
0 0.56820911 0.14184001 4294967295
0 0.74391419 0.071838677 4294967295
0 0.034433737 0.35449746 4294967295
0 0.77215141 0.060588896 4294967295
0 0.010541222 0.36401629 4294967295
0 0.14297391 0.53488171 4294967295
0 0.15825364 0.51148063 4294967295
0 0.080313824 0.63084626 4294967295
0 0.45171013 0.06204915 4294967295
0 0.34797251 0.22092432 4294967295
0 0.39823163 0.14395201 4294967295
0 0.41441473 0.11916739 4294967295
0.0062448857 0.043237418 0.7034381 4294967295
0 0.47179237 0.031292975 4294967295
0 0.005494283 0.74543309 4294967295
0 0.071540855 0.6442821 4294967295
0 0.17988227 0.47835618 4294967295
0 0.37883964 0.17365098 4294967295
0 0.34946671 0.21863592 4294967295
0 0.42681298 0.10017937 4294967295
0 0.27973419 0.32543197 4294967295
0 0.0098208431 0.73880696 4294967295
0 0.19632491 0.45317411 4294967295
0 0.36369255 0.19684893 4294967295
0 0.29238999 0.3060495 4294967295
0 0.30105036 0.29278606 4294967295
0 0.040592328 0.71341634 4294967295
0 0.29452893 0.46452612 4294967295
0 0.42888719 0.33283794 4294967295
0 0.069223076 0.68535453 4294967295
0 0.16807877 0.58846337 4294967295
0 0.43765193 0.32424736 4294967295
0 0.44748512 0.31460959 4294967295
0 0.74739075 0.020663917 4294967295
0 0.6608662 0.10546899 4294967295
