# .PCD v0.7 - Point Cloud Data file format
VERSION 0.7
FIELDS x y z rgba
SIZE 4 4 4 4
TYPE F F F U
COUNT 1 1 1 1
WIDTH 1328
HEIGHT 1
VIEWPOINT 0 0 0 1 0 0 0
POINTS 1328
DATA ascii
0.51435167 0.42641157 0 4294967295
0.34352005 0.050466266 0 4294967295
0.09431988 0.80935478 0 4294967295
0.94926512 1.0568962 0.070252508 4294967295
0.5212608 0.28427994 0 4294967295
0.18013634 0.35924667 0 4294967295
0.43899044 0.8537845 0 4294967295
0.68309832 0.78618675 0 4294967295
0.38629866 0.14033799 0 4294967295
0.42655453 0.10339023 0 4294967295
0.60040545 0.9676941 0 4294967295
0.10923342 0.86908966 0 4294967295
0.15932442 0.80260372 0 4294967295
0.39040726 0.47290447 0.077220254 4294967295
0.45569038 0.5323419 0 4294967295
0.74500829 0.97004211 0 4294967295
0.95875347 0.088528305 0 4294967295
0.020508353 0.053073332 0 4294967295
0.89788312 0.89952093 0 4294967295
0.039717015 0.41914389 0 4294967295
0.18380088 0.21985336 0 4294967295
0.77839059 0.62279129 0 4294967295
0.073637858 0.4614889 0 4294967295
0.44304883 0.49400729 0.034070797 4294967295
0.60182691 0.83553255 0 4294967295
0.56332672 0.20223233 0 4294967295
0.80322671 0.67256016 0 4294967295
0.071322009 0.96255112 0 4294967295
0.47516388 0.384509 0 4294967295
0.3582353 0.93085426 0 4294967295
0.91685092 0.10324357 0 4294967295
0.90089637 0.87560433 0 4294967295
0.19177188 0.92140472 0 4294967295
0.95090699 0.11188433 0.022229344 4294967295
0.82092565 0.9683947 0 4294967295
0.5087989 0.0047265128 0 4294967295
0.18824805 0.28718945 0 4294967295
0.62751782 0.26188591 0 4294967295
0.74867839 0.036495876 0 4294967295
0.72182244 0.35050526 0 4294967295
0.87202847 0.28514919 0 4294967295
0.55273759 0.67525512 0 4294967295
0.95770937 0.62405962 0 4294967295
0.661659 0.45672598 0.023852769 4294967295
0.0085686147 0.99604154 0 4294967295
0.36372748 0.92541951 0 4294967295
0.099285118 0.26462382 0 4294967295
0.8010239 0.29105699 0 4294967295
0.18602854 0.72970158 0 4294967295
0.38071197 0.006954181 0 4294967295
0.69809628 0.88951087 0 4294967295
0.011680694 0.88634431 0 4294967295
0.17670034 0.63919854 0 4294967295
0.16657168 0.9437201 0.018341418 4294967295
0.67569441 0.8700527 0 4294967295
0.27588397 0.54772282 0 4294967295
0.15520187 0.82862157 0 4294967295
0.22297797 0.11291121 0 4294967295
0.45268115 0.86078423 0 4294967295
0.54578441 0.46124977 0 4294967295
0.85682577 0.90951192 0 4294967295
0.38666928 0.95611089 0 4294967295
0.17413574 0.18769316 0 4294967295
0.27100164 0.38399804 0.023833763 4294967295
0.91739476 0.62787986 0 4294967295
0.36711848 0.61549103 0 4294967295
0.51739073 0.37879917 0 4294967295
0.50183535 0.69409108 0 4294967295
0.017997678 0.6500656 0 4294967295
0.61946976 0.69369209 0 4294967295
0.5201183 0.89535373 0 4294967295
0.2414149 0.67532015 0 4294967295
0.7239753 0.46439287 0 4294967295
0.82145321 0.20987825 0.033221833 4294967295
0.3251771 0.33401579 0 4294967295
0.63790619 0.18200286 0 4294967295
0.24352768 0.024575494 0 4294967295
0.13811374 0.41766343 0 4294967295
0.21226867 0.38528159 0 4294967295
0.77782774 0.12966339 0 4294967295
0.013161464 0.14494619 0 4294967295
0.74515438 0.53055221 0 4294967295
0.52374536 0.24698974 0 4294967295
0.30340308 0.62050289 0.078759827 4294967295
0.89705533 0.84411299 0 4294967295
0.2354351 0.41717359 0 4294967295
0.73946673 0.47685 0 4294967295
0.092493735 0.463442 0 4294967295
0.94124287 0.88072509 0 4294967295
0.64009845 0.26641998 0 4294967295
0.21474086 0.27800465 0 4294967295
0.44842285 0.45826855 0 4294967295
0.30258015 0.58653659 0 4294967295
0.88723588 0.52615273 0.011303924 4294967295
0.97181815 0.65375972 0 4294967295
0.64451218 0.98497963 0 4294967295
0.79870588 0.38966662 0 4294967295
0.51553184 0.32245123 0 4294967295
0.63665634 0.74017507 0 4294967295
0.86419427 0.53371167 0 4294967295
0.58428812 0.099629343 0 4294967295
0.9508853 0.32375485 0 4294967295
0.57647938 0.043379009 0 4294967295
0.84840214 0.57892752 0.061205294 4294967295
0.92410409 0.4272953 0 4294967295
0.7841422 0.13884495 0 4294967295
0.70529991 0.23256506 0 4294967295
0.59711349 0.0078800842 0 4294967295
0.81910163 0.4730455 0 4294967295
0.52272886 0.79091978 0 4294967295
0.1268052 0.1672411 0 4294967295
0.77589941 0.92551106 0 4294967295
0.55690771 0.29143128 0 4294967295
0.31913292 0.26473469 0.071170621 4294967295
0.031606358 0.11215656 0 4294967295
0.72727573 0.61589444 0 4294967295
0.21178591 0.67816097 0 4294967295
0.93964928 0.78826523 0 4294967295
0.72153997 0.72684616 0 4294967295
0.30598748 0.64564407 0 4294967295
0.15414146 0.090129703 0 4294967295
0.78448904 0.8594414 0 4294967295
0.32269475 0.38160256 0 4294967295
0.89738739 0.17186226 0.030065883 4294967295
0.85464805 0.39005038 0 4294967295
0.93271619 0.98145324 0 4294967295
0.55729145 0.7086156 0 4294967295
0.90696436 0.11419917 0 4294967295
4.6877656e-05 0.15492666 0 4294967295
0.30776322 0.031653233 0 4294967295
0.26708323 0.035038944 0 4294967295
0.64754772 0.47886911 0 4294967295
0.71319991 0.58719701 0 4294967295
0.29584676 0.46345234 0.028712407 4294967295
0.31404316 0.57312185 0 4294967295
0.080384038 0.46818462 0 4294967295
0.66325158 0.86487311 0 4294967295
0.32762602 0.9859463 0 4294967295
0.24647565 0.19494751 0 4294967295
0.12774271 0.10112372 0 4294967295
0.58499789 0.060458876 0 4294967295
0.082576975 0.14228934 0 4294967295
0.7690745 0.98954129 0 4294967295
0.27591613 0.78854895 0.019427609 4294967295
0.14446796 0.56425172 0 4294967295
0.80077457 0.41155118 0 4294967295
0.59929067 0.4483223 0 4294967295
0.89042032 0.31249061 0 4294967295
0.035519294 0.15755467 0 4294967295
0.74723059 0.34956247 0 4294967295
0.73067653 0.82761461 0 4294967295
0.81774706 0.39392811 0 4294967295
0.69248772 0.14537311 0 4294967295
0.39929482 0.95838374 0.019420391 4294967295
0.34032062 0.50761712 0 4294967295
0.040087067 0.92531848 0 4294967295
0.56807601 0.12266404 0 4294967295
0.067607827 0.33715048 0 4294967295
0.11220535 0.32409635 0 4294967295
0.10627186 0.25667331 0 4294967295
0.8883481 0.90704644 0 4294967295
0.66822451 0.48763877 0 4294967295
0.35536873 0.55864477 0 4294967295
0.86416799 0.45492661 0.064038567 4294967295
0.71619946 0.54735994 0 4294967295
0.7404505 0.44687602 0 4294967295
0.37497455 0.55819756 0 4294967295
0.8408041 0.067462258 0 4294967295
0.70357066 0.22067854 0 4294967295
0.0064256033 0.043891281 0 4294967295
0.72829568 0.046512671 0 4294967295
0.96920979 0.29637167 0 4294967295
0.16917671 0.036817595 0 4294967295
0.70379537 0.35165527 0.070273213 4294967295
0.36091393 0.73979402 0 4294967295
0.53805536 0.24926203 0 4294967295
0.64684045 0.20627986 0 4294967295
0.73690081 0.0022092196 0 4294967295
0.76492465 0.53703022 0 4294967295
0.39309725 0.48112413 0 4294967295
0.084390171 0.13354775 0 4294967295
0.92800015 0.45936474 0 4294967295
0.69174534 0.76880425 0 4294967295
0.5916813 0.46017033 0.064854324 4294967295
0.98948282 0.5332526 0 4294967295
0.43920729 0.7177785 0 4294967295
0.57976526 0.40841708 0 4294967295
0.014150155 0.74894196 0 4294967295
0.44523466 0.6476723 0 4294967295
0.030324029 0.80614859 0 4294967295
0.38746634 0.5683794 0 4294967295
0.055410642 0.03430682 0 4294967295
0.77465928 0.79231143 0 4294967295
0.12339509 0.62646294 0.086879045 4294967295
0.32934165 0.42961329 0 4294967295
0.020708058 0.41373184 0 4294967295
0.56316108 0.94870818 0 4294967295
0.87309659 0.25490642 0 4294967295
0.71751243 0.39992356 0 4294967295
0.65022242 0.70699525 0 4294967295
0.93317616 0.089429721 0 4294967295
0.42477372 0.51294142 0 4294967295
0.49784678 0.4389239 0 4294967295
0.31056011 0.99175817 0.048676729 4294967295
0.086596213 0.29220742 0 4294967295
0.74923003 0.47406256 0 4294967295
0.86058682 0.80464071 0 4294967295
0.50836939 0.6352461 0 4294967295
0.59695214 0.5448854 0 4294967295
0.17483 0.92629379 0 4294967295
0.97449875 0.19553807 0 4294967295
0.34002563 0.53765976 0 4294967295
0.14424627 0.2131222 0 4294967295
0.81336498 0.88255751 0.020798817 4294967295
0.61304575 0.4427886 0 4294967295
0.56875396 0.54622191 0 4294967295
0.53221834 0.99352771 0 4294967295
0.059163313 0.030065117 0 4294967295
0.43245161 0.32104671 0 4294967295
0.97314656 0.5190478 0 4294967295
0.61325413 0.72237664 0 4294967295
0.99311036 0.47384092 0 4294967295
0.5270173 0.50147974 0 4294967295
0.16585527 0.18073775 0.056768272 4294967295
0.046365187 0.28391701 0 4294967295
0.050263274 0.020863917 0 4294967295
0.47945508 0.39028892 0 4294967295
0.55852371 0.62370133 0 4294967295
0.60341114 0.35108989 0 4294967295
0.48546007 0.21645686 0 4294967295
0.7938785 0.054214042 0 4294967295
0.76267874 0.32609683 0 4294967295
0.047741756 0.82184207 0 4294967295
0.43231797 0.5563494 0.07615602 4294967295
0.14288878 0.32930854 0 4294967295
0.99924117 0.75614291 0 4294967295
0.051685151 0.99235153 0 4294967295
0.22998381 0.57870245 0 4294967295
0.49383134 0.3390708 0 4294967295
0.70267195 0.54019654 0 4294967295
0.62298781 0.75293523 0 4294967295
0.56106043 0.10244289 0 4294967295
0.14322412 0.11958414 0 4294967295
0.78607994 0.80657095 0.059935667 4294967295
0.47067404 0.21160428 0 4294967295
0.96309209 0.26455253 0 4294967295
0.26581833 0.72577089 0 4294967295
0.59064937 0.3135601 0 4294967295
0.54761297 0.94681138 0 4294967295
0.79375345 0.69050175 0 4294967295
0.27611989 0.79299462 0 4294967295
0.44664463 0.32780504 0 4294967295
0.78534621 0.67662841 0 4294967295
0.91867644 0.29134646 0.012168958 4294967295
0.015699239 0.60917944 0 4294967295
0.81937402 0.63868707 0 4294967295
0.36211467 0.38043445 0 4294967295
0.74112993 0.50533879 0 4294967295
0.5000186 0.46727416 0 4294967295
0.25197405 0.97069263 0 4294967295
0.67887843 0.21506613 0 4294967295
0.23524518 0.94469678 0 4294967295
0.94083703 0.82589459 0 4294967295
0.26452982 0.4947229 0.0062729386 4294967295
0.77270591 0.05201032 0 4294967295
0.17895171 0.048825812 0 4294967295
0.84500498 0.62559634 0 4294967295
0.37663084 0.63035113 0 4294967295
0.30222479 0.28313836 0 4294967295
0.90952867 0.31792402 0 4294967295
0.89231783 0.7289027 0 4294967295
0.9566111 0.25443247 0 4294967295
0.10933715 0.69774103 0 4294967295
0.77855736 0.62814182 0.018786101 4294967295
0.16501518 0.011745296 0 4294967295
0.58004838 0.84389365 0 4294967295
0.22681144 0.81529355 0 4294967295
0.78859043 0.16764845 0 4294967295
0.64118814 0.046847288 0 4294967295
0.65609843 0.41389409 0 4294967295
0.098857611 0.83505011 0 4294967295
0.46271989 0.94386256 0 4294967295
0.46064648 0.83935076 0 4294967295
0.64054281 0.82920039 0.066329099 4294967295
0.12248909 0.48374236 0 4294967295
0.080795266 0.014806895 0 4294967295
0.21264507 0.037406337 0 4294967295
0.26923937 0.3219822 0 4294967295
0.73514736 0.029010629 0 4294967295
0.93133795 0.90016252 0 4294967295
0.040755928 0.51138633 0 4294967295
0.74405617 0.26756737 0 4294967295
0.32667992 0.5326466 0 4294967295
0.49534166 1.0279939 0.060125843 4294967295
0.57949388 0.091314226 0 4294967295
0.38176215 0.67835146 0 4294967295
0.92636436 0.84448206 0 4294967295
0.62221402 0.38701084 0 4294967295
0.68383276 0.19642775 0 4294967295
0.14988209 0.80632186 0 4294967295
0.68017012 0.23067737 0 4294967295
0.82112879 0.89281517 0 4294967295
0.26808369 0.090368137 0 4294967295
0.22953501 0.01796867 0.014737623 4294967295
0.11937876 0.14613536 0 4294967295
0.90339357 0.16013469 0 4294967295
0.65752172 0.64744973 0 4294967295
0.42770204 0.98420167 0 4294967295
0.1800963 0.86291784 0 4294967295
0.9520697 0.75959015 0 4294967295
0.9542321 0.33383188 0 4294967295
0.43794164 0.88059646 0 4294967295
0.17831393 0.060155675 0 4294967295
0.28314063 0.87768 0.015533328 4294967295
0.25658342 0.41748938 0 4294967295
0.66846859 0.93675351 0 4294967295
0.64816678 0.48959735 0 4294967295
0.82956868 0.91625047 0 4294967295
0.57996547 0.044366084 0 4294967295
0.91948152 0.69934422 0 4294967295
0.19050145 0.82287508 0 4294967295
0.85947895 0.84802318 0 4294967295
0.47032478 0.28718099 0 4294967295
0.84185833 0.66005462 0.0096335234 4294967295
0.15009885 0.78429455 0 4294967295
0.41001126 0.10433093 0 4294967295
0.11812641 0.8479529 0 4294967295
0.98492742 0.29644033 0 4294967295
0.90810859 0.25253469 0 4294967295
0.15858704 0.164692 0 4294967295
0.6700241 0.82705563 0 4294967295
0.10144553 0.31819081 0 4294967295
0.31665295 0.93101424 0 4294967295
0.23855159 0.90072876 0.004110314 4294967295
0.9753803 0.15392277 0 4294967295
0.5959627 0.16588177 0 4294967295
0.97679782 0.45544162 0 4294967295
0.013904924 0.44712263 0 4294967295
0.74262261 0.84612972 0 4294967295
0.097543731 0.89272141 0 4294967295
0.63042426 0.50755501 0 4294967295
0.99705237 0.74855065 0 4294967295
0.35550791 0.98197979 0 4294967295
0.050554775 0.26918027 0.0055637662 4294967295
0.23451445 0.20357805 0 4294967295
0.42830852 0.90453851 0 4294967295
0.030633664 0.52975404 0 4294967295
0.22272934 0.34728661 0 4294967295
0.46076828 0.45717061 0 4294967295
0.24390507 0.43614858 0 4294967295
0.6110934 0.83986777 0 4294967295
0.60203034 0.58789122 0 4294967295
0.29530936 0.61593527 0 4294967295
0.13284081 0.13575892 0.097826965 4294967295
0.46206501 0.13255757 0 4294967295
0.93065339 0.092489272 0 4294967295
0.64011258 0.92770576 0 4294967295
0.84103996 0.99562049 0 4294967295
0.90968555 0.88603097 0 4294967295
0.25923699 0.1442 0 4294967295
0.089609005 0.68754548 0 4294967295
0.048738517 0.12024267 0 4294967295
0.21729955 0.27146786 0 4294967295
0.4818432 0.69238168 0.014313894 4294967295
0.72863847 0.71143436 0 4294967295
0.11421642 0.33973187 0 4294967295
0.55130213 0.71624678 0 4294967295
0.92762309 0.8466115 0 4294967295
0.33218205 0.96263689 0 4294967295
0.88454342 0.79424703 0 4294967295
0.095194489 0.81519681 0 4294967295
0.88673633 0.73530704 0 4294967295
0.74290258 0.72777629 0 4294967295
0.76503605 0.68669665 0.034108538 4294967295
0.61380726 0.99016452 0 4294967295
0.79678816 0.70341623 0 4294967295
0.67771006 0.84552664 0 4294967295
0.82365894 0.89500958 0 4294967295
0.11699452 0.29118821 0 4294967295
0.57307744 0.84563303 0 4294967295
0.0026225774 0.68729383 0 4294967295
0.18536486 0.55392468 0 4294967295
0.40354061 0.11298794 0 4294967295
0.4633342 0.79852068 0.062798046 4294967295
0.075624853 0.2850796 0 4294967295
0.52996969 0.17081934 0 4294967295
0.10027642 0.41670603 0 4294967295
0.90612638 0.84317905 0 4294967295
0.14448231 0.63705397 0 4294967295
0.49576718 0.75828958 0 4294967295
0.62721848 0.2925553 0 4294967295
0.4617058 0.30492857 0 4294967295
0.13808197 0.28536472 0 4294967295
0.24549027 0.3006286 0.045552097 4294967295
0.57655293 0.77301556 0 4294967295
0.1007095 0.57917553 0 4294967295
0.46030942 0.28607437 0 4294967295
0.1331002 0.86385 0 4294967295
0.39906231 0.53363633 0 4294967295
0.59957266 0.47468716 0 4294967295
0.81871593 0.12954238 0 4294967295
0.6455065 0.9189924 0 4294967295
0.54624844 0.55163288 0 4294967295
0.7981562 0.72671556 0.035984792 4294967295
0.18868686 0.25793856 0 4294967295
0.4490203 0.81590533 0 4294967295
0.5504939 0.91072613 0 4294967295
0.12083392 0.68857586 0 4294967295
0.19609082 0.32077208 0 4294967295
0.94365233 0.77264374 0 4294967295
0.093787655 0.044361852 0 4294967295
0.35181928 0.55409706 0 4294967295
0.33043623 0.48491946 0 4294967295
0.42576247 0.73731387 0.0078153536 4294967295
0.018555829 0.017519783 0 4294967295
0.20418566 0.83727181 0 4294967295
0.14706217 0.84969217 0 4294967295
0.75626415 0.69331062 0 4294967295
0.40132505 0.51843554 0 4294967295
0.38404134 0.59001189 0 4294967295
0.7763741 0.83306164 0 4294967295
0.40591726 0.326868 0 4294967295
0.74378777 0.52675116 0 4294967295
0.076069593 1.0005043 0.060625724 4294967295
0.84752327 0.95909625 0 4294967295
0.71252233 0.94131094 0 4294967295
0.0034580794 0.064341582 0 4294967295
0.495408 0.33389428 0 4294967295
0.54926103 0.91335511 0 4294967295
0.063392811 0.56781685 0 4294967295
0.93087488 0.26757848 0 4294967295
0.40508866 0.077937052 0 4294967295
0.11727063 0.16135281 0 4294967295
0.8540383 0.60138637 0.082790665 4294967295
0.67978835 0.15528898 0 4294967295
0.10860759 0.45616248 0 4294967295
0.98835063 0.51452488 0 4294967295
0.78303051 0.73213834 0 4294967295
0.041276045 0.79847437 0 4294967295
0.67201692 0.88879931 0 4294967295
0.75757056 0.38453922 0 4294967295
0.83011025 0.76102865 0 4294967295
0.44888079 0.32551822 0 4294967295
0.16472399 1.0679429 0.069801025 4294967295
0.23887332 0.15831578 0 4294967295
0.56595874 0.1697482 0 4294967295
0.42589426 0.9710474 0 4294967295
0.24768525 0.54316485 0 4294967295
0.13240021 0.018932901 0 4294967295
0.061760552 0.81218857 0 4294967295
0.17422189 0.17036815 0 4294967295
0.26835108 0.1625725 0 4294967295
0.68489301 0.051381573 0 4294967295
0.94370162 0.77515984 0.04899079 4294967295
0.84985596 0.56672776 0 4294967295
0.61496836 0.60742652 0 4294967295
0.951267 0.44507858 0 4294967295
0.3684552 0.4001478 0 4294967295
0.7705968 0.46337816 0 4294967295
0.39828965 0.0094701331 0 4294967295
0.62169397 0.96424842 0 4294967295
0.17921834 0.047588196 0 4294967295
0.93529582 0.42690361 0 4294967295
0.6620965 0.13903943 0.071343407 4294967295
0.44583648 0.65251362 0 4294967295
0.8798846 0.62005836 0 4294967295
0.82288176 0.14823568 0 4294967295
0.78263086 0.50777477 0 4294967295
0.19961725 0.6773417 0 4294967295
0.23394382 0.049473193 0 4294967295
0.24406949 0.84891218 0 4294967295
0.65689975 0.19533648 0 4294967295
0.29399076 0.025354931 0 4294967295
0.66692519 0.13602851 0.07144095 4294967295
0.48873311 0.99377394 0 4294967295
0.074057706 0.11042705 0 4294967295
0.9580223 0.25327605 0 4294967295
0.15801525 0.89331812 0 4294967295
0.68017966 0.74876833 0 4294967295
0.96101409 0.12601613 0 4294967295
0.40128195 0.84089875 0 4294967295
0.7460745 0.22416371 0 4294967295
0.98913443 0.52870536 0 4294967295
0.79584515 0.25265834 0.063906677 4294967295
0.2060471 0.9658823 0 4294967295
0.23822485 0.4501166 0 4294967295
0.81479448 0.89512455 0 4294967295
0.64545304 0.10878523 0 4294967295
0.92047948 0.24093734 0 4294967295
0.17337281 0.40921262 0 4294967295
0.23471124 0.2474305 0 4294967295
0.51963967 0.19273356 0 4294967295
0.50070655 0.67765492 0 4294967295
0.14269646 0.23753098 0.056644797 4294967295
0.42642322 0.047065783 0 4294967295
0.30690232 0.82770514 0 4294967295
0.88796449 0.052976813 0 4294967295
0.051868878 0.87709892 0 4294967295
0.58168221 0.78380734 0 4294967295
0.065850563 0.78772926 0 4294967295
0.74968964 0.30407542 0 4294967295
0.23784588 0.56448412 0 4294967295
0.19919997 0.88329893 0 4294967295
0.74869066 0.19510075 0.075421281 4294967295
0.12423627 0.8466422 0 4294967295
0.5288921 0.35894752 0 4294967295
0.094072677 0.048531741 0 4294967295
0.5516811 0.59477925 0 4294967295
0.72618663 0.63773274 0 4294967295
0.7756654 0.15260987 0 4294967295
0.68479854 0.082567729 0 4294967295
0.98031503 0.57276303 0 4294967295
0.13554454 0.032183923 0 4294967295
0.4889597 0.75632447 0.039097741 4294967295
0.81599128 0.5157125 0 4294967295
0.50495601 0.56568092 0 4294967295
0.81978792 0.7428019 0 4294967295
0.13016507 0.018987888 0 4294967295
0.62610084 0.80343443 0 4294967295
0.13866736 0.75033712 0 4294967295
0.65007657 0.66755944 0 4294967295
0.10928464 0.74414927 0 4294967295
0.71609122 0.66096574 0 4294967295
0.41117975 0.51452905 0.072251216 4294967295
0.29869846 0.11459392 0 4294967295
0.59488773 0.98349696 0 4294967295
0.19716166 0.57520276 0 4294967295
0.55625999 0.33270621 0 4294967295
0.60738665 0.0061219512 0 4294967295
0.049932931 0.42337796 0 4294967295
0.52183443 0.55488896 0 4294967295
0.98905891 0.34162235 0 4294967295
0.29769084 0.11922396 0 4294967295
0.36652249 0.92970395 0.0059122527 4294967295
0.92265838 0.49927762 0 4294967295
0.67412883 0.57273501 0 4294967295
0.16683707 0.78341347 0 4294967295
0.31688425 0.88292825 0 4294967295
0.44437915 0.65581274 0 4294967295
0.3252061 0.74307764 0 4294967295
0.77040672 0.92009377 0 4294967295
0.7265746 0.96756834 0 4294967295
0.49529654 0.28283462 0 4294967295
0.31981853 0.12222719 0.019543976 4294967295
0.28895655 0.35020748 0 4294967295
0.52606118 0.81079102 0 4294967295
0.90509641 0.51512009 0 4294967295
0.15241338 0.20278728 0 4294967295
0.63434404 0.51302361 0 4294967295
0.12657897 0.55700243 0 4294967295
0.012301262 0.80070776 0 4294967295
0.12973741 0.17913833 0 4294967295
0.58412123 0.44662166 0 4294967295
0.080166526 0.046600323 0.018099941 4294967295
0.10243443 0.38727269 0 4294967295
0.77157801 0.87284112 0 4294967295
0.30736646 0.49815261 0 4294967295
0.84040946 0.80266303 0 4294967295
0.7809872 0.14068402 0 4294967295
0.90534621 0.069943771 0 4294967295
0.49089149 0.43140742 0 4294967295
0.8807348 0.39598793 0 4294967295
0.94652748 0.033148173 0 4294967295
0.62359047 0.60568678 0.024815265 4294967295
0.54617178 0.72535419 0 4294967295
0.13787393 0.55847305 0 4294967295
0.52606195 0.26761132 0 4294967295
0.73761141 0.11018317 0 4294967295
0.71423298 0.79967797 0 4294967295
0.13868356 0.81666744 0 4294967295
0.18695067 0.91026157 0 4294967295
0.68950856 0.49431714 0 4294967295
0.40841416 0.52991802 0 4294967295
0.31618431 0.20860551 0.019204158 4294967295
0.67060202 0.2023264 0 4294967295
0.25934514 0.16149352 0 4294967295
0.63373381 0.14007993 0 4294967295
0.55748147 0.58026129 0 4294967295
0.1732281 0.15625666 0 4294967295
0.16113281 0.71939993 0 4294967295
0.88161081 0.29900676 0 4294967295
0.27787298 0.40767279 0 4294967295
0.56661808 0.015484393 0 4294967295
0.57576388 0.33875901 0.057907939 4294967295
0.81516236 0.6565395 0 4294967295
0.097518496 0.002113048 0 4294967295
0.56680107 0.78702706 0 4294967295
0.49643019 0.9752152 0 4294967295
0.31694505 0.79341036 0 4294967295
0.16461658 0.9875471 0 4294967295
0.99573672 0.42396173 0 4294967295
0.14904059 0.62947053 0 4294967295
0.56404167 0.70652205 0 4294967295
0.26524574 0.79278362 0.055513877 4294967295
0.86277872 0.37086469 0 4294967295
0.45666966 0.74438953 0 4294967295
0.66987145 0.73454267 0 4294967295
0.15206234 0.23648952 0 4294967295
0.75002706 0.6699183 0 4294967295
0.5173406 0.56518942 0 4294967295
0.3264578 0.6148591 0 4294967295
0.56730247 0.89325887 0 4294967295
0.40188611 0.063732654 0 4294967295
0.9464767 0.79683381 0.078002617 4294967295
0.85714298 0.033090658 0 4294967295
0.70637822 0.85287976 0 4294967295
0.45705238 0.8554188 0 4294967295
0.48235029 0.021094022 0 4294967295
0.56194091 0.69208217 0 4294967295
0.75836378 0.4247196 0 4294967295
0.062946834 0.21503343 0 4294967295
0.16910917 0.73281825 0 4294967295
0.94957608 0.32117149 0 4294967295
1.0151459 0.74544126 0.045838121 4294967295
0.99108982 0.48664838 0 4294967295
0.26479253 0.31754762 0 4294967295
0.10150745 0.83209503 0 4294967295
0.21080647 0.50339359 0 4294967295
0.89582765 0.079280548 0 4294967295
0.22222473 0.7529707 0 4294967295
0.11237121 0.92860293 0 4294967295
0.6058504 0.56942356 0 4294967295
0.78402179 0.088200703 0 4294967295
0.59937018 0.3548153 0.0088526253 4294967295
0.78028286 0.34888136 0 4294967295
0.77068228 0.84322971 0 4294967295
0.56391478 0.93979144 0 4294967295
0.57604796 0.51349086 0 4294967295
0.26096293 0.54535574 0 4294967295
0.213094 0.25205272 0 4294967295
0.032004088 0.47788653 0 4294967295
0.56960034 0.13351154 0 4294967295
0.30998155 0.78040683 0 4294967295
0.68477625 0.25368041 0.047871187 4294967295
0.85968739 0.85912985 0 4294967295
0.95877987 0.97205859 0 4294967295
0.78773278 0.56463027 0 4294967295
0.54148215 0.57175457 0 4294967295
0.65283102 0.13199976 0 4294967295
0.91771722 0.43311384 0 4294967295
0.48088112 0.68839949 0 4294967295
0.27634352 0.04479593 0 4294967295
0.62819093 0.85239148 0 4294967295
0.5927344 0.92360145 0.034447618 4294967295
0.39774719 0.77138078 0 4294967295
0.14120659 0.42975128 0 4294967295
0.24926732 0.71080697 0 4294967295
0.56326282 0.55924886 0 4294967295
0.49121377 0.20016792 0 4294967295
0.7650581 0.35090113 0 4294967295
0.059297748 0.72383797 0 4294967295
0.32295969 0.84703052 0 4294967295
0.28846827 0.86444187 0 4294967295
0.48900831 1.0115225 0.070223235 4294967295
0.9964416 0.33650228 0 4294967295
0.3744131 0.47732273 0 4294967295
0.024901785 0.6507566 0 4294967295
0.52211869 0.65309268 0 4294967295
0.50314808 0.080405474 0 4294967295
0.54224658 0.9008953 0 4294967295
0.85178626 0.68345314 0 4294967295
0.33064657 0.1010536 0 4294967295
0.39426011 0.89390939 0 4294967295
0.66056514 0.88573653 0.00026269408 4294967295
0.094077319 0.42536056 0 4294967295
0.23637499 0.15337506 0 4294967295
0.14919853 0.5593347 0 4294967295
0.00040559098 0.43766677 0 4294967295
0.42377651 0.41919068 0 4294967295
0.37896603 0.42021814 0 4294967295
0.75569296 0.75337917 0 4294967295
0.89754087 0.78059477 0 4294967295
0.40413576 0.41965953 0 4294967295
0.48317671 0.9567731 0.049489275 4294967295
0.50006503 0.97593403 0 4294967295
0.80817914 0.35185128 0 4294967295
0.65938717 0.13882573 0 4294967295
0.45290488 0.05364728 0 4294967295
0.032735117 0.11320734 0 4294967295
0.93912113 0.12681243 0 4294967295
0.5385679 0.17549613 0 4294967295
0.28018749 0.68776643 0 4294967295
0.7348308 0.2805931 0 4294967295
0.14349097 0.17666508 0.018057764 4294967295
0.69978374 0.50439924 0 4294967295
0.57882547 0.45547673 0 4294967295
0.25777841 0.47636631 0 4294967295
0.23607148 0.66191417 0 4294967295
0.89602584 0.66975892 0 4294967295
0.56919801 0.39609084 0 4294967295
0.64569294 0.37737718 0 4294967295
0.74794215 0.30508012 0 4294967295
0.51620293 0.200847 0 4294967295
0.39666101 0.58687162 0.037933618 4294967295
0.31405434 0.29784855 0 4294967295
0.67575043 0.85262221 0 4294967295
0.47334468 0.95593798 0 4294967295
0.54038864 0.20817548 0 4294967295
0.23653105 0.66582185 0 4294967295
0.36678278 0.93631482 0 4294967295
0.17022111 0.94560826 0 4294967295
0.39179152 0.4279995 0 4294967295
0.42197457 0.62786299 0 4294967295
0.11451014 0.34259689 0.024596486 4294967295
0.29762194 0.65911168 0 4294967295
0.71409124 0.94331491 0 4294967295
0.036488853 0.46203336 0 4294967295
0.24839503 0.55269176 0 4294967295
0.66288036 0.60712242 0 4294967295
0.10162976 0.97693473 0 4294967295
0.904971 0.77738023 0 4294967295
0.82955694 0.37831566 0 4294967295
0.73331815 0.36994559 0 4294967295
0.60076916 0.98412722 0.01427797 4294967295
0.035767451 0.95327395 0 4294967295
0.90616405 0.20598856 0 4294967295
0.89888215 0.29795554 0 4294967295
0.63398808 0.32085672 0 4294967295
0.92581856 0.72390169 0 4294967295
0.63885713 0.22344051 0 4294967295
0.3830134 0.35294837 0 4294967295
0.16675541 0.41950226 0 4294967295
0.81498176 0.41515043 0 4294967295
0.97542512 0.48109323 0.0032311021 4294967295
0.022272879 0.073823765 0 4294967295
0.45479685 0.92724389 0 4294967295
0.85120398 0.28435379 0 4294967295
0.30555952 0.58452213 0 4294967295
0.65429938 0.89205068 0 4294967295
0.55437136 0.69006681 0 4294967295
0.84532458 0.46053538 0 4294967295
0.8960554 0.74420679 0 4294967295
0.75849092 0.53004342 0 4294967295
0.12184603 0.74109203 0.056782514 4294967295
0.25394514 0.70392066 0 4294967295
0.90775001 0.63695854 0 4294967295
0.05686903 0.074505441 0 4294967295
0.056460787 0.87185079 0 4294967295
0.48965588 0.028654784 0 4294967295
0.34971291 0.51192874 0 4294967295
0.10247855 0.80450976 0 4294967295
0.43917263 0.95368254 0 4294967295
0.088863552 0.74473214 0 4294967295
0.58829719 0.79325545 0.050092526 4294967295
0.63678282 0.092576049 0 4294967295
0.43322977 0.48210743 0 4294967295
0.55311143 0.32928514 0 4294967295
0.22631422 0.31160238 0 4294967295
0.85932857 0.29137772 0 4294967295
0.9959119 0.11327373 0 4294967295
0.99529839 0.90366191 0 4294967295
0.75023228 0.052167408 0 4294967295
0.97816736 0.80669308 0 4294967295
0.93927824 0.48308325 0.015260013 4294967295
0.83534783 0.27373111 0 4294967295
0.979752 0.9378264 0 4294967295
0.078240886 0.41892463 0 4294967295
0.89150894 0.16710444 0 4294967295
0.16365677 0.42971361 0 4294967295
0.91026735 0.8004396 0 4294967295
0.52228963 0.34349713 0 4294967295
0.28254703 0.075401083 0 4294967295
0.67278224 0.50886124 0 4294967295
0.43667254 0.58177996 0.049669091 4294967295
0.80023897 0.38291535 0 4294967295
0.64538461 0.79553735 0 4294967295
0.28657725 0.39561686 0 4294967295
0.84770477 0.26474461 0 4294967295
0.20230992 0.77172297 0 4294967295
0.73256785 0.037657771 0 4294967295
0.045454077 0.71231985 0 4294967295
0.97548419 0.12369496 0 4294967295
0.13124444 0.86699307 0 4294967295
0.31642795 0.32052976 0.025628531 4294967295
0.29670671 0.20106676 0 4294967295
0.095340818 0.81899637 0 4294967295
0.54456389 0.37788785 0 4294967295
0.89439744 0.21734616 0 4294967295
0.88674909 0.28140089 0 4294967295
0.749457 0.68698806 0 4294967295
0.66431624 0.39484161 0 4294967295
0.48252544 0.95089346 0 4294967295
0.79045844 0.33023018 0 4294967295
0.23140316 1.0085335 0.015765077 4294967295
0.10195314 0.94820595 0 4294967295
0.03042616 0.14740722 0 4294967295
0.66052574 0.0059103272 0 4294967295
0.27110219 0.79177016 0 4294967295
0.87290341 0.56190157 0 4294967295
0.086671397 0.16961011 0 4294967295
0.76296836 0.18201222 0 4294967295
0.98860645 0.30753222 0 4294967295
0.55990005 0.88300389 0 4294967295
0.57730097 0.49907175 0.052422576 4294967295
0.16440479 0.27433538 0 4294967295
0.13363725 0.82872105 0 4294967295
0.669177 0.61616266 0 4294967295
0.77961451 0.45963547 0 4294967295
0.94639283 0.99525261 0 4294967295
0.45240384 0.048346005 0 4294967295
0.94345856 0.48282999 0 4294967295
0.19575323 0.6039843 0 4294967295
0.48874032 0.46685541 0 4294967295
0.41601646 0.38190573 0.020262005 4294967295
0.028756982 0.48242587 0 4294967295
0.53125387 0.79172534 0 4294967295
0.66443807 0.51986033 0 4294967295
0.099257544 0.22433814 0 4294967295
0.40286425 0.62413591 0 4294967295
0.67098731 0.56726903 0 4294967295
0.8984713 0.80462456 0 4294967295
0.39599007 0.56764829 0 4294967295
0.42078725 0.1756046 0 4294967295
0.034298703 0.37419504 0.0070149386 4294967295
0.17085721 0.4796876 0 4294967295
0.41552612 0.11431574 0 4294967295
0.96251762 0.61127931 0 4294967295
0.71830004 0.45125794 0 4294967295
0.078134738 0.11405448 0 4294967295
0.81290168 0.10689172 0 4294967295
0.59648031 0.34415555 0 4294967295
0.89861703 0.26091841 0 4294967295
0.86401588 0.99787456 0 4294967295
0.55927396 0.34089753 0.074017398 4294967295
0.62201053 0.15624389 0 4294967295
0.83414918 0.52048182 0 4294967295
0.96086848 0.23013923 0 4294967295
0.088130146 0.38165569 0 4294967295
0.40574384 0.11541391 0 4294967295
0.7488358 0.57660103 0 4294967295
0.59510154 0.16436191 0 4294967295
0.69091678 0.55761909 0 4294967295
0.77564126 0.40921679 0 4294967295
0.016230743 0.86112964 0.0073536891 4294967295
0.52327126 0.82177871 0 4294967295
0.96066773 0.11975161 0 4294967295
0.16593428 0.85928476 0 4294967295
0.38067001 0.029950149 0 4294967295
0.85715932 0.86592656 0 4294967295
0.29683027 0.47916985 0 4294967295
0.022170469 0.13097942 0 4294967295
0.99965167 0.9830389 0 4294967295
0.36111864 0.087781839 0 4294967295
0.39696351 0.79913139 0.032268882 4294967295
0.20319575 0.11353043 0 4294967295
0.34346354 0.79829729 0 4294967295
0.27789235 0.034380313 0 4294967295
0.35591638 0.053533588 0 4294967295
0.44359711 0.36479345 0 4294967295
0.90730959 0.9668684 0 4294967295
0.18657218 0.86797726 0 4294967295
0.086620003 0.35250646 0 4294967295
0.72726202 0.46729001 0 4294967295
0.42964065 0.63160545 0.047184058 4294967295
0.33321661 0.6792869 0 4294967295
0.063591242 0.35538709 0 4294967295
0.81026632 0.063242927 0 4294967295
0.33842599 0.17138496 0 4294967295
0.15102477 0.70312065 0 4294967295
0.93824744 0.35422051 0 4294967295
0.81665105 0.28171098 0 4294967295
0.1525178 0.09454339 0 4294967295
0.3160913 0.50843418 0 4294967295
0.1707837 0.78239512 0.022706719 4294967295
0.87322766 0.055386558 0 4294967295
0.72655678 0.059799813 0 4294967295
0.92336386 0.81317681 0 4294967295
0.41230625 0.65062588 0 4294967295
0.28046682 0.79476285 0 4294967295
0.23504728 0.6136834 0 4294967295
0.47404975 0.29863852 0 4294967295
0.96907049 0.28431603 0 4294967295
0.36188143 0.30749649 0 4294967295
0.47809789 0.53530306 0.022396887 4294967295
0.010617122 0.39394844 0 4294967295
0.86712676 0.82726818 0 4294967295
0.67565942 0.019644529 0 4294967295
0.92181158 0.99175072 0 4294967295
0.52807873 0.069888547 0 4294967295
0.75143909 0.40130636 0 4294967295
0.12527511 0.47799587 0 4294967295
0.46110615 0.048638951 0 4294967295
0.29117268 0.87341243 0 4294967295
0.7150076 0.58738226 0.015742783 4294967295
0.66817528 0.93431211 0 4294967295
0.18532291 0.14222503 0 4294967295
0.23295064 0.1543934 0 4294967295
0.42654106 0.59483206 0 4294967295
0.46188989 0.88224202 0 4294967295
0.10773831 0.47250703 0 4294967295
0.27619046 0.97486502 0 4294967295
0.29977518 0.95184988 0 4294967295
0.99450958 0.22158676 0 4294967295
0.94387299 0.52286071 0.00027241721 4294967295
0.2914753 0.69503969 0 4294967295
0.92389464 0.4167504 0 4294967295
0.17303555 0.3850008 0 4294967295
0.46538937 0.46420822 0 4294967295
0.25841323 0.1646542 0 4294967295
0.035847697 0.92658848 0 4294967295
0.098966323 0.2211706 0 4294967295
0.068813525 0.33191696 0 4294967295
0.37556401 0.49535459 0 4294967295
0.9523561 0.86306095 0.025607025 4294967295
0.37759662 0.034487363 0 4294967295
0.30996093 0.65378708 0 4294967295
0.0093524102 0.60973614 0 4294967295
0.60563695 0.003861987 0 4294967295
0.83132285 0.54923755 0 4294967295
0.52645028 0.12279817 0 4294967295
0.24427721 0.45034492 0 4294967295
0.53954858 0.41731277 0 4294967295
0.83534569 0.004937937 0 4294967295
0.91917312 0.13141106 0.037652127 4294967295
0.16959214 0.91736865 0 4294967295
0.020347431 0.26855847 0 4294967295
0.13853927 0.089160964 0 4294967295
0.60047543 0.51410329 0 4294967295
0.58451557 0.52722448 0 4294967295
0.35155717 0.96211219 0 4294967295
0.56171185 0.6615181 0 4294967295
0.61589926 0.57106423 0 4294967295
0.27125421 0.22153625 0 4294967295
0.64503473 0.17268555 0.070108458 4294967295
0.77077383 0.10137652 0 4294967295
0.22537526 0.015051022 0 4294967295
0.55172145 0.76492387 0 4294967295
0.43236378 0.38706714 0 4294967295
0.76986176 0.31388476 0 4294967295
0.48082608 0.9394539 0 4294967295
0.23125343 0.5011735 0 4294967295
0.20801237 0.3697927 0 4294967295
0.59033448 0.80848783 0 4294967295
0.93825144 0.22920544 0.054355439 4294967295
0.33571228 0.23545316 0 4294967295
0.13696218 0.8974241 0 4294967295
0.89697129 0.75286144 0 4294967295
0.46848837 0.16822547 0 4294967295
0.97439772 0.043414615 0 4294967295
0.27080256 0.74517155 0 4294967295
0.14479113 0.49617782 0 4294967295
0.76022255 0.69651258 0 4294967295
0.26110166 0.19258633 0 4294967295
0.14445163 0.09183538 0.060871929 4294967295
0.5064711 0.5644058 0 4294967295
0.97041738 0.73772448 0 4294967295
0.06557928 0.17842975 0 4294967295
0.10751722 0.65591377 0 4294967295
0.98691756 0.99141318 0 4294967295
0.83076376 0.32262984 0 4294967295
0.22686636 0.96772593 0 4294967295
0.22005396 0.12383761 0 4294967295
0.72058737 0.68854231 0 4294967295
0.3555885 0.75851047 0.063525394 4294967295
0.73195696 0.56286567 0 4294967295
0.44015664 0.87674809 0 4294967295
0.059043474 0.20037916 0 4294967295
0.57326066 0.32014513 0 4294967295
0.3929655 0.65684032 0 4294967295
0.35110858 0.89943659 0 4294967295
0.22124612 0.32152596 0 4294967295
0.63716108 0.28682539 0 4294967295
0.49995571 0.74467832 0 4294967295
1.0127428 0.55687684 0.070003577 4294967295
0.73609149 0.77350289 0 4294967295
0.80950308 0.96295786 0 4294967295
0.74122882 0.029557053 0 4294967295
0.086795479 0.46181622 0 4294967295
0.71809936 0.37885857 0 4294967295
0.15680133 0.45005634 0 4294967295
0.94172424 0.59695792 0 4294967295
0.3268044 0.00076769339 0 4294967295
0.79733711 0.90006506 0 4294967295
0.3365835 0.20597327 0.015670653 4294967295
0.55690539 0.67202145 0 4294967295
0.089739196 0.77815151 0 4294967295
0.99354738 0.72690028 0 4294967295
0.064976923 0.49350309 0 4294967295
0.4715786 0.0077160653 0 4294967295
0.98037636 0.20767011 0 4294967295
0.78121895 0.78987944 0 4294967295
0.17062797 0.52244776 0 4294967295
0.81943649 0.25742346 0 4294967295
1.0267469 0.58001876 0.042482853 4294967295
0.63628203 0.14106533 0 4294967295
0.98759222 0.57800627 0 4294967295
0.73802328 0.31439662 0 4294967295
0.57877392 0.5353604 0 4294967295
0.21446168 0.89968675 0 4294967295
0.72566301 0.77136707 0 4294967295
0.5717082 0.81540221 0 4294967295
0.54951859 0.56525558 0 4294967295
0.54230249 0.61449552 0 4294967295
0.13439175 0.089514174 0.075633071 4294967295
0.62221158 0.03913505 0 4294967295
0.22155121 0.40343055 0 4294967295
0.82901448 0.39217919 0 4294967295
0.92587835 0.64845103 0 4294967295
0.64960265 0.91014236 0 4294967295
0.18598691 0.28588468 0 4294967295
0.05120768 0.17357914 0 4294967295
0.86389089 0.78923094 0 4294967295
0.48797578 0.44266486 0 4294967295
0.39156887 0.76941496 0.066977508 4294967295
0.34235162 0.050254393 0 4294967295
0.47380453 0.91405982 0 4294967295
0.86565661 0.023323126 0 4294967295
0.47931543 0.40795913 0 4294967295
0.63781863 0.53807414 0 4294967295
0.42184022 0.26003021 0 4294967295
0.57720917 0.64339143 0 4294967295
0.66346079 0.40622368 0 4294967295
0.035570633 0.58933908 0 4294967295
0.10103025 0.73152882 0.04635556 4294967295
0.49948144 0.24066161 0 4294967295
0.97105795 0.5506891 0 4294967295
0.41424075 0.83494884 0 4294967295
0.3399201 0.90221649 0 4294967295
0.2776137 0.66451144 0 4294967295
0.60465395 0.61996531 0 4294967295
0.71476585 0.078458488 0 4294967295
0.53402519 0.58042246 0 4294967295
0.10178161 0.013340603 0 4294967295
1.0122375 0.76345623 0.023856003 4294967295
0.55141473 0.41022182 0 4294967295
0.99963051 0.12862389 0 4294967295
0.053613264 0.66309124 0 4294967295
0.53484756 0.089183897 0 4294967295
0.25243035 0.58952224 0 4294967295
0.7743572 0.75191182 0 4294967295
0.83018386 0.74541509 0 4294967295
0.30260092 0.24442458 0 4294967295
0.58036399 0.64252102 0 4294967295
0.18453935 0.89587593 0.037898257 4294967295
0.30703247 0.75129503 0 4294967295
0.47794303 0.021798331 0 4294967295
0.82975352 0.011968208 0 4294967295
0.60222077 0.93153512 0 4294967295
0.025308812 0.5906024 0 4294967295
0.67113543 0.57672352 0 4294967295
0.00082420744 0.67076588 0 4294967295
0.70534742 0.054437473 0 4294967295
0.33385715 0.24019498 0 4294967295
0.21229312 0.65495926 0.068671755 4294967295
0.82971722 0.91797853 0 4294967295
0.33819932 0.65990108 0 4294967295
0.66339368 0.64080024 0 4294967295
0.90432566 0.24375762 0 4294967295
0.28332126 0.050966747 0 4294967295
0.10173531 0.59035373 0 4294967295
0.80226177 0.57967836 0 4294967295
0.61215204 0.63201535 0 4294967295
0.59164655 0.21437286 0 4294967295
0.58697402 0.64037889 0.023423579 4294967295
0.80497521 0.2346859 0 4294967295
0.19367889 0.80579942 0 4294967295
0.90545177 0.89902633 0 4294967295
0.86023694 0.23930895 0 4294967295
0.13922128 0.0038582869 0 4294967295
0.82559645 0.96893853 0 4294967295
0.92183685 0.16379575 0 4294967295
0.62883955 0.58523047 0 4294967295
0.80459601 0.53316522 0 4294967295
0.88817048 0.14709966 0.059182417 4294967295
0.58413196 0.93072343 0 4294967295
0.67827094 0.38639379 0 4294967295
0.51040173 0.29042301 0 4294967295
0.018409107 0.10204831 0 4294967295
0.50479585 0.58195961 0 4294967295
0.71900368 0.30977112 0 4294967295
0.8166455 0.91268253 0 4294967295
0.11557056 0.72209728 0 4294967295
0.81170887 0.97580749 0 4294967295
0.97226316 0.9617871 0.01085695 4294967295
0.97966576 0.78700268 0 4294967295
0.91986865 0.90150261 0 4294967295
0.95079845 0.54870826 0 4294967295
0.48673308 0.75539446 0 4294967295
0.081873477 0.31572115 0 4294967295
0.84331167 0.66600543 0 4294967295
0.24644458 0.52158266 0 4294967295
0.05239924 0.75684631 0 4294967295
0.8120057 0.070808344 0 4294967295
0.89792395 0.35583085 0.039029315 4294967295
0.65276796 0.57789832 0 4294967295
0.62657267 0.46941343 0 4294967295
0.49058089 0.74214321 0 4294967295
0.19151072 0.30228975 0 4294967295
0.7179507 0.15291695 0 4294967295
0.2532199 0.69761646 0 4294967295
0.93991965 0.17308857 0 4294967295
0.59911907 0.8907181 0 4294967295
0.72179681 0.085852124 0 4294967295
0.70200002 0.85955775 0.055887487 4294967295
0.4015733 0.48942423 0 4294967295
0.46967575 0.64801788 0 4294967295
0.01100688 0.522075 0 4294967295
0.40486419 0.82301253 0 4294967295
0.59288335 0.26375884 0 4294967295
0.13981409 0.24565126 0 4294967295
0.84165716 0.76638675 0 4294967295
0.7150647 0.33223802 0 4294967295
0.50852996 0.90657538 0 4294967295
0.65374434 0.24569722 0.019216565 4294967295
0.059492361 0.88774765 0 4294967295
0.92409712 0.999412 0 4294967295
0.060836233 0.52321619 0 4294967295
0.8901301 0.78263301 0 4294967295
0.60906827 0.53624266 0 4294967295
0.58630329 0.010641579 0 4294967295
0.025666879 0.055979054 0 4294967295
0.65865946 0.036673758 0 4294967295
0.57805401 0.06352365 0 4294967295
0.86944127 0.1806923 0.0097549427 4294967295
0.32728249 0.99950039 0 4294967295
0.41658863 0.16893965 0 4294967295
0.76588714 0.13165332 0 4294967295
0.50117767 0.2744171 0 4294967295
0.038228728 0.13570546 0 4294967295
0.50089777 0.097721092 0 4294967295
0.023453135 0.42499489 0 4294967295
0.0971331 0.084289365 0 4294967295
0.94821101 0.9872632 0 4294967295
0.89864898 0.58900595 0.031726606 4294967295
0.52350587 0.4532257 0 4294967295
0.56792092 0.54917276 0 4294967295
0.50920475 0.22658035 0 4294967295
0.58584648 0.087258808 0 4294967295
0.290104 0.4455328 0 4294967295
0.25819618 0.61738652 0 4294967295
0.44503319 0.67478478 0 4294967295
0.78632617 0.21092035 0 4294967295
0.80643815 0.28750387 0 4294967295
0.56273127 0.92206067 0.077393845 4294967295
0.42320931 0.9862352 0 4294967295
0.94238794 0.44666246 0 4294967295
0.41123009 0.039521042 0 4294967295
0.5309518 0.3594411 0 4294967295
0.026784247 0.39787424 0 4294967295
0.91672045 0.55029011 0 4294967295
0.85109997 0.48464134 0 4294967295
0.099462837 0.36030471 0 4294967295
0.71122169 0.68530935 0 4294967295
0.49524412 0.049006313 0.047680587 4294967295
0.13084213 0.7057597 0 4294967295
0.61871225 0.57587534 0 4294967295
0.38054448 0.40503842 0 4294967295
0.78679568 0.18698262 0 4294967295
0.69254225 0.27213311 0 4294967295
0.031649463 0.11575159 0 4294967295
0.25836831 0.97403741 0 4294967295
0.56241405 0.6695984 0 4294967295
0.013558449 0.093365856 0 4294967295
0.092178665 0.10348185 0.063139156 4294967295
0.49124008 0.94575995 0 4294967295
0.5906328 0.34234002 0 4294967295
0.43040133 0.69009566 0 4294967295
0.70264471 0.14162302 0 4294967295
0.37540495 0.15020825 0 4294967295
0.14294875 0.5062471 0 4294967295
0.85596794 0.76166099 0 4294967295
0.08212243 0.23651244 0 4294967295
0.16669941 0.86891812 0 4294967295
0.45045269 0.8861993 0.026957624 4294967295
0.14105122 0.45514449 0 4294967295
0.97499323 0.39941955 0 4294967295
0.4291819 0.53740728 0 4294967295
0.069017939 0.44274035 0 4294967295
0.63077313 0.098057449 0 4294967295
0.48308307 0.12201323 0 4294967295
0.043817405 0.073715858 0 4294967295
0.46435323 0.47421873 0 4294967295
0.76381147 0.16699797 0 4294967295
0.66978836 0.19316304 0.053946584 4294967295
0.31720623 0.75879049 0 4294967295
0.64546353 0.17317416 0 4294967295
0.52045149 0.72758597 0 4294967295
0.4096866 0.6871509 0 4294967295
0.59650409 0.83318162 0 4294967295
0.54639256 0.73755533 0 4294967295
0.28832614 0.52138579 0 4294967295
0.13697486 0.71750808 0 4294967295
0.058793101 0.20599279 0 4294967295
0.18075404 0.71007186 0.020505609 4294967295
0.30405024 0.64333147 0 4294967295
0.81157947 0.34786764 0 4294967295
0.71704733 0.27593273 0 4294967295
0.82208633 0.48085883 0 4294967295
0.4429307 0.43792811 0 4294967295
0.62007529 0.7601369 0 4294967295
0.19671859 0.26553884 0 4294967295
0.9333111 0.71717006 0 4294967295
0.99312484 0.34299767 0 4294967295
0.41066957 0.59597754 0.0063486183 4294967295
0.17617932 0.95071352 0 4294967295
0.32718423 0.46450546 0 4294967295
0.47209933 0.46415907 0 4294967295
0.18201351 0.53089243 0 4294967295
0.67015189 0.34226194 0 4294967295
0.22045869 0.9742021 0 4294967295
0.98559344 0.032038167 0 4294967295
0.32206973 0.70264077 0 4294967295
0.30797088 0.14415611 0 4294967295
0.24136749 0.80876946 0.057867866 4294967295
0.58208424 0.80357492 0 4294967295
0.51103854 0.77880281 0 4294967295
0.069113776 0.44434962 0 4294967295
0.49597287 0.062238611 0 4294967295
0.78734732 0.90029383 0 4294967295
0.65186751 0.96352661 0 4294967295
0.8510074 0.97905177 0 4294967295
0.42803207 0.32310671 0 4294967295
0.44321084 0.61004555 0 4294967295
0.87774545 0.137109 0.023746299 4294967295
0.95230752 0.074457847 0 4294967295
0.087564804 0.93790096 0 4294967295
0.10649601 0.40963456 0 4294967295
0.64054173 0.41446692 0 4294967295
0.55379069 0.82404137 0 4294967295
0.16536851 0.13587487 0 4294967295
0.62761629 0.67640704 0 4294967295
0.91467768 0.69673002 0 4294967295
0.12075663 0.41065055 0 4294967295
0.76652795 0.91566324 0.0075593144 4294967295
0.31094441 0.41083616 0 4294967295
0.87163055 0.1619518 0 4294967295
0.38988793 0.29966259 0 4294967295
0.48505852 0.83309877 0 4294967295
0.90970814 0.33905768 0 4294967295
0.94646144 0.86201566 0 4294967295
0.41351551 0.034026265 0 4294967295
0.79991663 0.52001154 0 4294967295
0.44366083 0.44045836 0 4294967295
1.0105374 1.0735104 0.076058954 4294967295
0.26449969 0.099846944 0 4294967295
0.13332635 0.89211595 0 4294967295
0.776254 0.048004024 0 4294967295
0.58884597 0.89701062 0 4294967295
0.45865458 0.34781462 0 4294967295
0.80511451 0.76959902 0 4294967295
0.75865078 0.67674506 0 4294967295
0.9315508 0.14853872 0 4294967295
0.97640765 0.41660932 0 4294967295
1.002733 0.90721124 0.021095457 4294967295
0.75566697 0.92809892 0 4294967295
0.74813145 0.16918249 0 4294967295
0.96212518 0.54804808 0 4294967295
0.68919402 0.40578604 0 4294967295
0.98850644 0.62367249 0 4294967295
0.40323749 0.25300616 0 4294967295
0.72351938 0.53656387 0 4294967295
0.1451221 0.49977338 0 4294967295
0.58456784 0.73396808 0 4294967295
0.45673791 0.10317638 0.059953921 4294967295
0.081782699 0.20189852 0 4294967295
0.81282145 0.84043348 0 4294967295
0.87864357 0.74437225 0 4294967295
0.98897219 0.85505122 0 4294967295
0.16098157 0.97060966 0 4294967295
0.74116701 0.91664857 0 4294967295
0.89870864 0.48929849 0 4294967295
0.085831054 0.86083382 0 4294967295
0.037346598 0.77502507 0 4294967295
0.27929384 0.038527045 0.012673987 4294967295
0.39869756 0.66985738 0 4294967295
0.2788592 0.12221696 0 4294967295
0.20642123 0.42398131 0 4294967295
0.62199032 0.7909891 0 4294967295
0.15794939 0.018774329 0 4294967295
0.83421153 0.23973209 0 4294967295
0.22067285 0.64703304 0 4294967295
0.080165587 0.099316426 0 4294967295
0.39140525 0.069137797 0 4294967295
1.002437 0.60045624 0.048069406 4294967295
0.039747495 0.69553465 0 4294967295
0.46903539 0.93845612 0 4294967295
0.18483314 0.55486643 0 4294967295
0.79929 0.22217974 0 4294967295
0.32989153 0.065909848 0 4294967295
0.24803281 0.72858906 0 4294967295
0.73576725 0.52689201 0 4294967295
0.85080606 0.94218844 0 4294967295
0.95087332 0.47279638 0 4294967295
0.74984938 0.12549452 0.01667182 4294967295
0.49157071 0.56738907 0 4294967295
0.34855482 0.71224356 0 4294967295
0.21442209 0.42872038 0 4294967295
0.81155998 0.60582733 0 4294967295
0.4978582 0.76592761 0 4294967295
0.1582142 0.5376057 0 4294967295
0.46146229 0.6272496 0 4294967295
0.47606182 0.64629543 0 4294967295
0.18211603 0.27535179 0 4294967295
0.90246516 0.54599756 0.033990044 4294967295
0.34126166 0.11650796 0 4294967295
0.24059664 0.077028871 0 4294967295
0.64339995 0.09140268 0 4294967295
0.019217312 0.59427327 0 4294967295
0.56419903 0.75239486 0 4294967295
0.70309603 0.055769771 0 4294967295
0.31978393 0.051650818 0 4294967295
0.76801336 0.53420603 0 4294967295
0.48037121 0.57957333 0 4294967295
0.17049231 1.0086883 0.030458927 4294967295
0.34550095 0.29824758 0 4294967295
0.51583511 0.80696321 0 4294967295
0.92549717 0.99189693 0 4294967295
0.45325863 0.10761318 0 4294967295
0.26724872 0.3217338 0 4294967295
0.61962074 0.60851038 0 4294967295
0.43824178 0.86021733 0 4294967295
0.68553925 0.081641741 0 4294967295
0.95162004 0.70475656 0 4294967295
0.70354205 0.54344606 0.027626963 4294967295
0.45715141 0.37901106 0 4294967295
0.57158887 0.77693534 0 4294967295
0.43066186 0.3396022 0 4294967295
0.31114137 0.91103309 0 4294967295
0.91917551 0.45117474 0 4294967295
0.8892625 0.26467645 0 4294967295
0.74942231 0.4050976 0 4294967295
0.071639672 0.67491943 0 4294967295
0.39699453 0.52489829 0 4294967295
0.83238423 0.71409482 0.049851578 4294967295
0.84663212 0.40215334 0 4294967295
0.27275363 0.28487387 0 4294967295
0.26237071 0.95829284 0 4294967295
0.36651564 0.21399076 0 4294967295
