ply
format ascii 1.0
comment PCL generated
element vertex 1183
property float x
property float y
property float z
property uchar red
property uchar green
property uchar blue
property uchar alpha
element camera 0
property float view_px
property float view_py
property float view_pz
property float x_axisx
property float x_axisy
property float x_axisz
property float y_axisx
property float y_axisy
property float y_axisz
property float z_axisx
property float z_axisy
property float z_axisz
property float focal
property float scalex
property float scaley
property float centerx
property float centery
property int viewportx
property int viewporty
property float k1
property float k2
end_header
1 0.91215104 0.27631065 255 255 255 255
1 0.79623818 0.081052832 255 255 255 255
1 0.20704752 0.96947032 255 255 255 255
1 0.88733369 0.068390191 255 255 255 255
1 0.87607479 0.24162653 255 255 255 255
1 0.36118233 0.80769187 255 255 255 255
1 0.13380045 0.31581685 255 255 255 255
1 0.93036771 0.21548191 255 255 255 255
1 0.61961603 0.71179187 255 255 255 255
1 0.78873551 0.36330682 255 255 255 255
1 0.22912818 0.52800471 255 255 255 255
1 0.31857219 0.42153394 255 255 255 255
1 0.70406079 0.76456267 255 255 255 255
1 0.57713568 0.49148947 255 255 255 255
1 0.69825101 0.43507385 255 255 255 255
1 0.094316885 0.61040205 255 255 255 255
1 0.71138453 0.89055502 255 255 255 255
1 0.69145489 0.91843206 255 255 255 255
1 0.86002541 0.57878858 255 255 255 255
1 0.98682225 0.7361002 255 255 255 255
1 0.82041514 0.34800458 255 255 255 255
1 0.54379207 0.95421559 255 255 255 255
1 0.6638214 0.47415975 255 255 255 255
1 0.16969748 0.28343743 255 255 255 255
1 0.18595162 0.95843297 255 255 255 255
1 0.64674425 0.4150798 255 255 255 255
1 0.48643771 0.96531641 255 255 255 255
1 0.83661371 0.19049853 255 255 255 255
1 0.72987914 0.41374946 255 255 255 255
1 0.681988 0.42813015 255 255 255 255
1 0.84882331 0.7763049 255 255 255 255
1 0.03853219 0.56020778 255 255 255 255
1 0.66685992 0.72998708 255 255 255 255
1 0.47863984 0.52688533 255 255 255 255
1 0.30877566 0.46546209 255 255 255 255
1 0.2629855 0.12919079 255 255 255 255
1 0.81346667 0.80677754 255 255 255 255
1 0.083406344 0.47728807 255 255 255 255
1 0.28093731 0.25310382 255 255 255 255
1 0.7607255 0.46688893 255 255 255 255
1 0.21153682 0.40746975 255 255 255 255
1 0.88196874 0.69797456 255 255 255 255
1 0.37278619 0.71858251 255 255 255 255
1 0.88847303 0.10266534 255 255 255 255
1 0.13233192 0.57046103 255 255 255 255
1 0.53079545 0.98115522 255 255 255 255
1 0.34676594 0.56932765 255 255 255 255
1 0.54136306 0.013625847 255 255 255 255
1 0.29931474 0.020002885 255 255 255 255
1 0.54051119 0.6080904 255 255 255 255
1 0.48546496 0.80349666 255 255 255 255
1 0.7372812 0.29893163 255 255 255 255
1 0.61027426 0.82068753 255 255 255 255
1 0.77621967 0.89121157 255 255 255 255
1 0.073791362 0.53694522 255 255 255 255
1 0.35810047 0.28532818 255 255 255 255
1 0.94441497 0.24006921 255 255 255 255
1 0.98330271 0.31720117 255 255 255 255
1 0.95865172 0.87177581 255 255 255 255
1 0.4198665 0.090983622 255 255 255 255
1 0.44223684 0.95066202 255 255 255 255
1 0.072138838 0.78900278 255 255 255 255
1 0.51998967 0.61350185 255 255 255 255
1 0.80262858 0.81930441 255 255 255 255
1 0.63350475 0.34313977 255 255 255 255
1 0.42739481 0.11896973 255 255 255 255
1 0.14663646 0.16467601 255 255 255 255
1 0.41790134 0.75691068 255 255 255 255
1 0.98536354 0.19412105 255 255 255 255
1 0.64812225 0.059154917 255 255 255 255
1 0.73106623 0.0062227193 255 255 255 255
1 0.34448311 0.6754812 255 255 255 255
1 0.24629194 0.32778582 255 255 255 255
1 0.9926824 0.20494363 255 255 255 255
1 0.19956161 0.4125489 255 255 255 255
1 0.29592726 0.64179844 255 255 255 255
1 0.36321089 0.36806607 255 255 255 255
1 0.43080118 0.88320059 255 255 255 255
1 0.98156798 0.2334298 255 255 255 255
1 0.70250499 0.61507273 255 255 255 255
1 0.57656956 0.12989978 255 255 255 255
1 0.73404247 0.72320604 255 255 255 255
1 0.29457581 0.1519438 255 255 255 255
1 0.48011672 0.27993935 255 255 255 255
1 0.34606484 0.12823898 255 255 255 255
1 0.33909428 0.0771311 255 255 255 255
1 0.13446169 0.68357736 255 255 255 255
1 0.75261229 0.38075364 255 255 255 255
1 0.011363208 0.74529469 255 255 255 255
1 0.58569723 0.21092482 255 255 255 255
1 0.15784362 0.88162452 255 255 255 255
1 0.85272324 0.52105451 255 255 255 255
1 0.24969058 0.28352445 255 255 255 255
1 0.40425506 0.23125854 255 255 255 255
1 0.51695424 0.10676004 255 255 255 255
1 0.84633124 0.09352383 255 255 255 255
1 0.23665982 0.5803737 255 255 255 255
1 0.81672984 0.53123564 255 255 255 255
1 0.73231751 0.29684657 255 255 255 255
1 0.81117499 0.078382365 255 255 255 255
1 0.42508554 0.15026927 255 255 255 255
1 0.15551347 0.55954725 255 255 255 255
1 0.83384663 0.90812582 255 255 255 255
1 0.94030088 0.84520984 255 255 255 255
1 0.65342051 0.52599812 255 255 255 255
1 0.056134678 0.8112641 255 255 255 255
1 0.40762261 0.90885794 255 255 255 255
1 0.33231863 0.65731317 255 255 255 255
1 0.1923824 0.7365737 255 255 255 255
1 0.88857174 0.70933664 255 255 255 255
1 0.84333372 0.73490298 255 255 255 255
1 0.8028605 0.079993576 255 255 255 255
1 0.31527671 0.61959034 255 255 255 255
1 0.61122924 0.047594234 255 255 255 255
1 0.91643691 0.4224042 255 255 255 255
1 0.12597661 0.34152249 255 255 255 255
1 0.5726735 0.28149009 255 255 255 255
1 0.9010697 0.40652013 255 255 255 255
1 0.18961586 0.84137058 255 255 255 255
1 0.25173 0.84303635 255 255 255 255
1 0.3673687 0.30786467 255 255 255 255
1 0.65430051 0.77499133 255 255 255 255
1 0.21672261 0.98661911 255 255 255 255
1 0.4323045 0.409105 255 255 255 255
1 0.72319281 0.32087624 255 255 255 255
1 0.11844167 0.56652653 255 255 255 255
1 0.055779241 0.92130214 255 255 255 255
1 0.64652014 0.37105596 255 255 255 255
1 0.54089248 0.25774935 255 255 255 255
1 0.41865021 0.45732942 255 255 255 255
1 0.68015355 0.54462677 255 255 255 255
1 0.79885191 0.25282705 255 255 255 255
1 0.82611686 0.69992161 255 255 255 255
1 0.65934718 0.015732739 255 255 255 255
1 0.54129225 0.91107714 255 255 255 255
1 0.85876912 0.90866095 255 255 255 255
1 0.21894181 0.51306957 255 255 255 255
1 0.68365222 0.43566442 255 255 255 255
1 0.49968871 0.11595675 255 255 255 255
1 0.84476942 0.22288153 255 255 255 255
1 0.43683299 0.96321112 255 255 255 255
1 0.78940809 0.49261224 255 255 255 255
1 0.88451326 0.43592823 255 255 255 255
1 0.8636682 0.42540577 255 255 255 255
1 0.69367754 0.28231838 255 255 255 255
1 0.88273519 0.37383112 255 255 255 255
1 0.82694519 0.6815871 255 255 255 255
1 0.62665814 0.65306205 255 255 255 255
1 0.38150877 0.28600532 255 255 255 255
1 0.66879481 0.92280096 255 255 255 255
1 0.19708247 0.52756393 255 255 255 255
1 0.83146191 0.4160243 255 255 255 255
1 0.0406335 0.51511413 255 255 255 255
1 0.85168874 0.54032218 255 255 255 255
1 0.63107091 0.69645816 255 255 255 255
1 0.76320374 0.067903884 255 255 255 255
1 0.65966928 0.55261183 255 255 255 255
1 0.56051612 0.54418254 255 255 255 255
1 0.98854005 0.42418429 255 255 255 255
1 0.96958828 0.6822176 255 255 255 255
1 0.70650268 0.85232347 255 255 255 255
1 0.056048729 0.53344786 255 255 255 255
1 0.53391063 0.68270689 255 255 255 255
1 0.18650995 0.9154194 255 255 255 255
1 0.96871221 0.85530478 255 255 255 255
1 0.83822036 0.1657947 255 255 255 255
1 0.38286868 0.66968226 255 255 255 255
1 0.581819 0.42350218 255 255 255 255
1 0.18479641 0.43350768 255 255 255 255
1 0.96382439 0.8158673 255 255 255 255
1 0.12996584 0.72702807 255 255 255 255
1 0.88377118 0.78963512 255 255 255 255
1 0.2796399 0.4442873 255 255 255 255
1 0.3338176 0.26817992 255 255 255 255
1 0.86847162 0.30340591 255 255 255 255
1 0.95039755 0.5749743 255 255 255 255
1 0.1557294 0.0064462549 255 255 255 255
1 0.10842219 0.68964005 255 255 255 255
1 0.68915313 0.29493216 255 255 255 255
1 0.60505939 0.65786535 255 255 255 255
1 0.1502369 0.44327974 255 255 255 255
1 0.82366008 0.53310555 255 255 255 255
1 0.112962 0.40547904 255 255 255 255
1 0.95660776 0.2977584 255 255 255 255
1 0.83898675 0.92043209 255 255 255 255
1 0.11362571 0.9689526 255 255 255 255
1 0.64746022 0.99739689 255 255 255 255
1 0.75858766 0.92710012 255 255 255 255
1 0.44168422 0.092405289 255 255 255 255
1 0.19528005 0.31015581 255 255 255 255
1 0.3958112 0.14567757 255 255 255 255
1 0.88513011 0.55154061 255 255 255 255
1 0.15212382 0.99355233 255 255 255 255
1 0.24118061 0.841277 255 255 255 255
1 0.28848445 0.84623998 255 255 255 255
1 0.49914235 0.43872136 255 255 255 255
1 0.28951973 0.32280239 255 255 255 255
1 0.97182691 0.40248173 255 255 255 255
1 0.72828144 0.92843467 255 255 255 255
1 0.70024014 0.56726819 255 255 255 255
1 0.84886676 0.81386584 255 255 255 255
1 0.53622073 0.49632701 255 255 255 255
1 0.81126273 0.29480845 255 255 255 255
1 0.4234271 0.25294694 255 255 255 255
1 0.38721374 0.61870718 255 255 255 255
1 0.56310278 0.78302491 255 255 255 255
1 0.76438475 0.44823289 255 255 255 255
1 0.33456552 0.91650856 255 255 255 255
1 0.44178519 0.57574612 255 255 255 255
1 0.7577855 0.73026967 255 255 255 255
1 0.42198613 0.25692788 255 255 255 255
1 0.168991 0.71150589 255 255 255 255
1 0.57973027 0.14081793 255 255 255 255
1 0.11398762 0.30801171 255 255 255 255
1 0.069252603 0.81422776 255 255 255 255
1 0.8752799 0.91811937 255 255 255 255
1 0.6280936 0.41150063 255 255 255 255
1 0.41444638 0.43935639 255 255 255 255
1 0.70630908 0.83787352 255 255 255 255
1 0.6923033 0.093522795 255 255 255 255
1 0.45658067 0.25540611 255 255 255 255
1 0.87654769 0.22096539 255 255 255 255
1 0.70363897 0.21111324 255 255 255 255
1 0.13747394 0.14542417 255 255 255 255
1 0.78685939 0.89525944 255 255 255 255
1 0.8756938 0.20884553 255 255 255 255
1 0.15218733 0.044684816 255 255 255 255
1 0.92035139 0.73191762 255 255 255 255
1 0.18550275 0.034339022 255 255 255 255
1 0.039929301 0.25475535 255 255 255 255
1 0.84856677 0.91520917 255 255 255 255
1 0.17287475 0.4766604 255 255 255 255
1 0.32670981 0.58732116 255 255 255 255
1 0.91601676 0.033018887 255 255 255 255
1 0.42519465 0.60832012 255 255 255 255
1 0.12654169 0.88177532 255 255 255 255
1 0.8637262 0.0030894028 255 255 255 255
1 0.10274069 0.56736517 255 255 255 255
1 0.21420264 0.24021463 255 255 255 255
1 0.71278936 0.0010620267 255 255 255 255
1 0.1354741 0.58848315 255 255 255 255
1 0.20990755 0.28766143 255 255 255 255
1 0.63316798 0.13025895 255 255 255 255
1 0.019579036 0.81867075 255 255 255 255
1 0.16459797 0.059508339 255 255 255 255
1 0.073426098 0.013164764 255 255 255 255
1 0.9747175 0.24630085 255 255 255 255
1 0.48982516 0.30142733 255 255 255 255
1 0.83362198 0.40584195 255 255 255 255
1 0.33444622 0.25881663 255 255 255 255
1 0.014162059 0.4609879 255 255 255 255
1 0.14059193 0.87788826 255 255 255 255
1 0.46407729 0.24333262 255 255 255 255
1 0.44525346 0.67827994 255 255 255 255
1 0.48354724 0.1580428 255 255 255 255
1 0.67934197 0.61902136 255 255 255 255
1 0.746526 0.8892495 255 255 255 255
1 0.90668279 0.37969398 255 255 255 255
1 0.019508485 0.92626184 255 255 255 255
1 0.19836472 0.18410647 255 255 255 255
1 0.98577017 0.2717908 255 255 255 255
1 0.19727123 0.96048766 255 255 255 255
1 0.51809168 0.68709642 255 255 255 255
1 0.26191503 0.35171363 255 255 255 255
1 0.092938349 0.59636122 255 255 255 255
1 0.61053026 0.1071004 255 255 255 255
1 0.057349145 0.75112218 255 255 255 255
1 0.98498869 0.52142644 255 255 255 255
1 0.9944548 0.43024212 255 255 255 255
1 0.19970641 0.47800204 255 255 255 255
1 0.58828491 0.87904841 255 255 255 255
1 0.097023405 0.33481091 255 255 255 255
1 0.76829791 0.0037061959 255 255 255 255
1 0.7145049 0.78780639 255 255 255 255
1 0.929968 0.91286963 255 255 255 255
1 0.97191286 0.91573817 255 255 255 255
1 0.18466042 0.16918409 255 255 255 255
1 0.87622589 0.70275205 255 255 255 255
1 0.85628051 0.13814089 255 255 255 255
1 0.054465696 0.94921881 255 255 255 255
1 0.73450214 0.66499597 255 255 255 255
1 0.056319244 0.79185128 255 255 255 255
1 0.41611814 0.041307915 255 255 255 255
1 0.31327772 0.41057295 255 255 255 255
1 0.47155005 0.5129841 255 255 255 255
1 0.88857502 0.059834968 255 255 255 255
1 0.3920325 0.98559839 255 255 255 255
1 0.3946459 0.16033043 255 255 255 255
1 0.9893046 0.10915077 255 255 255 255
1 0.94813687 0.9192726 255 255 255 255
1 0.022020381 0.92004973 255 255 255 255
1 0.83501083 0.20668079 255 255 255 255
1 0.089233801 0.71123666 255 255 255 255
1 0.90943289 0.94551426 255 255 255 255
1 0.84937757 0.96389854 255 255 255 255
1 0.89473313 0.58387965 255 255 255 255
1 0.62889451 0.95105237 255 255 255 255
1 0.37573093 0.045012653 255 255 255 255
1 0.99236029 0.68900865 255 255 255 255
1 0.4555856 0.46391031 255 255 255 255
1 0.20199277 0.34416059 255 255 255 255
1 0.5237453 0.59402525 255 255 255 255
1 0.329759 0.91839117 255 255 255 255
1 0.75435573 0.3190636 255 255 255 255
1 0.02754195 0.70249254 255 255 255 255
1 0.23833624 0.049562331 255 255 255 255
1 0.62254226 0.073347032 255 255 255 255
1 0.25624314 0.71177608 255 255 255 255
1 0.78458369 0.16567598 255 255 255 255
1 0.65729034 0.63396126 255 255 255 255
1 0.12957455 0.55202347 255 255 255 255
1 0.21784092 0.75846905 255 255 255 255
1 0.50307584 0.59357184 255 255 255 255
1 0.8034817 0.49543613 255 255 255 255
1 0.28258049 0.25906733 255 255 255 255
1 0.95934641 0.48457327 255 255 255 255
1 0.60322791 0.48309174 255 255 255 255
1 0.078598551 0.93298692 255 255 255 255
1 0.40148291 0.83295429 255 255 255 255
1 0.25205052 0.42902488 255 255 255 255
1 0.53544682 0.49038675 255 255 255 255
1 0.47858718 0.15798908 255 255 255 255
1 0.56373376 0.73483032 255 255 255 255
1 0.86976516 0.3483175 255 255 255 255
1 0.90050632 0.5270555 255 255 255 255
1 0.98227876 0.030080853 255 255 255 255
1 0.079078957 0.20011966 255 255 255 255
1 0.7885499 0.58215481 255 255 255 255
1 0.79369152 0.59203166 255 255 255 255
1 0.077590913 0.076272011 255 255 255 255
1 0.85109895 0.03693736 255 255 255 255
1 0.56084526 0.45432687 255 255 255 255
1 0.52002907 0.63944381 255 255 255 255
1 0.38731378 0.92151201 255 255 255 255
1 0.4723981 0.6393643 255 255 255 255
1 0.35053685 0.0078449268 255 255 255 255
1 0.12975104 0.82912403 255 255 255 255
1 0.16583401 0.69348484 255 255 255 255
1 0.56395435 0.03559915 255 255 255 255
1 0.041802324 0.46446067 255 255 255 255
1 0.56265461 0.024081064 255 255 255 255
1 0.49454153 0.64173359 255 255 255 255
1 0.22420073 0.28309146 255 255 255 255
1 0.22388838 0.01789224 255 255 255 255
1 0.87512308 0.30147931 255 255 255 255
1 0.094164252 0.72622204 255 255 255 255
1 0.33841667 0.65500951 255 255 255 255
1 0.18054888 0.85844576 255 255 255 255
1 0.29445335 0.56786263 255 255 255 255
1 0.77995777 0.76685148 255 255 255 255
1 0.20722695 0.13049461 255 255 255 255
1 0.77469641 0.33697799 255 255 255 255
1 0.95961869 0.94053042 255 255 255 255
1 0.030462833 0.52357304 255 255 255 255
1 0.97612953 0.072265156 255 255 255 255
1 0.98803371 0.53878421 255 255 255 255
1 0.096346222 0.48257527 255 255 255 255
1 0.18051778 0.32054695 255 255 255 255
1 0.76566672 0.40440616 255 255 255 255
1 0.3384392 0.64078981 255 255 255 255
1 0.70588547 0.43260345 255 255 255 255
1 0.36701182 0.044302106 255 255 255 255
1 0.087612964 0.54756069 255 255 255 255
1 0.90274787 0.38206634 255 255 255 255
1 0.11542334 0.68270558 255 255 255 255
1 0.14891779 0.32265028 255 255 255 255
1 0.81320024 0.9236142 255 255 255 255
1 0.65962827 0.77281886 255 255 255 255
1 0.86414456 0.69009113 255 255 255 255
1 0.29639193 0.84027416 255 255 255 255
1 0.76235628 0.28442568 255 255 255 255
1 0.3790583 0.85870248 255 255 255 255
1 0.76700091 0.55957609 255 255 255 255
1 0.17924945 0.53266764 255 255 255 255
1 0.96398222 0.51768863 255 255 255 255
1 0.17345741 0.66986769 255 255 255 255
1 0.95029205 0.54046923 255 255 255 255
1 0.7141698 0.037905041 255 255 255 255
1 0.088029921 0.61691767 255 255 255 255
1 0.41997138 0.20345327 255 255 255 255
1 0.29962325 0.56888914 255 255 255 255
1 0.52610356 0.11282349 255 255 255 255
1 0.49250335 0.18573186 255 255 255 255
1 0.88564235 0.35664791 255 255 255 255
1 0.87582302 0.18203431 255 255 255 255
1 0.19692205 0.6381793 255 255 255 255
1 0.46645999 0.57598037 255 255 255 255
1 0.49688178 0.2334609 255 255 255 255
1 0.13555644 0.67613125 255 255 255 255
1 0.76612854 0.099538676 255 255 255 255
1 0.19381988 0.93958592 255 255 255 255
1 0.76940638 0.14411196 255 255 255 255
1 0.48005518 0.48357615 255 255 255 255
1 0.182017 0.56808507 255 255 255 255
1 0.10049381 0.60198838 255 255 255 255
1 0.77153838 0.40011707 255 255 255 255
1 0.17087753 0.29764193 255 255 255 255
1 0.51294059 0.66338086 255 255 255 255
1 0.48337379 0.39858294 255 255 255 255
1 0.020028779 0.35919678 255 255 255 255
1 0.58061725 0.21695082 255 255 255 255
1 0.99737608 0.047077227 255 255 255 255
1 0.7929312 0.49425784 255 255 255 255
1 0.28053814 0.9284876 255 255 255 255
1 0.17038909 0.046666659 255 255 255 255
1 0.02802629 0.36420897 255 255 255 255
1 0.98625261 0.79743266 255 255 255 255
1 0.50832093 0.46630779 255 255 255 255
1 0.28100881 0.6903379 255 255 255 255
1 0.03439289 0.38150263 255 255 255 255
1 0.29232627 0.80593127 255 255 255 255
1 0.78161967 0.46320379 255 255 255 255
1 0.10357318 0.29456025 255 255 255 255
1 0.12658466 0.58694696 255 255 255 255
1 0.69314319 0.14661345 255 255 255 255
1 0.94614375 0.27376044 255 255 255 255
1 0.36356428 0.94351983 255 255 255 255
1 0.32083768 0.15649545 255 255 255 255
1 0.43777767 0.60137582 255 255 255 255
1 0.084983058 0.60816675 255 255 255 255
1 0.64804244 0.11300935 255 255 255 255
1 0.97237569 0.63429505 255 255 255 255
1 0.91044199 0.48069662 255 255 255 255
1 0.10060285 0.1914508 255 255 255 255
1 0.17103454 0.13499574 255 255 255 255
1 0.5729534 0.46336082 255 255 255 255
1 0.94092697 0.35457313 255 255 255 255
1 0.92656463 0.044500176 255 255 255 255
1 0.64913338 0.053149287 255 255 255 255
1 0.63144714 0.34227654 255 255 255 255
1 0.19976273 0.57759088 255 255 255 255
1 0.61603701 0.56332701 255 255 255 255
1 0.52111071 0.93687463 255 255 255 255
1 0.71982247 0.95888841 255 255 255 255
1 0.53825045 0.80480552 255 255 255 255
1 0.56705517 0.18629289 255 255 255 255
1 0.91781485 0.53943086 255 255 255 255
1 0.82058793 0.82825685 255 255 255 255
1 0.020127498 0.9211908 255 255 255 255
1 0.019707674 0.19116203 255 255 255 255
1 0.056186534 0.59266108 255 255 255 255
1 0.65452284 0.99711353 255 255 255 255
1 0.94723421 0.58108747 255 255 255 255
1 0.041613702 0.5963676 255 255 255 255
1 0.63423675 0.67306083 255 255 255 255
1 0.93864411 0.83399951 255 255 255 255
1 0.25065175 0.55468112 255 255 255 255
1 0.3973265 0.77176249 255 255 255 255
1 0.49155575 0.11714895 255 255 255 255
1 0.7306509 0.029806195 255 255 255 255
1 0.92195445 0.29770604 255 255 255 255
1 0.21609908 0.8397693 255 255 255 255
1 0.83713692 0.036687024 255 255 255 255
1 0.66802621 0.8572644 255 255 255 255
1 0.95787781 0.68773389 255 255 255 255
1 0.048426449 0.014064357 255 255 255 255
1 0.28039497 0.70294929 255 255 255 255
1 0.011177883 0.22762918 255 255 255 255
1 0.28403679 0.052791584 255 255 255 255
1 0.82399678 0.91827357 255 255 255 255
1 0.72585243 0.76264089 255 255 255 255
1 0.75227308 0.97650421 255 255 255 255
1 0.31732202 0.14959957 255 255 255 255
1 0.7482667 0.80887777 255 255 255 255
1 0.26674852 0.47891757 255 255 255 255
1 0.83868396 0.18870299 255 255 255 255
1 0.77662361 0.054783061 255 255 255 255
1 0.028472308 0.61376053 255 255 255 255
1 0.091470085 0.69649851 255 255 255 255
1 0.47102496 0.049347911 255 255 255 255
1 0.38423237 0.51945138 255 255 255 255
1 0.063412264 0.66462731 255 255 255 255
1 0.22240071 0.074590154 255 255 255 255
1 0.8922565 0.50643748 255 255 255 255
1 0.12738174 0.71625328 255 255 255 255
1 0.42471105 0.85323417 255 255 255 255
1 0.4788942 0.17698412 255 255 255 255
1 0.82973838 0.79621625 255 255 255 255
1 0.32658368 0.57800508 255 255 255 255
1 0.60509402 0.59333217 255 255 255 255
1 0.056922648 0.44377801 255 255 255 255
1 0.78203517 0.83354628 255 255 255 255
1 0.49856108 0.81050748 255 255 255 255
1 0.44730681 0.59003115 255 255 255 255
1 0.50700599 0.9183318 255 255 255 255
1 0.63937908 0.89123833 255 255 255 255
1 0.43778318 0.70279133 255 255 255 255
1 0.55586571 0.66018391 255 255 255 255
1 0.77738148 0.4481222 255 255 255 255
1 0.1666214 0.90476322 255 255 255 255
1 0.16437551 0.59133244 255 255 255 255
1 0.75799739 0.64326972 255 255 255 255
1 0.76831657 0.58773577 255 255 255 255
1 0.43948597 0.09490025 255 255 255 255
1 0.16574083 0.04457999 255 255 255 255
1 0.68823242 0.22266348 255 255 255 255
1 0.48835799 0.47026762 255 255 255 255
1 0.056209758 0.98691905 255 255 255 255
1 0.2807751 0.50351655 255 255 255 255
1 0.57695025 0.78778106 255 255 255 255
1 0.42184836 0.21632931 255 255 255 255
1 0.67901945 0.85963154 255 255 255 255
1 0.91912067 0.23488511 255 255 255 255
1 0.51981544 0.69650215 255 255 255 255
1 0.6830073 0.68643683 255 255 255 255
1 0.60126537 0.84738284 255 255 255 255
1 0.2777693 0.35926276 255 255 255 255
1 0.49065256 0.046085861 255 255 255 255
1 0.94699854 0.93013853 255 255 255 255
1 0.14098611 0.11273937 255 255 255 255
1 0.97471851 0.82921857 255 255 255 255
1 0.33540285 0.4630765 255 255 255 255
1 0.29948619 0.39161262 255 255 255 255
1 0.44999558 0.58026129 255 255 255 255
1 0.8951292 0.026945801 255 255 255 255
1 0.36804238 0.31697753 255 255 255 255
1 0.24327511 0.047061812 255 255 255 255
1 0.17660907 0.16239575 255 255 255 255
1 0.28194693 0.69642448 255 255 255 255
1 0.85889786 0.96495426 255 255 255 255
1 0.38286132 0.46016324 255 255 255 255
1 0.8123371 0.66063058 255 255 255 255
1 0.819426 0.30298963 255 255 255 255
1 0.70671648 0.76642454 255 255 255 255
1 0.23312813 0.84770256 255 255 255 255
1 0.87916386 0.20784663 255 255 255 255
1 0.67692113 0.21456674 255 255 255 255
1 0.67092311 0.97640735 255 255 255 255
1 0.60617936 0.12091868 255 255 255 255
1 0.55666864 0.50130856 255 255 255 255
1 0.14786449 0.92471099 255 255 255 255
1 0.81828606 0.3911396 255 255 255 255
1 0.97177279 0.99489516 255 255 255 255
1 0.55353534 0.25371975 255 255 255 255
1 0.69131964 0.41243321 255 255 255 255
1 0.21867399 0.074180968 255 255 255 255
1 0.87259644 0.031011058 255 255 255 255
1 0.7348116 0.69202244 255 255 255 255
1 0.33400068 0.44152805 255 255 255 255
1 0.45844698 0.56712878 255 255 255 255
1 0.28923064 0.33761087 255 255 255 255
1 0.77497542 0.96615177 255 255 255 255
1 0.55217761 0.44589853 255 255 255 255
1 0.94255912 0.15835695 255 255 255 255
1 0.56681722 0.49922773 255 255 255 255
1 0.65966547 0.71468174 255 255 255 255
1 0.42393872 0.47795156 255 255 255 255
1 0.10582131 0.39571154 255 255 255 255
1 0.47284669 0.65935665 255 255 255 255
1 0.64943129 0.16416635 255 255 255 255
1 0.071789868 0.86810523 255 255 255 255
1 0.23834731 0.9443863 255 255 255 255
1 0.89911634 0.9731589 255 255 255 255
1 0.63640875 0.233117 255 255 255 255
1 0.41468695 0.094855741 255 255 255 255
1 0.80024582 0.70391756 255 255 255 255
1 0.4324666 0.57522124 255 255 255 255
1 0.67006934 0.98464423 255 255 255 255
1 0.021119777 0.61262846 255 255 255 255
1 0.14300117 0.587937 255 255 255 255
1 0.11185618 0.80266666 255 255 255 255
1 0.30261874 0.53579491 255 255 255 255
1 0.28061822 0.40844005 255 255 255 255
1 0.93150645 0.75346494 255 255 255 255
1 0.067796692 0.58093768 255 255 255 255
1 0.91763127 0.13958657 255 255 255 255
1 0.44904298 0.15597856 255 255 255 255
1 0.083972886 0.34815928 255 255 255 255
1 0.12913746 0.72038168 255 255 255 255
1 0.5812763 0.54382437 255 255 255 255
1 0.8152374 0.38152209 255 255 255 255
1 0.24774195 0.24770401 255 255 255 255
1 0.9567433 0.91781127 255 255 255 255
1 0.23234822 0.97786307 255 255 255 255
1 0.53043973 0.3753494 255 255 255 255
1 0.56580007 0.6422959 255 255 255 255
1 0.17801604 0.86841881 255 255 255 255
1 0.17809083 0.45863426 255 255 255 255
1 0.27685887 0.10959726 255 255 255 255
1 0.21209916 0.34465557 255 255 255 255
1 0.69053495 0.12973042 255 255 255 255
1 0.48424211 0.13957794 255 255 255 255
1 0.28570899 0.56821501 255 255 255 255
1 0.48773721 0.41484642 255 255 255 255
1 0.28859666 0.069013499 255 255 255 255
1 0.95867079 0.10383407 255 255 255 255
1 0.45053557 0.20641278 255 255 255 255
1 0.35153806 0.4072789 255 255 255 255
1 0.12422407 0.58388633 255 255 255 255
1 0.38514197 0.6546638 255 255 255 255
1 0.95923567 0.95094204 255 255 255 255
1 0.29695973 0.13725172 255 255 255 255
1 0.81936091 0.47505057 255 255 255 255
1 0.59588599 0.096219763 255 255 255 255
1 0.58464783 0.80798513 255 255 255 255
1 0.44087532 0.27518278 255 255 255 255
1 0.93771553 0.92511743 255 255 255 255
1 0.41476074 0.22342454 255 255 255 255
1 0.49333248 0.90249795 255 255 255 255
1 0.63827097 0.78192914 255 255 255 255
1 0.97151142 0.59694177 255 255 255 255
1 0.88576317 0.42204702 255 255 255 255
1 0.80335456 0.23730128 255 255 255 255
1 0.82932591 0.92757863 255 255 255 255
1 0.82118756 0.21446788 255 255 255 255
1 0.58224249 0.78042328 255 255 255 255
1 0.16540995 0.87920219 255 255 255 255
1 0.91767496 0.98477083 255 255 255 255
1 0.35425276 0.51356095 255 255 255 255
1 0.080990605 0.93890059 255 255 255 255
1 0.32154611 0.5218659 255 255 255 255
1 0.21408339 0.25926167 255 255 255 255
1 0.4469834 0.62884414 255 255 255 255
1 0.48268619 0.94031584 255 255 255 255
1 0.53134209 0.12095717 255 255 255 255
1 0.72224498 0.50285351 255 255 255 255
1 0.71789896 0.60800815 255 255 255 255
1 0.92490053 0.52125353 255 255 255 255
1 0.84530944 0.75422645 255 255 255 255
1 0.44883218 0.66649699 255 255 255 255
1 0.96869433 0.031074662 255 255 255 255
1 0.44692028 0.13410427 255 255 255 255
1 0.91027689 0.36459523 255 255 255 255
1 0.11887512 0.26452965 255 255 255 255
1 0.87815619 0.19986571 255 255 255 255
1 0.20343024 0.19970231 255 255 255 255
1 0.72173166 0.41751361 255 255 255 255
1 0.45896396 0.16871503 255 255 255 255
1 0.046357736 0.94165015 255 255 255 255
1 0.10903088 0.57769978 255 255 255 255
1 0.062607333 0.83127588 255 255 255 255
1 0.080553308 0.78050631 255 255 255 255
1 0.43928403 0.0054538376 255 255 255 255
1 0.30175987 0.28459346 255 255 255 255
1 0.75968027 0.75059205 255 255 255 255
1 0.95109046 0.7283746 255 255 255 255
1 0.7816667 0.39801076 255 255 255 255
1 0.86247885 0.69194359 255 255 255 255
1 0.76260597 0.981354 255 255 255 255
1 0.95647323 0.64076221 255 255 255 255
1 0.1812197 0.15990345 255 255 255 255
1 0.84046447 0.90295136 255 255 255 255
1 0.57741708 0.29942846 255 255 255 255
1 0.07166639 0.62377483 255 255 255 255
1 0.24107862 0.18069728 255 255 255 255
1 0.20147461 0.30368596 255 255 255 255
1 0.011973129 0.2820279 255 255 255 255
1 0.084192261 0.45125717 255 255 255 255
1 0.28748176 0.38595212 255 255 255 255
1 0.73585063 0.04716203 255 255 255 255
1 0.13654418 0.68694109 255 255 255 255
1 0.7755366 0.91821092 255 255 255 255
1 0.084951848 0.63801551 255 255 255 255
1 0.61015445 0.84755784 255 255 255 255
1 0.61936945 0.56662768 255 255 255 255
1 0.48832005 0.80058914 255 255 255 255
1 0.72653115 0.32878453 255 255 255 255
1 0.7035405 0.30394822 255 255 255 255
1 0.62821299 0.77520692 255 255 255 255
1 0.92772305 0.8692916 255 255 255 255
1 0.95590419 0.12919764 255 255 255 255
1 0.17297757 0.96787733 255 255 255 255
1 0.41122556 0.25716984 255 255 255 255
1 0.41913447 0.69870728 255 255 255 255
1 0.64312196 0.15498509 255 255 255 255
1 0.74586934 0.77966613 255 255 255 255
1 0.84192622 0.52140594 255 255 255 255
1 0.69787705 0.92687804 255 255 255 255
1 0.15942146 0.3080315 255 255 255 255
1 0.77443588 0.77879095 255 255 255 255
1 0.87465924 0.26275593 255 255 255 255
1 0.5793801 0.60119039 255 255 255 255
1 0.59154046 0.2829206 255 255 255 255
1 0.90513861 0.21975346 255 255 255 255
1 0.058127519 0.8328616 255 255 255 255
1 0.089045078 0.014031701 255 255 255 255
1 0.96205926 0.26202264 255 255 255 255
1 0.98190904 0.37328482 255 255 255 255
1 0.51919246 0.40104347 255 255 255 255
1 0.071992137 0.16231444 255 255 255 255
1 0.55602854 0.8178615 255 255 255 255
1 0.9419806 0.39795476 255 255 255 255
1 0.33926743 0.63985759 255 255 255 255
1 0.3248328 0.49868891 255 255 255 255
1 0.94788915 0.099268682 255 255 255 255
1 0.27747983 0.82254833 255 255 255 255
1 0.36202461 0.85685992 255 255 255 255
1 0.42373872 0.95356506 255 255 255 255
1 0.13978052 0.3288773 255 255 255 255
1 0.17331854 0.19790803 255 255 255 255
1 0.16173893 0.26236361 255 255 255 255
1 0.21193974 0.12379819 255 255 255 255
1 0.52438629 0.19384874 255 255 255 255
1 0.49708301 0.043578751 255 255 255 255
1 0.5948922 0.56907517 255 255 255 255
1 0.20589319 0.15092079 255 255 255 255
1 0.38693663 0.14787377 255 255 255 255
1 0.54887557 0.72620404 255 255 255 255
1 0.78773141 0.87370837 255 255 255 255
1 0.22489296 0.7356205 255 255 255 255
1 0.97297704 0.50237274 255 255 255 255
1 0.55816889 0.33500165 255 255 255 255
1 0.35923266 0.98190761 255 255 255 255
1 0.28856671 0.49901319 255 255 255 255
1 0.31078488 0.46188524 255 255 255 255
1 0.69692123 0.47252381 255 255 255 255
1 0.72424889 0.90886098 255 255 255 255
1 0.596322 0.24863513 255 255 255 255
1 0.1027097 0.093405008 255 255 255 255
1 0.29221389 0.69760191 255 255 255 255
1 0.66248018 0.49810708 255 255 255 255
1 0.84852272 0.049416784 255 255 255 255
1 0.64598083 0.39739826 255 255 255 255
1 0.77562082 0.43371224 255 255 255 255
1 0.27110663 0.0005137953 255 255 255 255
1 0.16933277 0.24408366 255 255 255 255
1 0.50288653 0.72750163 255 255 255 255
1 0.57908529 0.86211926 255 255 255 255
1 0.70940924 0.867652 255 255 255 255
1 0.36113241 0.020194091 255 255 255 255
1 0.32953724 0.058053643 255 255 255 255
1 0.49271789 0.05378611 255 255 255 255
1 0.96691459 0.089039892 255 255 255 255
1 0.30242124 0.069624297 255 255 255 255
1 0.1824449 0.59463513 255 255 255 255
1 0.76722622 0.84492505 255 255 255 255
1 0.092742175 0.61574894 255 255 255 255
1 0.89434183 0.73872304 255 255 255 255
1 0.013147203 0.6699627 255 255 255 255
1 0.17243525 0.28425381 255 255 255 255
1 0.6704765 0.34176803 255 255 255 255
1 0.52833748 0.17336304 255 255 255 255
1 0.069269665 0.10742276 255 255 255 255
1 0.035482284 0.77867889 255 255 255 255
1 0.97507477 0.3966147 255 255 255 255
1 0.79887295 0.30461201 255 255 255 255
1 0.45466834 0.29159087 255 255 255 255
1 0.35839814 0.42158294 255 255 255 255
1 0.38063076 0.66081935 255 255 255 255
1 0.49120724 0.56307566 255 255 255 255
1 0.25545448 0.25843346 255 255 255 255
1 0.40800074 0.34819663 255 255 255 255
1 0.8741824 0.30234256 255 255 255 255
1 0.086919658 0.88732958 255 255 255 255
1 0.97230524 0.25935492 255 255 255 255
1 0.17158341 0.64278173 255 255 255 255
1 0.60112298 0.69992089 255 255 255 255
1 0.81614482 0.67039263 255 255 255 255
1 0.80734366 0.85162711 255 255 255 255
1 0.4490715 0.78241843 255 255 255 255
1 0.2482418 0.24794446 255 255 255 255
1 0.087030433 0.70291013 255 255 255 255
1 0.53953534 0.44542855 255 255 255 255
1 0.12449308 0.92016608 255 255 255 255
1 0.10624792 0.6157003 255 255 255 255
1 0.48324174 0.36170238 255 255 255 255
1 0.87413377 0.89124244 255 255 255 255
1 0.70989901 0.74831617 255 255 255 255
1 0.19358502 0.79681867 255 255 255 255
1 0.63564575 0.16589029 255 255 255 255
1 0.056173608 0.80722916 255 255 255 255
1 0.80867207 0.65729654 255 255 255 255
1 0.50715005 0.62481683 255 255 255 255
1 0.32768917 0.31449372 255 255 255 255
1 0.47644395 0.77676064 255 255 255 255
1 0.096912131 0.72468573 255 255 255 255
1 0.024705106 0.18394256 255 255 255 255
1 0.42759585 0.5642404 255 255 255 255
1 0.62937111 0.55208892 255 255 255 255
1 0.4844065 0.73561907 255 255 255 255
1 0.16778925 0.96764821 255 255 255 255
1 0.097321436 0.04192302 255 255 255 255
1 0.85889065 0.80722046 255 255 255 255
1 0.79023916 0.052475706 255 255 255 255
1 0.60403913 0.42588493 255 255 255 255
1 0.218366 0.66021276 255 255 255 255
1 0.23311412 0.027038042 255 255 255 255
1 0.31750932 0.74026418 255 255 255 255
1 0.65185487 0.64519846 255 255 255 255
1 0.054757886 0.12829882 255 255 255 255
1 0.42195913 0.15167001 255 255 255 255
1 0.85298455 0.44666424 255 255 255 255
1 0.33561257 0.2805804 255 255 255 255
1 0.010904664 0.9649837 255 255 255 255
1 0.83266932 0.49531117 255 255 255 255
1 0.70060277 0.00045859534 255 255 255 255
1 0.46295938 0.79792416 255 255 255 255
1 0.042381618 0.32185006 255 255 255 255
1 0.60514462 0.8326208 255 255 255 255
1 0.37432575 0.2091838 255 255 255 255
1 0.25850573 0.59269178 255 255 255 255
1 0.86939657 0.49161986 255 255 255 255
1 0.61972982 0.18690588 255 255 255 255
1 0.23188403 0.27158469 255 255 255 255
1 0.83210438 0.28664193 255 255 255 255
1 0.39988351 0.25406349 255 255 255 255
1 0.43831193 0.25286806 255 255 255 255
1 0.70072776 0.77392453 255 255 255 255
1 0.53344846 0.71163237 255 255 255 255
1 0.73890823 0.36611781 255 255 255 255
1 0.20694356 0.43951097 255 255 255 255
1 0.3665764 0.66990292 255 255 255 255
1 0.23743515 0.40895802 255 255 255 255
1 0.99175298 0.84257978 255 255 255 255
1 0.24157882 0.36607876 255 255 255 255
1 0.051763583 0.50008458 255 255 255 255
1 0.95877051 0.92116016 255 255 255 255
1 0.9917044 0.57850033 255 255 255 255
1 0.10806601 0.22358845 255 255 255 255
1 0.85008502 0.94017035 255 255 255 255
1 0.51023036 0.24996851 255 255 255 255
1 0.19423386 0.9485423 255 255 255 255
1 0.50283659 0.8949616 255 255 255 255
1 0.72246683 0.036285028 255 255 255 255
1 0.60659403 0.46137503 255 255 255 255
1 0.40240282 0.81353754 255 255 255 255
1 0.900886 0.76897925 255 255 255 255
1 0.48344049 0.13832115 255 255 255 255
1 0.17793724 0.4751935 255 255 255 255
1 0.98090094 0.41951606 255 255 255 255
1 0.84127223 0.032664511 255 255 255 255
1 0.91960061 0.80004281 255 255 255 255
1 0.95382464 0.91130501 255 255 255 255
1 0.37854311 0.061890665 255 255 255 255
1 0.13489349 0.22862811 255 255 255 255
1 0.0020610373 0.64512384 255 255 255 255
1 0.47859663 0.1962949 255 255 255 255
1 0.5936662 0.98143321 255 255 255 255
1 0.091256499 0.31613299 255 255 255 255
1 0.017718235 0.69785053 255 255 255 255
1 0.77750802 0.42012107 255 255 255 255
1 0.51138806 0.67839402 255 255 255 255
1 0.1891003 0.99482858 255 255 255 255
1 0.81671518 0.36703753 255 255 255 255
1 0.47002205 0.79761612 255 255 255 255
1 0.78655356 0.31129432 255 255 255 255
1 0.8302806 0.70615423 255 255 255 255
1 0.11133711 0.7841053 255 255 255 255
1 0.61745924 0.4898802 255 255 255 255
1 0.84599596 0.75235271 255 255 255 255
1 0.71850836 0.84805697 255 255 255 255
1 0.39747658 0.19710498 255 255 255 255
1 0.044351887 0.99114275 255 255 255 255
1 0.17853817 0.13560839 255 255 255 255
1 0.30727577 0.19625641 255 255 255 255
1 0.8334589 0.084783815 255 255 255 255
1 0.61637747 0.34484696 255 255 255 255
1 0.76317787 0.80547774 255 255 255 255
1 0.33967552 0.57989305 255 255 255 255
1 0.1725153 0.80969757 255 255 255 255
1 0.37750918 0.95906889 255 255 255 255
1 0.12099191 0.20778979 255 255 255 255
1 0.66522306 0.23232901 255 255 255 255
1 0.99189508 0.28268233 255 255 255 255
1 0.72220922 0.83789104 255 255 255 255
1 0.035035048 0.44071758 255 255 255 255
1 0.68594801 0.43251163 255 255 255 255
1 0.63782257 0.73029989 255 255 255 255
1 0.42365441 0.81636071 255 255 255 255
1 0.86590827 0.73093015 255 255 255 255
1 0.012617126 0.69936717 255 255 255 255
1 0.815714 0.62899458 255 255 255 255
1 0.044214129 0.57889187 255 255 255 255
1 0.43447238 0.38388965 255 255 255 255
1 0.1587849 0.60698766 255 255 255 255
1 0.19358723 0.53629404 255 255 255 255
1 0.56605655 0.31457913 255 255 255 255
1 0.74408388 0.23127964 255 255 255 255
1 0.54690814 0.73597896 255 255 255 255
1 0.51396197 0.26911739 255 255 255 255
1 0.57386994 0.54899704 255 255 255 255
1 0.70983493 0.25981796 255 255 255 255
1 0.98150867 0.3476575 255 255 255 255
1 0.99011785 0.40516305 255 255 255 255
1 0.16401821 0.85602611 255 255 255 255
1 0.13609321 0.17663534 255 255 255 255
1 0.55539334 0.9518072 255 255 255 255
1 0.80562997 0.59960747 255 255 255 255
1 0.53069901 0.24010231 255 255 255 255
1 0.98349708 0.68948394 255 255 255 255
1 0.84709001 0.17708431 255 255 255 255
1 0.225778 0.41314653 255 255 255 255
1 0.49166346 0.96986187 255 255 255 255
1 0.64442617 0.038571607 255 255 255 255
1 0.70584077 0.15838815 255 255 255 255
1 0.30768898 0.27971074 255 255 255 255
1 0.70738518 0.017523952 255 255 255 255
1 0.53952873 0.6888938 255 255 255 255
1 0.36518145 0.52964658 255 255 255 255
1 0.094056867 0.52919966 255 255 255 255
1 0.38567269 0.23015009 255 255 255 255
1 0.70583498 0.94106603 255 255 255 255
1 0.18195729 0.51146495 255 255 255 255
1 0.54067343 0.71265632 255 255 255 255
1 0.75156724 0.52417052 255 255 255 255
1 0.40214026 0.59865725 255 255 255 255
1 0.70125484 0.62791824 255 255 255 255
1 0.011803761 0.19291832 255 255 255 255
1 0.59778011 0.65622991 255 255 255 255
1 0.23148993 0.30362093 255 255 255 255
1 0.81461811 0.53917891 255 255 255 255
1 0.58333164 0.52200329 255 255 255 255
1 0.55670285 0.12286038 255 255 255 255
1 0.21089709 0.9218843 255 255 255 255
1 0.65250695 0.30495396 255 255 255 255
1 0.45108396 0.038179643 255 255 255 255
1 0.53510404 0.15691897 255 255 255 255
1 0.97924566 0.71706134 255 255 255 255
1 0.6683839 0.5199191 255 255 255 255
1 0.42971766 0.41995117 255 255 255 255
1 0.044089649 0.83185792 255 255 255 255
1 0.018608384 0.74534452 255 255 255 255
1 0.45977619 0.030412145 255 255 255 255
1 0.93826282 0.057556331 255 255 255 255
1 0.68664211 0.16975275 255 255 255 255
1 0.36117727 0.50126016 255 255 255 255
1 0.70893162 0.94450891 255 255 255 255
1 0.023263443 0.26563451 255 255 255 255
1 0.067369312 0.23416053 255 255 255 255
1 0.18751884 0.71987623 255 255 255 255
1 0.53911448 0.63860279 255 255 255 255
1 0.75805593 0.074218526 255 255 255 255
1 0.7955218 0.73730153 255 255 255 255
1 0.79127985 0.46390569 255 255 255 255
1 0.25722066 0.2209975 255 255 255 255
1 0.88385683 0.3013103 255 255 255 255
1 0.052855428 0.90246522 255 255 255 255
1 0.04665482 0.5126316 255 255 255 255
1 0.93287736 0.98491764 255 255 255 255
1 0.57018793 0.61951947 255 255 255 255
1 0.15467039 0.93136519 255 255 255 255
1 0.12077963 0.86360204 255 255 255 255
1 0.87587416 0.14404307 255 255 255 255
1 0.12923655 0.94324344 255 255 255 255
1 0.3782036 0.31675538 255 255 255 255
1 0.66311967 0.91731811 255 255 255 255
1 0.95535821 0.4211756 255 255 255 255
1 0.99153662 0.75087994 255 255 255 255
1 0.15847716 0.78281647 255 255 255 255
1 0.21478564 0.41569781 255 255 255 255
1 0.0038139601 0.098642476 255 255 255 255
1 0.71700811 0.056669388 255 255 255 255
1 0.0011076899 0.76366293 255 255 255 255
1 0.56930101 0.93398505 255 255 255 255
1 0.74858057 0.13948897 255 255 255 255
1 0.55350453 0.90325099 255 255 255 255
1 0.070854172 0.6742841 255 255 255 255
1 0.76685303 0.94672829 255 255 255 255
1 0.81832719 0.89608955 255 255 255 255
1 0.88997173 0.19653079 255 255 255 255
1 0.21284495 0.55309147 255 255 255 255
1 0.11384887 0.16820315 255 255 255 255
1 0.97426707 0.10538547 255 255 255 255
1 0.91908312 0.13274421 255 255 255 255
1 0.88820195 0.13386874 255 255 255 255
1 0.54844201 0.89201587 255 255 255 255
1 0.23251121 0.26545015 255 255 255 255
1 0.94868529 0.2336189 255 255 255 255
1 0.029113088 0.5179863 255 255 255 255
1 0.16760395 0.77769369 255 255 255 255
1 0.65747523 0.72110844 255 255 255 255
1 0.68094462 0.72832942 255 255 255 255
1 0.39539257 0.44779766 255 255 255 255
1 0.67505771 0.21371977 255 255 255 255
1 0.34388721 0.5650295 255 255 255 255
1 0.41025054 0.55673218 255 255 255 255
1 0.11812095 0.52409941 255 255 255 255
1 0.72493529 0.092388012 255 255 255 255
1 0.62948489 0.64401841 255 255 255 255
1 0.22513223 0.51768684 255 255 255 255
1 0.77788717 0.77357423 255 255 255 255
1 0.40970272 0.010398356 255 255 255 255
1 0.039024394 0.35838798 255 255 255 255
1 0.24401726 0.068137482 255 255 255 255
1 0.87637424 0.41162121 255 255 255 255
1 0.84583116 0.53384954 255 255 255 255
1 0.13272966 0.52677578 255 255 255 255
1 0.26217896 0.52812225 255 255 255 255
1 0.97457343 0.93723667 255 255 255 255
1 0.74184203 0.31846067 255 255 255 255
1 0.50226617 0.15209256 255 255 255 255
1 0.87519282 0.62038714 255 255 255 255
1 0.67619199 0.60012811 255 255 255 255
1 0.71277511 0.30567688 255 255 255 255
1 0.24414654 0.93790734 255 255 255 255
1 0.82336372 0.02203368 255 255 255 255
1 0.71148163 0.23306641 255 255 255 255
1 0.032432038 0.75050598 255 255 255 255
1 0.59145439 0.27644929 255 255 255 255
1 0.81864351 0.46782866 255 255 255 255
1 0.68807054 0.66447467 255 255 255 255
1 0.0016781832 0.82080019 255 255 255 255
1 0.19125044 0.26385713 255 255 255 255
1 0.3489224 0.16582391 255 255 255 255
1 0.20109381 0.090764411 255 255 255 255
1 0.48428455 0.70335996 255 255 255 255
1 0.24285698 0.3594774 255 255 255 255
1 0.3237471 0.91904896 255 255 255 255
1 0.95960552 0.036522232 255 255 255 255
1 0.22472583 0.20375206 255 255 255 255
1 0.97442961 0.048089519 255 255 255 255
1 0.22578575 0.68591124 255 255 255 255
1 0.28115591 0.25821778 255 255 255 255
1 0.43641722 0.87261033 255 255 255 255
1 0.53466707 0.2550607 255 255 255 255
1 0.34043896 0.22273758 255 255 255 255
1 0.91953534 0.34211716 255 255 255 255
1 0.043537751 0.11078581 255 255 255 255
1 0.60597426 0.39246017 255 255 255 255
1 0.27660972 0.80706811 255 255 255 255
1 0.48322457 0.7608943 255 255 255 255
1 0.51042807 0.72608155 255 255 255 255
1 0.12037167 0.83417517 255 255 255 255
1 0.64513052 0.079977185 255 255 255 255
1 0.87069738 0.8698563 255 255 255 255
1 0.28372926 0.84512699 255 255 255 255
1 0.91794586 0.50951499 255 255 255 255
1 0.53103817 0.19910176 255 255 255 255
1 0.76773274 0.96745539 255 255 255 255
1 0.071712069 0.30239984 255 255 255 255
1 0.22251612 0.41215104 255 255 255 255
1 0.52513742 0.14205149 255 255 255 255
1 0.75426823 0.56867516 255 255 255 255
1 0.2528373 0.36024249 255 255 255 255
1 0.96113533 0.52944702 255 255 255 255
1 0.16731057 0.4443599 255 255 255 255
1 0.29034129 0.67773861 255 255 255 255
1 0.17044145 0.41071296 255 255 255 255
1 0.51191378 0.81557196 255 255 255 255
1 0.49069014 0.38261116 255 255 255 255
1 0.68542826 0.77441937 255 255 255 255
1 0.22773814 0.60337412 255 255 255 255
1 0.28393438 0.75877637 255 255 255 255
1 0.80247587 0.051667146 255 255 255 255
1 0.72623175 0.87418795 255 255 255 255
1 0.354067 0.94874787 255 255 255 255
1 0.28633898 0.87920439 255 255 255 255
1 0.090799369 0.040607177 255 255 255 255
1 0.44787958 0.34363666 255 255 255 255
1 0.40084967 0.40901491 255 255 255 255
1 0.87308365 0.56816024 255 255 255 255
1 0.85337478 0.16342497 255 255 255 255
1 0.24589886 0.023816247 255 255 255 255
1 0.57413793 0.75781262 255 255 255 255
1 0.83938819 0.064828068 255 255 255 255
1 0.14042379 0.52481645 255 255 255 255
1 0.83924747 0.36816195 255 255 255 255
1 0.12819055 0.12318183 255 255 255 255
1 0.12693827 0.93066639 255 255 255 255
1 0.17484897 0.85317004 255 255 255 255
1 0.80485433 0.52891594 255 255 255 255
1 0.80191791 0.091193318 255 255 255 255
1 0.40812036 0.8927173 255 255 255 255
1 0.1318005 0.85599995 255 255 255 255
1 0.23635395 0.53265017 255 255 255 255
1 0.26501486 0.10943762 255 255 255 255
1 0.10081038 0.11838965 255 255 255 255
1 0.27286258 0.34670922 255 255 255 255
1 0.14220589 0.84700054 255 255 255 255
1 0.10452186 0.98159409 255 255 255 255
1 0.91182858 0.24494566 255 255 255 255
1 0.50641054 0.75107604 255 255 255 255
1 0.61310756 0.63460112 255 255 255 255
1 0.87425786 0.74004585 255 255 255 255
1 0.5652675 0.049106847 255 255 255 255
1 0.59321588 0.37012187 255 255 255 255
1 0.57802284 0.39513379 255 255 255 255
1 0.46131518 0.98614317 255 255 255 255
1 0.28785107 0.59311569 255 255 255 255
1 0.84214312 0.52420503 255 255 255 255
1 0.12576583 0.10715798 255 255 255 255
1 0.63364261 0.22657621 255 255 255 255
1 0.22554763 0.90650523 255 255 255 255
1 0.57328546 0.36775351 255 255 255 255
1 0.75350577 0.67780733 255 255 255 255
1 0.34934759 0.66533434 255 255 255 255
1 0.92275298 0.85575813 255 255 255 255
1 0.41641036 0.53586054 255 255 255 255
1 0.49035922 0.29066822 255 255 255 255
1 0.27590641 0.055626731 255 255 255 255
1 0.33977506 0.86912233 255 255 255 255
1 0.42574859 0.91779786 255 255 255 255
1 0.26425612 0.88706374 255 255 255 255
1 0.90394104 0.55210721 255 255 255 255
1 0.48017943 0.74608421 255 255 255 255
1 0.076312199 0.60594523 255 255 255 255
1 0.85324216 0.70995486 255 255 255 255
1 0.83252144 0.078789786 255 255 255 255
1 0.61646008 0.4058069 255 255 255 255
1 0.44654331 0.36996579 255 255 255 255
1 0.083614208 0.79589093 255 255 255 255
1 0.035300121 0.0063671698 255 255 255 255
1 0.65164906 0.45171046 255 255 255 255
1 0.54222775 0.14200826 255 255 255 255
1 0.74237871 0.81813413 255 255 255 255
1 0.19763499 0.082153752 255 255 255 255
1 0.68725646 0.62338358 255 255 255 255
1 0.99995166 0.95151258 255 255 255 255
1 0.51044732 0.9038927 255 255 255 255
1 0.50361973 0.99062675 255 255 255 255
1 0.64997691 0.57993197 255 255 255 255
1 0.59657198 0.50321907 255 255 255 255
1 0.2898868 0.42909348 255 255 255 255
1 0.58200884 0.90634686 255 255 255 255
1 0.83490038 0.028552145 255 255 255 255
1 0.27631268 0.91851455 255 255 255 255
1 0.82444304 0.31161278 255 255 255 255
1 0.92488176 0.47609207 255 255 255 255
1 0.76332325 0.46710947 255 255 255 255
1 0.61810035 0.50570196 255 255 255 255
1 0.2852436 0.81573534 255 255 255 255
1 0.5878557 0.97250009 255 255 255 255
1 0.43911892 0.58780736 255 255 255 255
1 0.92401266 0.94956625 255 255 255 255
1 0.49170005 0.42763239 255 255 255 255
1 0.940193 0.14167693 255 255 255 255
1 0.0075643579 0.53676498 255 255 255 255
1 0.64489597 0.29745117 255 255 255 255
1 0.96585846 0.22690484 255 255 255 255
1 0.20379803 0.80075884 255 255 255 255
1 0.25545698 0.4801107 255 255 255 255
1 0.71927345 0.079900026 255 255 255 255
1 0.79172349 0.64415514 255 255 255 255
1 0.55599213 0.55504674 255 255 255 255
1 0.11126465 0.17409246 255 255 255 255
1 0.060748719 0.39650825 255 255 255 255
1 0.98982781 0.64860445 255 255 255 255
1 0.36900833 0.4289467 255 255 255 255
1 0.23641178 0.29302096 255 255 255 255
1 0.37851295 0.7281118 255 255 255 255
1 0.72065336 0.31870595 255 255 255 255
1 0.86978877 0.72821772 255 255 255 255
1 0.85547096 0.51468474 255 255 255 255
1 0.025668887 0.82132941 255 255 255 255
1 0.74158961 0.22946692 255 255 255 255
1 0.62208825 0.99704659 255 255 255 255
1 0.70957762 0.3413617 255 255 255 255
1 0.076946586 0.50130111 255 255 255 255
1 0.98551685 0.63293868 255 255 255 255
1 0.056347866 0.096781515 255 255 255 255
1 0.80703115 0.11709659 255 255 255 255
1 0.49328977 0.79685891 255 255 255 255
1 0.765701 0.86229813 255 255 255 255
1 0.22580563 0.002112804 255 255 255 255
1 0.15531908 0.60431856 255 255 255 255
1 0.73022461 0.87597245 255 255 255 255
1 0.92302448 0.60001338 255 255 255 255
1 0.60419017 0.77849543 255 255 255 255
1 0.11469816 0.62985909 255 255 255 255
1 0.59982491 0.85628772 255 255 255 255
1 0.859326 0.22191314 255 255 255 255
1 0.85333431 0.56890357 255 255 255 255
1 0.56327486 0.93028086 255 255 255 255
1 0.07020469 0.54879171 255 255 255 255
1 0.56321961 0.12655255 255 255 255 255
1 0.6455732 0.37025073 255 255 255 255
1 0.24364914 0.138863 255 255 255 255
1 0.16710965 0.0093501657 255 255 255 255
1 0.0011610948 0.39291528 255 255 255 255
1 0.01146297 0.15648016 255 255 255 255
1 0.99723387 0.7416876 255 255 255 255
1 0.032452617 0.92025834 255 255 255 255
1 0.341701 0.63664281 255 255 255 255
1 0.69875383 0.45639914 255 255 255 255
1 0.26650184 0.29857868 255 255 255 255
1 0.31268689 0.12582783 255 255 255 255
1 0.52049184 0.1660212 255 255 255 255
1 0.69473141 0.083766669 255 255 255 255
1 0.096302092 0.76493609 255 255 255 255
1 0.63255841 0.6595217 255 255 255 255
1 0.89148867 0.2781316 255 255 255 255
1 0.029772408 0.13513781 255 255 255 255
1 0.4169946 0.19688207 255 255 255 255
1 0.14448798 0.4181557 255 255 255 255
1 0.58979732 0.15595095 255 255 255 255
1 0.57463586 0.58703119 255 255 255 255
1 0.89763856 0.60708851 255 255 255 255
1 0.50728953 0.23933955 255 255 255 255
1 0.24373128 0.20604335 255 255 255 255
1 0.69573867 0.5102331 255 255 255 255
1 0.50462204 0.008425599 255 255 255 255
1 0.63606095 0.02511386 255 255 255 255
1 0.17444681 0.33079237 255 255 255 255
