ply
format ascii 1.0
comment PCL generated
element vertex 1182
property float x
property float y
property float z
property uchar red
property uchar green
property uchar blue
property uchar alpha
element camera 0
property float view_px
property float view_py
property float view_pz
property float x_axisx
property float x_axisy
property float x_axisz
property float y_axisx
property float y_axisy
property float y_axisz
property float z_axisx
property float z_axisy
property float z_axisz
property float focal
property float scalex
property float scaley
property float centerx
property float centery
property int viewportx
property int viewporty
property float k1
property float k2
end_header
0.35727429 0.2332661 1 255 255 255 255
0.040134575 0.26579398 1 255 255 255 255
0.40802348 0.98204952 1 255 255 255 255
0.22100818 0.50215101 1 255 255 255 255
0.93966252 0.60413277 1 255 255 255 255
0.88571459 0.98115808 1 255 255 255 255
0.85387546 0.14231679 1 255 255 255 255
0.082132131 0.2923536 1 255 255 255 255
0.36005971 0.23002122 1 255 255 255 255
0.35920581 0.38646951 1 255 255 255 255
0.25794303 0.60609502 1 255 255 255 255
0.72496879 0.19467241 1 255 255 255 255
0.046749566 0.73273259 1 255 255 255 255
0.21064523 0.42274076 1 255 255 255 255
0.85701752 0.63113439 1 255 255 255 255
0.56565171 0.21429177 1 255 255 255 255
0.86440045 0.60578626 1 255 255 255 255
0.48008576 0.27242395 1 255 255 255 255
0.58783579 0.70109391 1 255 255 255 255
0.77457494 0.52749836 1 255 255 255 255
0.30522671 0.66028959 1 255 255 255 255
0.50865638 0.15910217 1 255 255 255 255
0.80260634 0.59078854 1 255 255 255 255
0.45145577 0.16266607 1 255 255 255 255
0.82080978 0.81066155 1 255 255 255 255
0.54913557 0.078752793 1 255 255 255 255
0.41675663 0.27410436 1 255 255 255 255
0.27342519 0.46350619 1 255 255 255 255
0.0068369312 0.48407042 1 255 255 255 255
0.88624692 0.86385441 1 255 255 255 255
0.1152048 0.45189863 1 255 255 255 255
0.078146189 0.97960526 1 255 255 255 255
0.05768491 0.55823195 1 255 255 255 255
0.25202921 0.64552075 1 255 255 255 255
0.25932589 0.026604174 1 255 255 255 255
0.17301907 0.56455261 1 255 255 255 255
0.68689376 0.68167549 1 255 255 255 255
0.72365475 0.48950011 1 255 255 255 255
0.27246401 0.17511055 1 255 255 255 255
0.65216619 0.093273789 1 255 255 255 255
0.98577213 0.20130177 1 255 255 255 255
0.17202659 0.40252873 1 255 255 255 255
0.47540611 0.44545177 1 255 255 255 255
0.86603492 0.48224303 1 255 255 255 255
0.92952222 0.75228184 1 255 255 255 255
0.34609747 0.04472699 1 255 255 255 255
0.20418048 0.42424366 1 255 255 255 255
0.024332259 0.26186541 1 255 255 255 255
0.98247564 0.27636147 1 255 255 255 255
0.90738612 0.2418015 1 255 255 255 255
0.30296564 0.080405183 1 255 255 255 255
0.80635411 0.9898594 1 255 255 255 255
0.76208067 0.53000885 1 255 255 255 255
0.47935951 0.03454468 1 255 255 255 255
0.70511943 0.1315257 1 255 255 255 255
0.12781847 0.6908915 1 255 255 255 255
0.33282745 0.29984504 1 255 255 255 255
0.093420267 0.80823356 1 255 255 255 255
0.74529684 0.95945519 1 255 255 255 255
0.29047662 0.67481905 1 255 255 255 255
0.71173704 0.63657409 1 255 255 255 255
0.71954602 0.91591752 1 255 255 255 255
0.06081773 0.7438783 1 255 255 255 255
0.17778291 0.043293338 1 255 255 255 255
0.020239752 0.085169032 1 255 255 255 255
0.28509486 0.32320541 1 255 255 255 255
0.16557421 0.09144894 1 255 255 255 255
0.31306478 0.92765486 1 255 255 255 255
0.62145782 0.79242432 1 255 255 255 255
0.96219957 0.32657722 1 255 255 255 255
0.92395002 0.090018019 1 255 255 255 255
0.017468758 0.25677747 1 255 255 255 255
0.38986307 0.11088903 1 255 255 255 255
0.065011047 0.13515991 1 255 255 255 255
0.07034421 0.35548767 1 255 255 255 255
0.80997896 0.78208125 1 255 255 255 255
0.99206173 0.52952492 1 255 255 255 255
0.69799876 0.052879468 1 255 255 255 255
0.27340323 0.87578166 1 255 255 255 255
0.09617281 0.29364297 1 255 255 255 255
0.96095073 0.38126764 1 255 255 255 255
0.61684841 0.12652493 1 255 255 255 255
0.4727166 0.92991316 1 255 255 255 255
0.054179791 0.094174407 1 255 255 255 255
0.72233748 0.016379338 1 255 255 255 255
0.42075163 0.6462875 1 255 255 255 255
0.10639736 0.43822038 1 255 255 255 255
0.90306497 0.49626043 1 255 255 255 255
0.5491094 0.96807605 1 255 255 255 255
0.63142031 0.61945361 1 255 255 255 255
0.32356369 0.44139928 1 255 255 255 255
0.40153489 0.31562543 1 255 255 255 255
0.9709242 0.09953364 1 255 255 255 255
0.36850488 0.24432744 1 255 255 255 255
0.97531533 0.46467769 1 255 255 255 255
0.53797042 0.93626601 1 255 255 255 255
0.84594536 0.1548188 1 255 255 255 255
0.062790953 0.31866196 1 255 255 255 255
0.084731981 0.11697075 1 255 255 255 255
0.41283634 0.80706948 1 255 255 255 255
0.13335009 0.833588 1 255 255 255 255
0.45335698 0.23974743 1 255 255 255 255
0.27180839 0.35642195 1 255 255 255 255
0.73600787 0.82091779 1 255 255 255 255
0.32449797 0.36742821 1 255 255 255 255
0.44037142 0.64806169 1 255 255 255 255
0.80882746 0.84190631 1 255 255 255 255
0.96368706 0.77975172 1 255 255 255 255
0.94143993 0.33219197 1 255 255 255 255
0.024079135 0.91675526 1 255 255 255 255
0.7968697 0.56204957 1 255 255 255 255
0.85302126 0.64281505 1 255 255 255 255
0.71686834 0.91581225 1 255 255 255 255
0.96147698 0.80160034 1 255 255 255 255
0.032782994 0.37431335 1 255 255 255 255
0.60866982 0.16613308 1 255 255 255 255
0.20790133 0.062026799 1 255 255 255 255
0.40588051 0.47970971 1 255 255 255 255
0.41844875 0.14188839 1 255 255 255 255
0.3006275 0.74294674 1 255 255 255 255
0.50931662 0.74099892 1 255 255 255 255
0.39100841 0.31814405 1 255 255 255 255
0.58290523 0.3546955 1 255 255 255 255
0.097895756 0.52434516 1 255 255 255 255
0.6868875 0.12197489 1 255 255 255 255
0.44110042 0.48375717 1 255 255 255 255
0.68402445 0.29412171 1 255 255 255 255
0.12657221 0.40089282 1 255 255 255 255
0.20993397 0.088049211 1 255 255 255 255
0.20249316 0.24271697 1 255 255 255 255
0.46236256 0.81116295 1 255 255 255 255
0.40885004 0.67026389 1 255 255 255 255
0.87318975 0.81473058 1 255 255 255 255
0.14997362 0.29163852 1 255 255 255 255
0.95661896 0.45060113 1 255 255 255 255
0.034585252 0.46593556 1 255 255 255 255
0.19160005 0.42559364 1 255 255 255 255
0.78407961 0.77450526 1 255 255 255 255
0.78028911 0.88197535 1 255 255 255 255
0.29885045 0.46717662 1 255 255 255 255
0.0039502657 0.7399509 1 255 255 255 255
0.95093375 0.68797469 1 255 255 255 255
0.034072604 0.077505983 1 255 255 255 255
0.08886753 0.24400657 1 255 255 255 255
0.16555519 0.29136068 1 255 255 255 255
0.48672354 0.62791777 1 255 255 255 255
0.10252366 0.89557356 1 255 255 255 255
0.29818165 0.97571343 1 255 255 255 255
0.71030414 0.44815525 1 255 255 255 255
0.26735196 0.66692311 1 255 255 255 255
0.89875638 0.30193722 1 255 255 255 255
0.13285865 0.090356424 1 255 255 255 255
0.72753084 0.91693825 1 255 255 255 255
0.86486173 0.50782001 1 255 255 255 255
0.79891366 0.16371216 1 255 255 255 255
0.97499663 0.8028639 1 255 255 255 255
0.90366304 0.92593038 1 255 255 255 255
0.49083862 0.93773562 1 255 255 255 255
0.0034363568 0.57970613 1 255 255 255 255
0.18174221 0.16899155 1 255 255 255 255
0.87106681 0.66846573 1 255 255 255 255
0.79690927 0.97359049 1 255 255 255 255
0.56403935 0.095090941 1 255 255 255 255
0.94930393 0.27434349 1 255 255 255 255
0.54324621 0.2166559 1 255 255 255 255
0.9412666 0.44200256 1 255 255 255 255
0.51859313 0.07412523 1 255 255 255 255
0.532359 0.24612398 1 255 255 255 255
0.99106348 0.3972207 1 255 255 255 255
0.75394398 0.78997713 1 255 255 255 255
0.56093287 0.72894061 1 255 255 255 255
0.59284103 0.46459588 1 255 255 255 255
0.65487093 0.083679669 1 255 255 255 255
0.40233153 0.65830731 1 255 255 255 255
0.66338581 0.58407372 1 255 255 255 255
0.82729888 0.53445268 1 255 255 255 255
0.25253949 0.62420815 1 255 255 255 255
0.50804317 0.81657881 1 255 255 255 255
0.71929908 0.4573471 1 255 255 255 255
0.090922311 0.26254529 1 255 255 255 255
0.67400301 0.032188892 1 255 255 255 255
0.70454788 0.19259611 1 255 255 255 255
0.10631413 0.23690684 1 255 255 255 255
0.43872008 0.097377628 1 255 255 255 255
0.63412756 0.19266407 1 255 255 255 255
0.88735479 0.19506039 1 255 255 255 255
0.92160463 0.48019582 1 255 255 255 255
0.65965629 0.57647562 1 255 255 255 255
0.5638755 0.061987795 1 255 255 255 255
0.23478292 0.2272613 1 255 255 255 255
0.64606154 0.062081777 1 255 255 255 255
0.76171398 0.898601 1 255 255 255 255
0.68628991 0.26975712 1 255 255 255 255
0.71517986 0.40558904 1 255 255 255 255
0.72710419 0.80610216 1 255 255 255 255
0.66813433 0.40110722 1 255 255 255 255
0.83829105 0.37268218 1 255 255 255 255
0.59370333 0.94460517 1 255 255 255 255
0.60958904 0.032423407 1 255 255 255 255
0.041982803 0.24371655 1 255 255 255 255
0.22508748 0.92933756 1 255 255 255 255
0.43877694 0.14669213 1 255 255 255 255
0.40953338 0.098433197 1 255 255 255 255
0.72316772 0.97340888 1 255 255 255 255
0.160421 0.95795065 1 255 255 255 255
0.2006702 0.80648255 1 255 255 255 255
0.020032415 0.96238416 1 255 255 255 255
0.70508355 0.70632237 1 255 255 255 255
0.23214129 0.42026338 1 255 255 255 255
0.11191138 0.9592455 1 255 255 255 255
0.22636555 0.78004569 1 255 255 255 255
0.36035272 0.0646566 1 255 255 255 255
0.15272787 0.95405602 1 255 255 255 255
0.0092617748 0.76231688 1 255 255 255 255
0.98647946 0.051244579 1 255 255 255 255
0.006033435 0.21156691 1 255 255 255 255
0.98058218 0.44481036 1 255 255 255 255
0.35825902 0.39011556 1 255 255 255 255
0.54324359 0.081426755 1 255 255 255 255
0.36352444 0.70366454 1 255 255 255 255
0.039377391 0.56419462 1 255 255 255 255
0.51014709 0.059409808 1 255 255 255 255
0.52657878 0.21523063 1 255 255 255 255
0.76573217 0.7587201 1 255 255 255 255
0.63549405 0.87764353 1 255 255 255 255
0.7179656 0.86185956 1 255 255 255 255
0.65768921 0.07831829 1 255 255 255 255
0.92651618 0.81041712 1 255 255 255 255
0.032374322 0.93577796 1 255 255 255 255
0.572734 0.018853758 1 255 255 255 255
0.98702252 0.57876742 1 255 255 255 255
0.23042066 0.9676047 1 255 255 255 255
0.023577796 0.58867967 1 255 255 255 255
0.35772023 0.56682134 1 255 255 255 255
0.67010647 0.72124463 1 255 255 255 255
0.27048591 0.70948386 1 255 255 255 255
0.28543928 0.78063303 1 255 255 255 255
0.76889366 0.8120181 1 255 255 255 255
0.99586362 0.53462583 1 255 255 255 255
0.57073814 0.63135767 1 255 255 255 255
0.41226935 0.28870374 1 255 255 255 255
0.49321723 0.069958583 1 255 255 255 255
0.36702204 0.41973341 1 255 255 255 255
0.88037568 0.39939636 1 255 255 255 255
0.35551137 0.45310968 1 255 255 255 255
0.41825011 0.34253389 1 255 255 255 255
0.031877115 0.64867079 1 255 255 255 255
0.31013855 0.055454914 1 255 255 255 255
0.23735048 0.66785878 1 255 255 255 255
0.62227625 0.90745693 1 255 255 255 255
0.38910344 0.89276218 1 255 255 255 255
0.61694074 0.67454273 1 255 255 255 255
0.67339522 0.38583443 1 255 255 255 255
0.48656082 0.66925883 1 255 255 255 255
0.92046022 0.057298984 1 255 255 255 255
0.3006165 0.33272958 1 255 255 255 255
0.34600273 0.79383373 1 255 255 255 255
0.40268815 0.71302474 1 255 255 255 255
0.21356715 0.28306386 1 255 255 255 255
0.1124211 0.56907851 1 255 255 255 255
0.73617351 0.53067124 1 255 255 255 255
0.91161239 0.76805067 1 255 255 255 255
0.179342 0.22175096 1 255 255 255 255
0.82350558 0.41669247 1 255 255 255 255
0.88960975 0.44578183 1 255 255 255 255
0.3241494 0.27871323 1 255 255 255 255
0.33854404 0.94109017 1 255 255 255 255
0.95325595 0.011939241 1 255 255 255 255
0.32692456 0.43981677 1 255 255 255 255
0.68119806 0.2473848 1 255 255 255 255
0.49711576 0.98181456 1 255 255 255 255
0.58011436 0.84311849 1 255 255 255 255
0.77564836 0.98280251 1 255 255 255 255
0.55614322 0.98921549 1 255 255 255 255
0.2658664 0.66856432 1 255 255 255 255
0.558294 0.0020399229 1 255 255 255 255
0.19923556 0.46990639 1 255 255 255 255
0.77009058 0.37857756 1 255 255 255 255
0.69165736 0.59359616 1 255 255 255 255
0.79527003 0.58126712 1 255 255 255 255
0.039377976 0.11941942 1 255 255 255 255
0.85998029 0.377922 1 255 255 255 255
0.060509577 0.8132363 1 255 255 255 255
0.38986126 0.38743415 1 255 255 255 255
0.25305304 0.071059331 1 255 255 255 255
0.63481897 0.7501688 1 255 255 255 255
0.052873924 0.21493334 1 255 255 255 255
0.59328729 0.82852226 1 255 255 255 255
0.19773588 0.14943054 1 255 255 255 255
0.81773776 0.46360227 1 255 255 255 255
0.81799489 0.37603173 1 255 255 255 255
0.46564218 0.017230455 1 255 255 255 255
0.84593809 0.23573276 1 255 255 255 255
0.39580801 0.53759545 1 255 255 255 255
0.82932889 0.19107804 1 255 255 255 255
0.11886256 0.86870688 1 255 255 255 255
0.31049746 0.97884285 1 255 255 255 255
0.2466289 0.37100703 1 255 255 255 255
0.79207915 0.63649017 1 255 255 255 255
0.75844121 0.045132194 1 255 255 255 255
0.70754945 0.39326015 1 255 255 255 255
0.79530102 0.76042342 1 255 255 255 255
0.60819352 0.38858831 1 255 255 255 255
0.58894569 0.80592936 1 255 255 255 255
0.53801888 0.40668339 1 255 255 255 255
0.26953164 0.35601375 1 255 255 255 255
0.78271514 0.73517382 1 255 255 255 255
0.3732442 0.62865323 1 255 255 255 255
0.97090662 0.76905221 1 255 255 255 255
0.16624869 0.80023551 1 255 255 255 255
0.96013027 0.28511125 1 255 255 255 255
0.66894239 0.27062771 1 255 255 255 255
0.26395413 0.91557127 1 255 255 255 255
0.64163476 0.056033272 1 255 255 255 255
0.55206144 0.40007594 1 255 255 255 255
0.10116547 0.25961089 1 255 255 255 255
0.79333609 0.89646649 1 255 255 255 255
0.020034306 0.40152958 1 255 255 255 255
0.2850548 0.60897994 1 255 255 255 255
0.20745896 0.82307369 1 255 255 255 255
0.015663357 0.47699058 1 255 255 255 255
0.17908742 0.79837847 1 255 255 255 255
0.21216443 0.55233163 1 255 255 255 255
0.42703173 0.18307103 1 255 255 255 255
0.32138386 0.59328043 1 255 255 255 255
0.98330653 0.28151411 1 255 255 255 255
0.87839168 0.65224892 1 255 255 255 255
0.55214185 0.1423458 1 255 255 255 255
0.56782019 0.19377658 1 255 255 255 255
0.19837908 0.11988163 1 255 255 255 255
0.59385252 0.29954454 1 255 255 255 255
0.37949252 0.38718858 1 255 255 255 255
0.19601104 0.39952683 1 255 255 255 255
0.78871816 0.48106584 1 255 255 255 255
0.0085068028 0.99617714 1 255 255 255 255
0.30413949 0.024170162 1 255 255 255 255
0.47316772 0.48322693 1 255 255 255 255
0.82254863 0.68533218 1 255 255 255 255
0.03555854 0.24958037 1 255 255 255 255
0.8684032 0.35694239 1 255 255 255 255
0.84286076 0.85170972 1 255 255 255 255
0.63845652 0.72125244 1 255 255 255 255
0.50395864 0.19059832 1 255 255 255 255
0.86359829 0.071778856 1 255 255 255 255
0.38437489 0.061977342 1 255 255 255 255
0.19166048 0.97822738 1 255 255 255 255
0.3615219 0.57115304 1 255 255 255 255
0.36541599 0.55753291 1 255 255 255 255
0.97067988 0.15413417 1 255 255 255 255
0.03859875 0.97918665 1 255 255 255 255
0.15031129 0.34273824 1 255 255 255 255
0.0033568232 0.62347901 1 255 255 255 255
0.82596517 0.82590544 1 255 255 255 255
0.30881116 0.86152369 1 255 255 255 255
0.075485826 0.17721435 1 255 255 255 255
0.21846609 0.91834658 1 255 255 255 255
0.028924072 0.85692257 1 255 255 255 255
0.63959908 0.53288275 1 255 255 255 255
0.047520917 0.50319731 1 255 255 255 255
0.60466158 0.43189582 1 255 255 255 255
0.56517464 0.79632205 1 255 255 255 255
0.41012323 0.92669654 1 255 255 255 255
0.36747509 0.77553922 1 255 255 255 255
0.48422948 0.33815494 1 255 255 255 255
0.92967337 0.52282822 1 255 255 255 255
0.3173416 0.079984687 1 255 255 255 255
0.86556649 0.32069841 1 255 255 255 255
0.70346373 0.69153166 1 255 255 255 255
0.1466039 0.012274874 1 255 255 255 255
1 0.72309333 0.43562397 255 255 255 255
1 0.56018221 0.38722238 255 255 255 255
1 0.83063853 0.8879782 255 255 255 255
1 0.74183106 0.43953162 255 255 255 255
1 0.96703595 0.92445558 255 255 255 255
1 0.85802948 0.92968708 255 255 255 255
1 0.51972789 0.88385838 255 255 255 255
1 0.43873683 0.48979414 255 255 255 255
1 0.47451138 0.26558766 255 255 255 255
1 0.99583167 0.095980555 255 255 255 255
1 0.99394566 0.55083537 255 255 255 255
1 0.9169656 0.2695266 255 255 255 255
1 0.93464828 0.60788935 255 255 255 255
1 0.68931872 0.927953 255 255 255 255
1 0.55746901 0.5600366 255 255 255 255
1 0.62126875 0.2805624 255 255 255 255
1 0.99566054 0.18145098 255 255 255 255
1 0.66778475 0.82629907 255 255 255 255
1 0.069429189 0.40961584 255 255 255 255
1 0.26583073 0.036465157 255 255 255 255
1 0.3340714 0.12386019 255 255 255 255
1 0.96615225 0.85379934 255 255 255 255
1 0.0077185887 0.40488908 255 255 255 255
1 0.34359345 0.48222998 255 255 255 255
1 0.67047673 0.33942512 255 255 255 255
1 0.57821053 0.66442239 255 255 255 255
1 0.89026052 0.49517611 255 255 255 255
1 0.93394899 0.82490879 255 255 255 255
1 0.10306547 0.62326771 255 255 255 255
1 0.7528618 0.6605345 255 255 255 255
1 0.18330431 0.37413055 255 255 255 255
1 0.9410969 0.17896487 255 255 255 255
1 0.55558151 0.60888165 255 255 255 255
1 0.005263967 0.62501067 255 255 255 255
1 0.018497504 0.27109471 255 255 255 255
1 0.66147584 0.35256892 255 255 255 255
1 0.39495489 0.62762809 255 255 255 255
1 0.20636824 0.40267348 255 255 255 255
1 0.032517146 0.54996169 255 255 255 255
1 0.88490343 0.70299387 255 255 255 255
1 0.88938683 0.46311399 255 255 255 255
1 0.36741623 0.77964735 255 255 255 255
1 0.9582901 0.30136523 255 255 255 255
1 0.60455608 0.06135558 255 255 255 255
1 0.92463291 0.35741788 255 255 255 255
1 0.72189009 0.10793725 255 255 255 255
1 0.73154843 0.66298699 255 255 255 255
1 0.2869021 0.28712991 255 255 255 255
1 0.27186865 0.29216608 255 255 255 255
1 0.91214061 0.29036617 255 255 255 255
1 0.56326079 0.57361645 255 255 255 255
1 0.6429351 0.95821565 255 255 255 255
1 0.20124455 0.84930331 255 255 255 255
1 0.36088914 0.2337617 255 255 255 255
1 0.39926502 0.24579258 255 255 255 255
1 0.93675554 0.28865182 255 255 255 255
1 0.70890659 0.3041718 255 255 255 255
1 0.068299167 0.66719669 255 255 255 255
1 0.60553706 0.67285526 255 255 255 255
1 0.72855228 0.53016996 255 255 255 255
1 0.030273143 0.45044237 255 255 255 255
1 0.63810718 0.76182157 255 255 255 255
1 0.11342935 0.92500931 255 255 255 255
1 0.048951473 0.38529801 255 255 255 255
1 0.21717539 0.96109211 255 255 255 255
1 0.67566419 0.78043616 255 255 255 255
1 0.53470856 0.31859925 255 255 255 255
1 0.73865181 0.73595309 255 255 255 255
1 0.16790257 0.099540971 255 255 255 255
1 0.96971482 0.56716758 255 255 255 255
1 0.34533355 0.90647036 255 255 255 255
1 0.8558194 0.054240137 255 255 255 255
1 0.21064217 0.92411858 255 255 255 255
1 0.72143686 0.81617922 255 255 255 255
1 0.59697384 0.44998911 255 255 255 255
1 0.34634915 0.62724698 255 255 255 255
1 0.90043145 0.98445636 255 255 255 255
1 0.38906857 0.013860807 255 255 255 255
1 0.90946567 0.43802002 255 255 255 255
1 0.39915881 0.12664109 255 255 255 255
1 0.39911211 0.074822985 255 255 255 255
1 0.90707725 0.93382066 255 255 255 255
1 0.39342225 0.64572906 255 255 255 255
1 0.66977376 0.56132483 255 255 255 255
1 0.74527007 0.63948858 255 255 255 255
1 0.1284924 0.09060362 255 255 255 255
1 0.54595894 0.98431182 255 255 255 255
1 0.14484376 0.7566011 255 255 255 255
1 0.9084304 0.86628062 255 255 255 255
1 0.57278031 0.50540429 255 255 255 255
1 0.3162697 0.91912943 255 255 255 255
1 0.13265128 0.21670115 255 255 255 255
1 0.90358585 0.52171987 255 255 255 255
1 0.23056196 0.81305152 255 255 255 255
1 0.95973986 0.62972075 255 255 255 255
1 0.93969262 0.358852 255 255 255 255
1 0.70454377 0.84676987 255 255 255 255
1 0.29267266 0.097965993 255 255 255 255
1 0.49249896 0.96244645 255 255 255 255
1 0.65929079 0.23776902 255 255 255 255
1 0.60193503 0.78778321 255 255 255 255
1 0.32837266 0.14789395 255 255 255 255
1 0.77209502 0.47321641 255 255 255 255
1 0.90449506 0.68052542 255 255 255 255
1 0.339497 0.47727534 255 255 255 255
1 0.18592973 0.65576673 255 255 255 255
1 0.3964048 0.31858101 255 255 255 255
1 0.87246788 0.29999062 255 255 255 255
1 0.84030086 0.10302982 255 255 255 255
1 0.11304216 0.80004078 255 255 255 255
1 0.73275059 0.05273477 255 255 255 255
1 0.15889275 0.43729436 255 255 255 255
1 0.89950466 0.45156544 255 255 255 255
1 0.53526032 0.3920036 255 255 255 255
1 0.4140119 0.19455115 255 255 255 255
1 0.62977266 0.015946902 255 255 255 255
1 0.98233438 0.95814526 255 255 255 255
1 0.16384085 0.7544294 255 255 255 255
1 0.43136171 0.068335898 255 255 255 255
1 0.43495482 0.77085871 255 255 255 255
1 0.54561126 0.6208846 255 255 255 255
1 0.4266254 0.94201607 255 255 255 255
1 0.93946558 0.29909328 255 255 255 255
1 0.24200667 0.77976644 255 255 255 255
1 0.40212309 0.35504884 255 255 255 255
1 0.57980722 0.13487367 255 255 255 255
1 0.4077836 0.73869997 255 255 255 255
1 0.57216805 0.30728823 255 255 255 255
1 0.19026542 0.10742837 255 255 255 255
1 0.69929183 0.60427731 255 255 255 255
1 0.30197951 0.32906449 255 255 255 255
1 0.62022418 0.28431389 255 255 255 255
1 0.28720978 0.78406507 255 255 255 255
1 0.038743258 0.71857148 255 255 255 255
1 0.85240096 0.47369808 255 255 255 255
1 0.48943019 0.39801219 255 255 255 255
1 0.094582662 0.91605562 255 255 255 255
1 0.34002823 0.034048256 255 255 255 255
1 0.21514888 0.58203489 255 255 255 255
1 0.8138147 0.61727196 255 255 255 255
1 0.93708372 0.39362195 255 255 255 255
1 0.75214565 0.34486732 255 255 255 255
1 0.13232192 0.32431367 255 255 255 255
1 0.65215558 0.32258734 255 255 255 255
1 0.43174201 0.35144743 255 255 255 255
1 0.92686462 0.73372155 255 255 255 255
1 0.68051189 0.54708886 255 255 255 255
1 0.018035419 0.9677217 255 255 255 255
1 0.3311539 0.056778677 255 255 255 255
1 0.68629318 0.18355483 255 255 255 255
1 0.53047675 0.17572339 255 255 255 255
1 0.58156699 0.62505943 255 255 255 255
1 0.091779001 0.92159522 255 255 255 255
1 0.65910769 0.30692789 255 255 255 255
1 0.50363016 0.47292241 255 255 255 255
1 0.92419982 0.44071385 255 255 255 255
1 0.86654437 0.67634547 255 255 255 255
1 0.78558117 0.99886626 255 255 255 255
1 0.0006591389 0.43773678 255 255 255 255
1 0.32145363 0.43240118 255 255 255 255
1 0.78918421 0.24831825 255 255 255 255
1 0.16612272 0.4696961 255 255 255 255
1 0.79540712 0.18415813 255 255 255 255
1 0.43741781 0.12656097 255 255 255 255
1 0.24093682 0.123711 255 255 255 255
1 0.31011581 0.77141356 255 255 255 255
1 0.29943439 0.8916828 255 255 255 255
1 0.39647302 0.39121339 255 255 255 255
1 0.81327808 0.055580705 255 255 255 255
1 0.69814128 0.31690818 255 255 255 255
1 0.52850312 0.6223411 255 255 255 255
1 0.75762206 0.39504749 255 255 255 255
1 0.29868659 0.54320323 255 255 255 255
1 0.39391375 0.29934573 255 255 255 255
1 0.98094004 0.71536738 255 255 255 255
1 0.73174691 0.7701242 255 255 255 255
1 0.96368563 0.89786965 255 255 255 255
1 0.23982035 0.75909275 255 255 255 255
1 0.082027756 0.67723817 255 255 255 255
1 0.88565367 0.32296458 255 255 255 255
1 0.80094916 0.19576949 255 255 255 255
1 0.094378151 0.10038356 255 255 255 255
1 0.087452315 0.49085116 255 255 255 255
1 0.49159697 0.90073037 255 255 255 255
1 0.5464319 0.18973824 255 255 255 255
1 0.21763857 0.074934997 255 255 255 255
1 0.81207937 0.97526062 255 255 255 255
1 0.46998248 0.11076597 255 255 255 255
1 0.51846385 0.86389625 255 255 255 255
1 0.41011173 0.49940389 255 255 255 255
1 0.57926363 0.14185864 255 255 255 255
1 0.26952812 0.54294926 255 255 255 255
1 0.039728258 0.50934845 255 255 255 255
1 0.30204195 0.12175602 255 255 255 255
1 0.18658662 0.18769565 255 255 255 255
1 0.4447206 0.98753577 255 255 255 255
1 0.38346514 0.53909874 255 255 255 255
1 0.087919347 0.47091746 255 255 255 255
1 0.029949903 0.57951629 255 255 255 255
1 0.37164783 0.5763818 255 255 255 255
1 0.76925457 0.58928639 255 255 255 255
1 0.65131676 0.58133394 255 255 255 255
1 0.564547 0.12129924 255 255 255 255
1 0.69209987 0.08301089 255 255 255 255
1 0.98519546 0.10221162 255 255 255 255
1 0.58241481 0.56445909 255 255 255 255
1 0.24407025 0.8519429 255 255 255 255
1 0.10740833 0.28379852 255 255 255 255
1 0.36129135 0.40945029 255 255 255 255
1 0.40555453 0.54787797 255 255 255 255
1 0.59714592 0.8502751 255 255 255 255
1 0.53541374 0.98061109 255 255 255 255
1 0.38937384 0.6233331 255 255 255 255
1 0.45152855 0.41932374 255 255 255 255
1 0.20284942 0.82317638 255 255 255 255
1 0.99570554 0.97210395 255 255 255 255
1 0.4124628 0.64702231 255 255 255 255
1 0.55343789 0.97700983 255 255 255 255
1 0.76832151 0.24553779 255 255 255 255
1 0.060020704 0.75351703 255 255 255 255
1 0.34774941 0.64243549 255 255 255 255
1 0.31797609 0.59181964 255 255 255 255
1 0.49437839 0.42538443 255 255 255 255
1 0.87561816 0.85566974 255 255 255 255
1 0.83483469 0.28117269 255 255 255 255
1 0.4035477 0.43198067 255 255 255 255
1 0.13144779 0.93896145 255 255 255 255
1 0.41259176 0.52082163 255 255 255 255
1 0.56229454 0.8641203 255 255 255 255
1 0.94014537 0.76514399 255 255 255 255
1 0.68729669 0.93585092 255 255 255 255
1 0.73724794 0.099759497 255 255 255 255
1 0.58287323 0.29068583 255 255 255 255
1 0.076769307 0.35119474 255 255 255 255
1 0.53622365 0.13679001 255 255 255 255
1 0.10471175 0.88397306 255 255 255 255
1 0.77922547 0.42268786 255 255 255 255
1 0.47579271 0.27360389 255 255 255 255
1 0.84807229 0.35141087 255 255 255 255
1 0.12927361 0.68290699 255 255 255 255
1 0.63258356 0.5328213 255 255 255 255
1 0.11488763 0.76403135 255 255 255 255
1 0.47178277 0.52747941 255 255 255 255
1 0.28485298 0.034077317 255 255 255 255
1 0.39159968 0.22499837 255 255 255 255
1 0.79922128 0.078896388 255 255 255 255
1 0.16084927 0.53646922 255 255 255 255
1 0.17865588 0.7437225 255 255 255 255
1 0.82715505 0.25542518 255 255 255 255
1 0.094917223 0.3633787 255 255 255 255
1 0.39221519 0.19962898 255 255 255 255
1 0.24735174 0.17144069 255 255 255 255
1 0.62231684 0.72314441 255 255 255 255
1 0.44504458 0.4703891 255 255 255 255
1 0.074555278 0.57431817 255 255 255 255
1 0.15329607 0.70713884 255 255 255 255
1 0.10713949 0.26818371 255 255 255 255
1 0.47117019 0.57892227 255 255 255 255
1 0.79566306 0.75602317 255 255 255 255
1 0.61299956 0.18726277 255 255 255 255
1 0.98102152 0.41222087 255 255 255 255
1 0.26615915 0.14187081 255 255 255 255
1 0.94869012 0.44481504 255 255 255 255
1 0.8855933 0.77584517 255 255 255 255
1 0.70024019 0.98051053 255 255 255 255
1 0.13922384 0.092455417 255 255 255 255
1 0.1801395 0.38657558 255 255 255 255
1 0.26389611 0.80245632 255 255 255 255
1 0.10972 0.70894068 255 255 255 255
1 0.27284539 0.18427528 255 255 255 255
1 0.28325889 0.42614147 255 255 255 255
1 0.89141411 0.39039835 255 255 255 255
1 0.69432515 0.36258429 255 255 255 255
1 0.9693206 0.48998824 255 255 255 255
1 0.11860745 0.58232015 255 255 255 255
1 0.67725104 0.099628977 255 255 255 255
1 0.99454105 0.94341016 255 255 255 255
1 0.2414998 0.94323111 255 255 255 255
1 0.3882252 0.12709309 255 255 255 255
1 0.71907628 0.088465422 255 255 255 255
1 0.1076036 0.85830015 255 255 255 255
1 0.18092084 0.28774309 255 255 255 255
1 0.24487571 0.44481695 255 255 255 255
1 0.090199403 0.35459572 255 255 255 255
1 0.15375765 0.3630448 255 255 255 255
1 0.53887099 0.43701652 255 255 255 255
1 0.78918624 0.4302851 255 255 255 255
1 0.82741487 0.48351142 255 255 255 255
1 0.79286939 0.79673553 255 255 255 255
1 0.97349966 0.91147685 255 255 255 255
1 0.37905568 0.6507507 255 255 255 255
1 0.011105813 0.37359673 255 255 255 255
1 0.59416085 0.25260562 255 255 255 255
1 0.31682786 0.98238605 255 255 255 255
1 0.37969869 0.035904143 255 255 255 255
1 0.070851468 0.4873023 255 255 255 255
1 0.89420426 0.25177231 255 255 255 255
1 0.77504539 0.13907999 255 255 255 255
1 0.69658929 0.86524481 255 255 255 255
1 0.49367571 0.85034692 255 255 255 255
1 0.22828957 0.032546692 255 255 255 255
1 0.28736344 0.017475836 255 255 255 255
1 0.4628318 0.11477834 255 255 255 255
1 0.50098723 0.25570118 255 255 255 255
1 0.91151386 0.47448692 255 255 255 255
1 0.16717802 0.29056954 255 255 255 255
1 0.1252376 0.17828383 255 255 255 255
1 0.66416627 0.71939844 255 255 255 255
1 0.43088943 0.98099411 255 255 255 255
1 0.70178449 0.81058812 255 255 255 255
1 0.016898271 0.77263594 255 255 255 255
1 0.29789042 0.91110253 255 255 255 255
1 0.024408257 0.072935797 255 255 255 255
1 0.050182533 0.72099751 255 255 255 255
1 0.93818057 0.54385823 255 255 255 255
1 0.57134444 0.16647017 255 255 255 255
1 0.57640493 0.8587079 255 255 255 255
1 0.183946 0.039236717 255 255 255 255
1 0.97348624 0.68493325 255 255 255 255
1 0.29493791 0.88500005 255 255 255 255
1 0.15942018 0.46211591 255 255 255 255
1 0.17556961 0.28465778 255 255 255 255
1 0.64039975 0.83973587 255 255 255 255
1 0.004056205 0.071289174 255 255 255 255
1 0.82073003 0.70584071 255 255 255 255
1 0.8818773 0.8376283 255 255 255 255
1 0.47847664 0.1797677 255 255 255 255
1 0.74873084 0.50288486 255 255 255 255
1 0.25270352 0.79891336 255 255 255 255
1 0.22388242 0.19088408 255 255 255 255
1 0.34277159 0.79522687 255 255 255 255
1 0.35735425 0.91917652 255 255 255 255
1 0.65393478 0.54130024 255 255 255 255
1 0.95841324 0.62742096 255 255 255 255
1 0.22623351 0.25335112 255 255 255 255
1 0.51242107 0.38565367 255 255 255 255
1 0.71546704 0.68799067 255 255 255 255
1 0.67031145 0.35586676 255 255 255 255
1 0.52772653 0.67436767 255 255 255 255
1 0.42715594 0.34845656 255 255 255 255
1 0.38020834 0.30903324 255 255 255 255
1 0.18608482 0.85868496 255 255 255 255
1 0.48880094 0.93481565 255 255 255 255
1 0.36156988 0.74150443 255 255 255 255
1 0.733729 0.58545232 255 255 255 255
1 0.93238854 0.076500595 255 255 255 255
1 0.38067916 0.2897428 255 255 255 255
1 0.99567711 0.034613911 255 255 255 255
1 0.83104306 0.95409036 255 255 255 255
1 0.66203487 0.057276551 255 255 255 255
1 0.20744145 0.17445594 255 255 255 255
1 0.44293022 0.92290848 255 255 255 255
1 0.86244661 0.11324169 255 255 255 255
1 0.27877524 0.39017314 255 255 255 255
1 0.78760934 0.70593119 255 255 255 255
1 0.7386297 0.1678177 255 255 255 255
1 0.014964437 0.92471451 255 255 255 255
1 0.026502676 0.5037654 255 255 255 255
1 0.85953015 0.38807255 255 255 255 255
1 0.24526982 0.59325916 255 255 255 255
1 0.97352487 0.17765835 255 255 255 255
1 0.66975975 0.354204 255 255 255 255
1 0.46740115 0.66543686 255 255 255 255
1 0.38881794 0.29844418 255 255 255 255
1 0.61952716 0.050852817 255 255 255 255
1 0.35572073 0.82696867 255 255 255 255
1 0.22530876 0.79865098 255 255 255 255
1 0.74987715 0.087755367 255 255 255 255
1 0.91189265 0.028652385 255 255 255 255
1 0.47792852 0.69950199 255 255 255 255
1 0.73458362 0.2165582 255 255 255 255
1 0.8673197 0.74954802 255 255 255 255
1 0.14127272 0.89382237 255 255 255 255
1 0.25331339 0.00080288295 255 255 255 255
1 0.28189492 0.49858323 255 255 255 255
1 0.59406203 0.25541979 255 255 255 255
1 0.67624158 0.26382181 255 255 255 255
1 0.60962379 0.14364271 255 255 255 255
1 0.92925864 0.9984417 255 255 255 255
1 0.44208688 0.54878587 255 255 255 255
1 0.049294531 0.79780763 255 255 255 255
1 0.37575451 0.27460328 255 255 255 255
1 0.59645855 0.12563163 255 255 255 255
1 0.36235866 0.50835121 255 255 255 255
1 0.15428402 0.84028715 255 255 255 255
1 0.20785323 0.88886762 255 255 255 255
1 0.056845371 0.075172916 255 255 255 255
1 0.63841563 0.19811809 255 255 255 255
1 0.96899527 0.891729 255 255 255 255
1 0.19892098 0.25089023 255 255 255 255
1 0.39031225 0.792983 255 255 255 255
1 0.50630999 0.066553816 255 255 255 255
1 0.056804828 0.11593378 255 255 255 255
1 0.21019652 0.98606348 255 255 255 255
1 0.11437549 0.65228343 255 255 255 255
1 0.53484935 0.16367003 255 255 255 255
1 0.450091 0.91060382 255 255 255 255
1 0.43827331 0.046549585 255 255 255 255
1 0.036235463 0.800632 255 255 255 255
1 0.55490083 0.19051947 255 255 255 255
1 0.64091915 0.76275402 255 255 255 255
1 0.079387069 0.69776452 255 255 255 255
1 0.83792692 0.7178027 255 255 255 255
1 0.89588261 0.80692226 255 255 255 255
1 0.6095317 0.094803579 255 255 255 255
1 0.057812445 0.99984396 255 255 255 255
1 0.88778663 0.56412244 255 255 255 255
1 0.066397771 0.9445914 255 255 255 255
1 0.68005621 0.27659428 255 255 255 255
1 0.93065494 0.79443169 255 255 255 255
1 0.92887771 0.46550426 255 255 255 255
1 0.95810175 0.37896872 255 255 255 255
1 0.37610811 0.39637506 255 255 255 255
1 0.4255183 0.41234356 255 255 255 255
1 0.19700703 0.9804191 255 255 255 255
1 0.60286307 0.83792621 255 255 255 255
1 0.74317312 0.68225014 255 255 255 255
1 0.53569072 0.58110011 255 255 255 255
1 0.40005282 0.4315733 255 255 255 255
1 0.3880223 0.0095845172 255 255 255 255
1 0.5263769 0.44583476 255 255 255 255
1 0.0094284713 0.4141635 255 255 255 255
1 0.0099571906 0.075826243 255 255 255 255
1 0.35875493 0.69001341 255 255 255 255
1 0.35242054 0.28940985 255 255 255 255
1 0.48444512 0.28129825 255 255 255 255
1 0.7549141 0.44254684 255 255 255 255
1 0.66026694 0.13102221 255 255 255 255
1 0.8389219 0.085785255 255 255 255 255
1 0.54336578 0.035928957 255 255 255 255
1 0.066204362 0.14622883 255 255 255 255
1 0.87385511 0.80937749 255 255 255 255
1 0.82847893 0.40954584 255 255 255 255
1 0.39047757 0.22853175 255 255 255 255
1 0.84111911 0.7784999 255 255 255 255
1 0.23811626 0.36749601 255 255 255 255
1 0.22433466 0.24754474 255 255 255 255
1 0.78165948 0.23429184 255 255 255 255
1 0.32337099 0.14041443 255 255 255 255
1 0.92430526 0.6757915 255 255 255 255
1 0.42982426 0.40875036 255 255 255 255
1 0.95708978 0.18473838 255 255 255 255
1 0.8512972 0.61735672 255 255 255 255
1 0.31576061 0.69021916 255 255 255 255
1 0.70314193 0.85912639 255 255 255 255
1 0.72614813 0.7693463 255 255 255 255
1 0.0053552175 0.60000324 255 255 255 255
1 0.57872379 0.83383417 255 255 255 255
1 0.0095490748 0.96920139 255 255 255 255
1 0.062365916 0.85066819 255 255 255 255
1 0.74770129 0.30048218 255 255 255 255
1 0.21816424 0.97203594 255 255 255 255
1 0.54802692 0.99982375 255 255 255 255
1 0.2063278 0.87139791 255 255 255 255
1 0.14023817 0.13063304 255 255 255 255
1 0.54718941 0.57006246 255 255 255 255
1 0.53938341 0.5042792 255 255 255 255
1 0.75480086 0.39068061 255 255 255 255
1 0.12163588 0.070561424 255 255 255 255
1 0.080899768 0.82477784 255 255 255 255
1 0.9296878 0.80704784 255 255 255 255
1 0.59412414 0.93504304 255 255 255 255
1 0.40705112 0.17284799 255 255 255 255
1 0.76887721 0.4166002 255 255 255 255
1 0.14204939 0.8312431 255 255 255 255
1 0.26726839 0.88975066 255 255 255 255
1 0.1317253 0.48543262 255 255 255 255
1 0.8617866 0.67975223 255 255 255 255
1 0.48525637 0.068114415 255 255 255 255
1 0.55115014 0.62549454 255 255 255 255
1 0.19874746 0.098339565 255 255 255 255
1 0.195557 0.73813087 255 255 255 255
1 0.60261875 0.95035779 255 255 255 255
1 0.12881148 0.72425461 255 255 255 255
1 0.020919247 0.20971124 255 255 255 255
1 0.54903245 0.95060706 255 255 255 255
1 0.016759116 0.14315665 255 255 255 255
1 0.8856501 0.42381021 255 255 255 255
1 0.31600463 0.65452731 255 255 255 255
1 0.84041041 0.45805401 255 255 255 255
1 0.48577037 0.10767881 255 255 255 255
1 0.34780467 0.61749566 255 255 255 255
1 0.59311146 0.2095913 255 255 255 255
1 0.29724792 0.078367814 255 255 255 255
1 0.27770573 0.84839803 255 255 255 255
1 0.70386237 0.47645316 255 255 255 255
1 0.94673759 0.89941937 255 255 255 255
1 0.21458401 0.54935634 255 255 255 255
1 0.84977716 0.3433955 255 255 255 255
1 0.27361098 0.87069643 255 255 255 255
1 0.55310673 0.82264346 255 255 255 255
1 0.82130349 0.56986582 255 255 255 255
1 0.96580011 0.70695359 255 255 255 255
1 0.99367607 0.28180471 255 255 255 255
1 0.36148086 0.83408648 255 255 255 255
1 0.73985875 0.84725124 255 255 255 255
1 0.94176531 0.087663405 255 255 255 255
1 0.46474692 0.53487676 255 255 255 255
1 0.29725471 0.76199484 255 255 255 255
1 0.61324453 0.57496041 255 255 255 255
1 0.61039287 0.31710693 255 255 255 255
1 0.051413585 0.55713046 255 255 255 255
1 0.21652627 0.26599759 255 255 255 255
1 0.10648683 0.066303454 255 255 255 255
1 0.60939312 0.38009781 255 255 255 255
1 0.93699986 0.16249983 255 255 255 255
1 0.20274128 0.75830334 255 255 255 255
1 0.73236567 0.16854139 255 255 255 255
1 0.46525693 0.72604173 255 255 255 255
1 0.45034611 0.82673776 255 255 255 255
1 0.56012827 0.19020483 255 255 255 255
1 0.673989 0.50189352 255 255 255 255
1 0.27786824 0.13873595 255 255 255 255
1 0.036770284 0.57512295 255 255 255 255
1 0.90073079 0.65001482 255 255 255 255
1 0.15008336 0.51112366 255 255 255 255
1 0.96712178 0.20149696 255 255 255 255
1 0.068254128 0.18364803 255 255 255 255
1 0.46749455 0.17474097 255 255 255 255
1 0.2499515 0.076887645 255 255 255 255
1 0.55483878 0.18695137 255 255 255 255
1 0.23938748 0.75758004 255 255 255 255
1 0.94525474 0.97175318 255 255 255 255
1 0.92612147 0.41051167 255 255 255 255
1 0.69779491 0.37646756 255 255 255 255
1 0.23724948 0.25792316 255 255 255 255
1 0.56667238 0.91123849 255 255 255 255
1 0.75981671 0.84454066 255 255 255 255
1 0.049974445 0.79658699 255 255 255 255
1 0.41966358 0.95070523 255 255 255 255
1 0.44660184 0.56974697 255 255 255 255
1 0.46182886 0.41372359 255 255 255 255
1 0.77124393 0.530083 255 255 255 255
1 0.59737164 0.23873846 255 255 255 255
1 0.70482397 0.84732312 255 255 255 255
1 0.31562611 0.25966275 255 255 255 255
1 0.034274489 0.5550136 255 255 255 255
1 0.017242821 0.97952926 255 255 255 255
1 0.52676672 0.94336426 255 255 255 255
1 0.39004093 0.22456166 255 255 255 255
1 0.31983182 0.62729037 255 255 255 255
1 0.48248482 0.88650423 255 255 255 255
1 0.53852892 0.24230152 255 255 255 255
1 0.73104489 0.58850336 255 255 255 255
1 0.038888507 0.15070845 255 255 255 255
1 0.53920853 0.48549032 255 255 255 255
1 0.72045541 0.0010374314 255 255 255 255
1 0.89921391 0.49169934 255 255 255 255
1 0.53112042 0.49658555 255 255 255 255
1 0.73043782 0.23594441 255 255 255 255
1 0.34390867 0.046063911 255 255 255 255
1 0.49560717 0.37818316 255 255 255 255
1 0.6010775 0.51284999 255 255 255 255
1 0.35771239 0.12784424 255 255 255 255
1 0.45621425 0.74775332 255 255 255 255
1 0.35240591 0.7760461 255 255 255 255
1 0.37504369 0.83489072 255 255 255 255
1 0.66255033 0.91357261 255 255 255 255
1 0.077192247 0.39359519 255 255 255 255
1 0.50207591 0.11608075 255 255 255 255
1 0.54430366 0.041284487 255 255 255 255
1 0.60157108 0.26475906 255 255 255 255
1 0.04232192 0.50078499 255 255 255 255
1 0.7564584 0.57344234 255 255 255 255
1 0.99737054 0.48689619 255 255 255 255
1 0.80938673 0.34127921 255 255 255 255
1 0.53296012 0.30499393 255 255 255 255
1 0.71946234 0.1340376 255 255 255 255
1 0.81784391 0.077174738 255 255 255 255
1 0.26188186 0.27405813 255 255 255 255
1 0.82492805 0.61428773 255 255 255 255
1 0.050104231 0.19997174 255 255 255 255
1 0.44917849 0.71265453 255 255 255 255
1 0.11354433 0.5263707 255 255 255 255
1 0.10624973 0.61562026 255 255 255 255
1 0.64245147 0.65055335 255 255 255 255
1 0.65690476 0.24402256 255 255 255 255
1 0.91531241 0.69922668 255 255 255 255
1 0.74480754 0.67177081 255 255 255 255
1 0.27266902 0.74217814 255 255 255 255
1 0.15866698 0.082055777 255 255 255 255
1 0.083457328 0.69162709 255 255 255 255
1 0.3870497 0.80291969 255 255 255 255
1 0.8256647 0.20489359 255 255 255 255
1 0.88009441 0.087546512 255 255 255 255
1 0.47895175 0.70502245 255 255 255 255
1 0.70183426 0.52905595 255 255 255 255
1 0.90499419 0.15101273 255 255 255 255
1 0.24171051 0.018538518 255 255 255 255
1 0.67738348 0.34796023 255 255 255 255
1 0.63415879 0.31983492 255 255 255 255
1 0.99851364 0.29106352 255 255 255 255
1 0.5638575 0.91382605 255 255 255 255
1 0.99029016 0.30866507 255 255 255 255
1 0.58559686 0.26295921 255 255 255 255
1 0.050843172 0.74426383 255 255 255 255
1 0.34501499 0.1343005 255 255 255 255
1 0.43589088 0.73206466 255 255 255 255
1 0.93722016 0.26155555 255 255 255 255
1 0.93695825 0.81731457 255 255 255 255
1 0.34910208 0.41591001 255 255 255 255
1 0.52233702 0.050936345 255 255 255 255
1 0.94496596 0.42733124 255 255 255 255
1 0.20194909 0.18667649 255 255 255 255
1 0.44586974 0.87933254 255 255 255 255
1 0.53463674 0.080028534 255 255 255 255
1 0.19916748 0.53315037 255 255 255 255
1 0.37109205 0.76302499 255 255 255 255
1 0.44697639 0.36138222 255 255 255 255
1 0.071690015 0.032573219 255 255 255 255
1 0.62434143 0.12253319 255 255 255 255
1 0.77683705 0.96935642 255 255 255 255
1 0.25683367 0.21272793 255 255 255 255
1 0.70142108 0.19405387 255 255 255 255
1 0.47428352 0.63837934 255 255 255 255
1 0.011368461 0.8233856 255 255 255 255
1 0.054289352 0.53370553 255 255 255 255
1 0.87432194 0.99925536 255 255 255 255
1 0.96103674 0.076271012 255 255 255 255
1 0.18593183 0.40690652 255 255 255 255
1 0.95560354 0.72056854 255 255 255 255
1 0.48693505 0.15477103 255 255 255 255
1 0.25371891 0.8580271 255 255 255 255
1 0.91779602 0.70069528 255 255 255 255
1 0.21940932 0.98948598 255 255 255 255
1 0.7332685 0.84375077 255 255 255 255
1 0.11201919 0.51010555 255 255 255 255
1 0.81310713 0.36885288 255 255 255 255
1 0.72283351 0.51452821 255 255 255 255
1 0.56290674 0.197117 255 255 255 255
1 0.15290758 0.5742752 255 255 255 255
1 0.020502578 0.20719694 255 255 255 255
1 0.10798071 0.8948245 255 255 255 255
1 0.20645227 0.06901747 255 255 255 255
1 0.9710955 0.39238408 255 255 255 255
1 0.47592399 0.9266991 255 255 255 255
1 0.11295266 0.96285903 255 255 255 255
1 0.08147011 0.36667156 255 255 255 255
1 0.82088608 0.99926609 255 255 255 255
1 0.067366861 0.040295422 255 255 255 255
1 0.98875213 0.8006354 255 255 255 255
1 0.8840462 0.10077129 255 255 255 255
1 0.31074092 0.69715333 255 255 255 255
1 0.46962416 0.033574417 255 255 255 255
1 0.21168156 0.032530915 255 255 255 255
1 0.23069142 0.36458915 255 255 255 255
1 0.6068061 0.251194 255 255 255 255
1 0.57178611 0.71478683 255 255 255 255
1 0.14601851 0.77823836 255 255 255 255
1 0.7838043 0.11711402 255 255 255 255
1 0.17062244 0.25972828 255 255 255 255
1 0.043813102 0.28357509 255 255 255 255
1 0.2225873 0.12528321 255 255 255 255
1 0.65024668 0.043473396 255 255 255 255
1 0.12454931 0.71761352 255 255 255 255
1 0.083768822 0.1133014 255 255 255 255
1 0.51824892 0.96781498 255 255 255 255
1 0.21407269 0.8289898 255 255 255 255
1 0.66496831 0.68369687 255 255 255 255
1 0.86256427 0.87664986 255 255 255 255
1 0.71622777 0.093255661 255 255 255 255
1 0.24123901 0.3230339 255 255 255 255
1 0.34444964 0.81302512 255 255 255 255
1 0.037820742 0.49046814 255 255 255 255
1 0.59126347 0.82162505 255 255 255 255
1 0.60758215 0.76188588 255 255 255 255
1 0.081353329 0.65139526 255 255 255 255
1 0.045460984 0.30394062 255 255 255 255
1 0.7766785 0.69570762 255 255 255 255
1 0.34741402 0.90122777 255 255 255 255
1 0.41332117 0.43118283 255 255 255 255
1 0.014529197 0.93157005 255 255 255 255
1 0.39899784 0.22860189 255 255 255 255
1 0.76055992 0.063966148 255 255 255 255
1 0.91229874 0.62312412 255 255 255 255
1 0.94061601 0.62852657 255 255 255 255
1 0.71637982 0.18185504 255 255 255 255
1 0.95156044 0.060829468 255 255 255 255
1 0.99488014 0.98938119 255 255 255 255
1 0.55129761 0.58614361 255 255 255 255
1 0.81100625 0.1588798 255 255 255 255
1 0.34802946 0.89235955 255 255 255 255
1 0.81027508 0.39349046 255 255 255 255
1 0.19630019 0.58695358 255 255 255 255
1 0.089198098 0.54371423 255 255 255 255
1 0.48818135 0.50251925 255 255 255 255
1 0.97489709 0.50271052 255 255 255 255
1 0.43408936 0.3738949 255 255 255 255
1 0.73131245 0.19464925 255 255 255 255
1 0.43786103 0.64361119 255 255 255 255
1 0.8177734 0.37847707 255 255 255 255
1 0.27213773 0.53415322 255 255 255 255
1 0.56033212 0.22369818 255 255 255 255
1 0.59498268 0.5552122 255 255 255 255
1 0.21307936 0.1462803 255 255 255 255
1 0.14135581 0.0240856 255 255 255 255
1 0.30516011 0.48938528 255 255 255 255
1 0.9164452 0.11543517 255 255 255 255
1 0.88287574 0.11274536 255 255 255 255
1 0.7023887 0.97207385 255 255 255 255
1 0.65645957 0.19057007 255 255 255 255
1 0.4745931 0.63135666 255 255 255 255
1 0.69328064 0.90868247 255 255 255 255
1 0.0052515259 0.42459306 255 255 255 255
1 0.10333171 0.44311255 255 255 255 255
1 0.068204254 0.92110509 255 255 255 255
1 0.82158959 0.34034199 255 255 255 255
1 0.45525831 0.38192171 255 255 255 255
1 0.56404018 0.050241001 255 255 255 255
1 0.93713397 0.77711952 255 255 255 255
1 0.1965213 0.078489751 255 255 255 255
1 0.80120516 0.50168139 255 255 255 255
1 0.56787503 0.71765029 255 255 255 255
1 0.61711657 0.45075077 255 255 255 255
1 0.83039564 0.3195053 255 255 255 255
1 0.42282459 0.48685524 255 255 255 255
1 0.51007539 0.89741772 255 255 255 255
1 0.11821187 0.203356 255 255 255 255
1 0.80610019 0.1234634 255 255 255 255
1 0.62794906 0.90943187 255 255 255 255
1 0.56657594 0.69615328 255 255 255 255
1 0.83053702 0.38816556 255 255 255 255
1 0.036495291 0.28579533 255 255 255 255
1 0.7700873 0.60053545 255 255 255 255
1 0.33603632 0.70722121 255 255 255 255
1 0.377655 0.53255761 255 255 255 255
1 0.78571099 0.17886013 255 255 255 255
1 0.03423902 0.35358602 255 255 255 255
1 0.89651042 0.65135556 255 255 255 255
1 0.80433679 0.72690606 255 255 255 255
1 0.9708609 0.22716138 255 255 255 255
1 0.21376133 0.48093626 255 255 255 255
1 0.1245791 0.3319732 255 255 255 255
1 0.68429226 0.93067926 255 255 255 255
1 0.45543659 0.31224129 255 255 255 255
1 0.84011114 0.022012552 255 255 255 255
1 0.0083945999 0.67064816 255 255 255 255
1 0.41017812 0.044889893 255 255 255 255
1 0.95644349 0.18026541 255 255 255 255
1 0.64542538 0.29247981 255 255 255 255
1 0.88748664 0.023080347 255 255 255 255
1 0.82503742 0.67319763 255 255 255 255
1 0.20194048 0.85927647 255 255 255 255
1 0.026783619 0.098450899 255 255 255 255
1 0.51063204 0.83112037 255 255 255 255
1 0.82535696 0.48149291 255 255 255 255
1 0.058281779 0.039118312 255 255 255 255
1 0.96242917 0.18286088 255 255 255 255
1 0.37109151 0.64672142 255 255 255 255
1 0.11354016 0.82652807 255 255 255 255
1 0.95896274 0.95365131 255 255 255 255
1 0.84854066 0.96735734 255 255 255 255
1 0.62429947 0.25871879 255 255 255 255
1 0.01224721 0.58074296 255 255 255 255
1 0.43898419 0.65767258 255 255 255 255
1 0.87322277 0.32647082 255 255 255 255
1 0.68075293 0.69826019 255 255 255 255
1 0.99966842 0.88269341 255 255 255 255
1 0.5575366 0.026452063 255 255 255 255
1 0.98114431 0.068168662 255 255 255 255
1 0.85757244 0.80650127 255 255 255 255
1 0.54966158 0.91585422 255 255 255 255
1 0.84561956 0.51209074 255 255 255 255
1 0.098715119 0.21671109 255 255 255 255
1 0.15881217 0.21225527 255 255 255 255
1 0.043239195 0.11777489 255 255 255 255
1 0.16590659 0.89177984 255 255 255 255
1 0.085132204 0.79020607 255 255 255 255
1 0.15049863 0.097379416 255 255 255 255
1 0.37094903 0.58948284 255 255 255 255
1 0.75505197 0.2441718 255 255 255 255
1 0.91595364 0.4358049 255 255 255 255
1 0.94243199 0.91562212 255 255 255 255
1 0.31849828 0.49996859 255 255 255 255
1 0.94207418 0.29964256 255 255 255 255
1 0.56813729 0.79964662 255 255 255 255
1 0.10614383 0.11779884 255 255 255 255
1 0.71550089 0.95176339 255 255 255 255
1 0.62988961 0.81421596 255 255 255 255
1 0.16847451 0.78870177 255 255 255 255
1 0.026471257 0.2117137 255 255 255 255
1 0.90647668 0.19237785 255 255 255 255
1 0.10349356 0.99160886 255 255 255 255
1 0.98258394 0.2539922 255 255 255 255
1 0.088988274 0.35353297 255 255 255 255
1 0.84347498 0.84404027 255 255 255 255
1 0.59770477 0.75942868 255 255 255 255
1 0.27984515 0.54013675 255 255 255 255
1 0.6750508 0.59834343 255 255 255 255
1 0.040105328 0.61712492 255 255 255 255
1 0.89798599 0.60824257 255 255 255 255
1 0.41677156 0.0041298084 255 255 255 255
1 0.72604144 0.13227242 255 255 255 255
1 0.95589322 0.35593101 255 255 255 255
1 0.94648838 0.12436774 255 255 255 255
1 0.14463277 0.97295964 255 255 255 255
1 0.33608145 0.051109422 255 255 255 255
1 0.16533752 0.43957502 255 255 255 255
1 0.042718276 0.14792144 255 255 255 255
1 0.69356722 0.13170655 255 255 255 255
1 0.50145441 0.5370422 255 255 255 255
1 0.97574681 0.099159159 255 255 255 255
1 0.29647088 0.25559196 255 255 255 255
1 0.63929588 0.97152168 255 255 255 255
1 0.85393536 0.67940122 255 255 255 255
1 0.58864659 0.75192136 255 255 255 255
1 0.28764382 0.0054181423 255 255 255 255
1 0.75605112 0.013685229 255 255 255 255
1 0.13769056 0.7119444 255 255 255 255
1 0.36961624 0.084178962 255 255 255 255
1 0.83631212 0.51424903 255 255 255 255
1 0.057138622 0.17239358 255 255 255 255
1 0.56535846 0.22247614 255 255 255 255
