# .PCD v0.7 - Point Cloud Data file format
VERSION 0.7
FIELDS x y z rgba
SIZE 4 4 4 4
TYPE F F F U
COUNT 1 1 1 1
WIDTH 1292
HEIGHT 1
VIEWPOINT 0 0 0 1 0 0 0
POINTS 1292
DATA ascii
0 0.112786 0.902705 255 255 255 255 
0 0.32583 0.124534 255 255 255 255 
0 0.633041 0.766566 255 255 255 255 
0 0.783608 0.710216 255 255 255 255 
0 0.0614358 0.51216 255 255 255 255 
0 0.206708 0.65953 255 255 255 255 
0 0.793611 0.0155228 255 255 255 255 
0 0.965389 0.894236 255 255 255 255 
0 0.415443 0.0180997 255 255 255 255 
0 0.199817 0.603767 255 255 255 255 
0 0.829697 0.456541 255 255 255 255 
0 0.947745 0.306479 255 255 255 255 
0 0.308399 0.615696 255 255 255 255 
0 0.730008 0.781956 255 255 255 255 
0 0.326133 0.480377 255 255 255 255 
0 0.539504 0.438919 255 255 255 255 
0 0.383083 0.865333 255 255 255 255 
0 0.563453 0.0161232 255 255 255 255 
0 0.631899 0.347062 255 255 255 255 
0 0.726339 0.693335 255 255 255 255 
0 0.859221 0.933048 255 255 255 255 
0 0.352865 0.652832 255 255 255 255 
0 0.948571 0.318254 255 255 255 255 
0 0.547068 0.364014 255 255 255 255 
0 0.336354 0.746885 255 255 255 255 
0 0.967781 0.166051 255 255 255 255 
0 0.203426 0.915526 255 255 255 255 
0 0.47253 0.511826 255 255 255 255 
0 0.531221 0.202538 255 255 255 255 
0 0.293781 0.857354 255 255 255 255 
0 0.682915 0.833285 255 255 255 255 
0 0.296274 0.065998 255 255 255 255 
0 0.698618 0.859727 255 255 255 255 
0 0.0821213 0.330517 255 255 255 255 
0 0.206789 0.808461 255 255 255 255 
0 0.0238521 0.0660099 255 255 255 255 
0 0.741509 0.376717 255 255 255 255 
0 0.718842 0.690079 255 255 255 255 
0 0.694972 0.265911 255 255 255 255 
0 0.0540928 0.0313255 255 255 255 255 
0 0.0127959 0.0218734 255 255 255 255 
0 0.197376 0.216222 255 255 255 255 
0 0.937399 0.669906 255 255 255 255 
0 0.728048 0.468621 255 255 255 255 
0 0.872444 0.0218291 255 255 255 255 
0 0.325975 0.55536 255 255 255 255 
0 0.855114 0.622249 255 255 255 255 
0 0.621358 0.553732 255 255 255 255 
0 0.481976 0.703479 255 255 255 255 
0 0.884249 0.688764 255 255 255 255 
0 0.51194 0.908101 255 255 255 255 
0 0.754774 0.253448 255 255 255 255 
0 0.284819 0.473617 255 255 255 255 
0 0.943527 0.97979 255 255 255 255 
0 0.739527 0.99762 255 255 255 255 
0 0.0111159 0.752323 255 255 255 255 
0 0.0194935 0.208492 255 255 255 255 
0 0.968545 0.956893 255 255 255 255 
0 0.878398 0.696593 255 255 255 255 
0 0.425513 0.750843 255 255 255 255 
0 0.718422 0.751488 255 255 255 255 
0 0.306202 0.573536 255 255 255 255 
0 0.373737 0.92756 255 255 255 255 
0 0.127268 0.855713 255 255 255 255 
0 0.631039 0.0115171 255 255 255 255 
0 0.544477 0.142978 255 255 255 255 
0 0.919618 0.299251 255 255 255 255 
0 0.396426 0.204437 255 255 255 255 
0 0.772868 0.339954 255 255 255 255 
0 0.184227 0.512395 255 255 255 255 
0 0.337574 0.195343 255 255 255 255 
0 0.264719 0.357068 255 255 255 255 
0 0.403836 0.233264 255 255 255 255 
0 0.31396 0.282234 255 255 255 255 
0 0.929857 0.739474 255 255 255 255 
0 0.0330767 0.648279 255 255 255 255 
0 0.490962 0.339279 255 255 255 255 
0 0.221815 0.864699 255 255 255 255 
0 0.266839 0.349083 255 255 255 255 
0 0.720412 0.897877 255 255 255 255 
0 0.3606 0.264889 255 255 255 255 
0 0.0408557 0.280218 255 255 255 255 
0 0.56414 0.437282 255 255 255 255 
0 0.484656 0.337008 255 255 255 255 
0 0.777236 0.668883 255 255 255 255 
0 0.849403 0.11481 255 255 255 255 
0 0.864226 0.114122 255 255 255 255 
0 0.471878 0.268062 255 255 255 255 
0 0.347386 0.785838 255 255 255 255 
0 0.550296 0.277243 255 255 255 255 
0 0.525311 0.583373 255 255 255 255 
0 0.925522 0.0162735 255 255 255 255 
0 0.922652 0.147337 255 255 255 255 
0 0.880972 0.18949 255 255 255 255 
0 0.49642 0.601384 255 255 255 255 
0 0.0873678 0.85702 255 255 255 255 
0 0.866273 0.128223 255 255 255 255 
0 0.137239 0.430413 255 255 255 255 
0 0.565506 0.621894 255 255 255 255 
0 0.767421 0.342742 255 255 255 255 
0 0.290777 0.616824 255 255 255 255 
0 0.457552 0.155004 255 255 255 255 
0 0.730946 0.929429 255 255 255 255 
0 0.423066 0.0783323 255 255 255 255 
0 0.715267 0.973362 255 255 255 255 
0 0.355575 0.240578 255 255 255 255 
0 0.556734 0.281098 255 255 255 255 
0 0.256852 0.479386 255 255 255 255 
0 0.428435 0.137824 255 255 255 255 
0 0.668876 0.924855 255 255 255 255 
0 0.739208 0.756244 255 255 255 255 
0 0.781875 0.605481 255 255 255 255 
0 0.884468 0.919114 255 255 255 255 
0 0.0358934 0.449973 255 255 255 255 
0 0.541008 0.803314 255 255 255 255 
0 0.792715 0.831786 255 255 255 255 
0 0.420138 0.250266 255 255 255 255 
0 0.98679 0.151084 255 255 255 255 
0 0.179695 0.409855 255 255 255 255 
0 0.229416 0.894962 255 255 255 255 
0 0.383217 0.584992 255 255 255 255 
0 0.135541 0.939951 255 255 255 255 
0 0.866089 0.392392 255 255 255 255 
0 0.419337 0.294524 255 255 255 255 
0 0.530216 0.0882138 255 255 255 255 
0 0.219379 0.269425 255 255 255 255 
0 0.844458 0.00125479 255 255 255 255 
0 0.874905 0.728926 255 255 255 255 
0 0.920369 0.910799 255 255 255 255 
0 0.178899 0.461377 255 255 255 255 
0 0.714113 0.971614 255 255 255 255 
0 0.293163 0.134251 255 255 255 255 
0 0.22188 0.279953 255 255 255 255 
0 0.285335 0.401576 255 255 255 255 
0 0.689808 0.514751 255 255 255 255 
0 0.296538 0.0730249 255 255 255 255 
0 0.0997425 0.432078 255 255 255 255 
0 0.0129763 0.965832 255 255 255 255 
0 0.824471 0.432314 255 255 255 255 
0 0.260356 0.354687 255 255 255 255 
0 0.520527 0.479735 255 255 255 255 
0 0.624112 0.364986 255 255 255 255 
0 0.48099 0.499017 255 255 255 255 
0 0.0939113 0.401359 255 255 255 255 
0 0.409816 0.27281 255 255 255 255 
0 0.862737 0.123928 255 255 255 255 
0 0.244424 0.1559 255 255 255 255 
0 0.258179 0.466304 255 255 255 255 
0 0.435853 0.543513 255 255 255 255 
0 0.86788 0.125661 255 255 255 255 
0 0.058264 0.164418 255 255 255 255 
0 0.198685 0.158007 255 255 255 255 
0 0.596496 0.211662 255 255 255 255 
0 0.123838 0.420967 255 255 255 255 
0 0.643975 0.384194 255 255 255 255 
0 0.775654 0.164503 255 255 255 255 
0 0.86393 0.399766 255 255 255 255 
0 0.529488 0.34492 255 255 255 255 
0 0.898782 0.6234 255 255 255 255 
0 0.746279 0.308598 255 255 255 255 
0 0.89621 0.609016 255 255 255 255 
0 0.432526 0.140634 255 255 255 255 
0 0.764916 0.690705 255 255 255 255 
0 0.606938 0.200768 255 255 255 255 
0 0.234218 0.474818 255 255 255 255 
0 0.326429 0.292482 255 255 255 255 
0 0.639236 0.525114 255 255 255 255 
0 0.450488 0.235733 255 255 255 255 
0 0.736776 0.574327 255 255 255 255 
0 0.6567 0.380751 255 255 255 255 
0 0.958521 0.432354 255 255 255 255 
0 0.545254 0.822451 255 255 255 255 
0 0.832119 0.0747425 255 255 255 255 
0 0.167371 0.730902 255 255 255 255 
0 0.698142 0.913651 255 255 255 255 
0 0.0394999 0.594352 255 255 255 255 
0 0.522667 0.472026 255 255 255 255 
0 0.734986 0.287582 255 255 255 255 
0 0.162731 0.341924 255 255 255 255 
0 0.488351 0.396949 255 255 255 255 
0 0.816743 0.81478 255 255 255 255 
0 0.68943 0.455979 255 255 255 255 
0 0.339894 0.139919 255 255 255 255 
0 0.691712 0.0766699 255 255 255 255 
0 0.714246 0.348412 255 255 255 255 
0 0.457421 0.672767 255 255 255 255 
0 0.780766 0.00267534 255 255 255 255 
0 0.495218 0.612885 255 255 255 255 
0 0.0774178 0.662589 255 255 255 255 
0 0.343787 0.77556 255 255 255 255 
0 0.57624 0.383287 255 255 255 255 
0 0.369912 0.0989065 255 255 255 255 
0 0.855313 0.104898 255 255 255 255 
0 0.386489 0.0180434 255 255 255 255 
0 0.446822 0.87484 255 255 255 255 
0 0.414992 0.263565 255 255 255 255 
0 0.689619 0.104422 255 255 255 255 
0 0.719544 0.0295132 255 255 255 255 
0 0.244341 0.411256 255 255 255 255 
0 0.106183 0.958587 255 255 255 255 
0 0.759668 0.563604 255 255 255 255 
0 0.631354 0.540433 255 255 255 255 
0 0.56628 0.126572 255 255 255 255 
0 0.153319 0.643697 255 255 255 255 
0 0.789161 0.497106 255 255 255 255 
0 0.419257 0.365401 255 255 255 255 
0 0.880392 0.789169 255 255 255 255 
0 0.464307 0.735705 255 255 255 255 
0 0.894067 0.850796 255 255 255 255 
0 0.753749 0.340889 255 255 255 255 
0 0.725636 0.168741 255 255 255 255 
0 0.604454 0.415255 255 255 255 255 
0 0.273163 0.323998 255 255 255 255 
0 0.444768 0.517504 255 255 255 255 
0 0.735255 0.550951 255 255 255 255 
0 0.476091 0.494922 255 255 255 255 
0 0.114556 0.107444 255 255 255 255 
0 0.0353559 0.680835 255 255 255 255 
0 0.234016 0.188674 255 255 255 255 
0 0.324533 0.0231768 255 255 255 255 
0 0.68578 0.74379 255 255 255 255 
0 0.388578 0.566172 255 255 255 255 
0 0.532959 0.852885 255 255 255 255 
0 0.301877 0.427027 255 255 255 255 
0 0.703681 0.055626 255 255 255 255 
0 0.767916 0.429317 255 255 255 255 
0 0.224367 0.37237 255 255 255 255 
0 0.844572 0.497529 255 255 255 255 
0 0.696369 0.289341 255 255 255 255 
0 0.0150336 0.431623 255 255 255 255 
0 0.840292 0.491124 255 255 255 255 
0 0.926546 0.954848 255 255 255 255 
0 0.598569 0.961901 255 255 255 255 
0 0.635683 0.832585 255 255 255 255 
0 0.150576 0.960216 255 255 255 255 
0 0.855762 0.836356 255 255 255 255 
0 0.704006 0.244339 255 255 255 255 
0 0.402528 0.236966 255 255 255 255 
0 0.0972242 0.704406 255 255 255 255 
0 0.663992 0.800905 255 255 255 255 
0 0.760032 0.431908 255 255 255 255 
0 0.230223 0.984398 255 255 255 255 
0 0.804278 0.0747948 255 255 255 255 
0 0.481928 0.500647 255 255 255 255 
0 0.364136 0.496961 255 255 255 255 
0 0.93227 0.204428 255 255 255 255 
0 0.988086 0.858815 255 255 255 255 
0 0.159276 0.586655 255 255 255 255 
0 0.820717 0.794959 255 255 255 255 
0 0.419239 0.971293 255 255 255 255 
0 0.755175 0.275001 255 255 255 255 
0 0.807649 0.459181 255 255 255 255 
0 0.51934 0.210177 255 255 255 255 
0 0.696146 0.616565 255 255 255 255 
0 0.914583 0.360139 255 255 255 255 
0 0.41747 0.674615 255 255 255 255 
0 0.792046 0.647693 255 255 255 255 
0 0.659013 0.596324 255 255 255 255 
0 0.722487 0.140941 255 255 255 255 
0 0.0969712 0.0866229 255 255 255 255 
0 0.637902 0.0292411 255 255 255 255 
0 0.291051 0.625988 255 255 255 255 
0 0.888057 0.450326 255 255 255 255 
0 0.212642 0.708774 255 255 255 255 
0 0.245285 0.631882 255 255 255 255 
0 0.680067 0.000459744 255 255 255 255 
0 0.906883 0.487715 255 255 255 255 
0 0.459641 0.426223 255 255 255 255 
0 0.697893 0.155787 255 255 255 255 
0 0.042788 0.612476 255 255 255 255 
0 0.515926 0.460258 255 255 255 255 
0 0.28709 0.307972 255 255 255 255 
0 0.10795 0.946103 255 255 255 255 
0 0.904296 0.830438 255 255 255 255 
0 0.0870441 0.00126764 255 255 255 255 
0 0.917061 0.724946 255 255 255 255 
0 0.0305087 0.208111 255 255 255 255 
0 0.350934 0.918565 255 255 255 255 
0 0.658437 0.563577 255 255 255 255 
0 0.627339 0.903722 255 255 255 255 
0 0.195458 0.307405 255 255 255 255 
0 0.904182 0.102341 255 255 255 255 
0 0.795121 0.363823 255 255 255 255 
0 0.528565 0.493013 255 255 255 255 
0 0.51961 0.571353 255 255 255 255 
0 0.105489 0.0355356 255 255 255 255 
0 0.0316108 0.392579 255 255 255 255 
0 0.343508 0.139561 255 255 255 255 
0 0.338682 0.247804 255 255 255 255 
0 0.969999 0.425726 255 255 255 255 
0 0.249072 0.88706 255 255 255 255 
0 0.150673 0.27958 255 255 255 255 
0 0.0951712 0.501607 255 255 255 255 
0 0.198146 0.753609 255 255 255 255 
0 0.0651832 0.825484 255 255 255 255 
0 0.657331 0.260642 255 255 255 255 
0 0.13289 0.561513 255 255 255 255 
0 0.362983 0.928011 255 255 255 255 
0 0.925336 0.891548 255 255 255 255 
0 0.421024 0.444946 255 255 255 255 
0 0.462901 0.526513 255 255 255 255 
0 0.480482 0.494511 255 255 255 255 
0 0.919092 0.82399 255 255 255 255 
0 0.634073 0.257774 255 255 255 255 
0 0.0717936 0.604072 255 255 255 255 
0 0.683501 0.320865 255 255 255 255 
0 0.491132 0.834173 255 255 255 255 
0 0.600446 0.586303 255 255 255 255 
0 0.33578 0.798591 255 255 255 255 
0 0.339912 0.400963 255 255 255 255 
0 0.624076 0.997243 255 255 255 255 
0 0.661605 0.756966 255 255 255 255 
0 0.558756 0.0245879 255 255 255 255 
0 0.684976 0.484093 255 255 255 255 
0 0.916136 0.106 255 255 255 255 
0 0.929039 0.379037 255 255 255 255 
0 0.632513 0.409521 255 255 255 255 
0 0.873548 0.551605 255 255 255 255 
0 0.23351 0.507621 255 255 255 255 
0 0.809379 0.305304 255 255 255 255 
0 0.111693 0.49288 255 255 255 255 
0 0.626169 0.602824 255 255 255 255 
0 0.327053 0.226615 255 255 255 255 
0 0.189127 0.662833 255 255 255 255 
0 0.0252065 0.529039 255 255 255 255 
0 0.0637961 0.649282 255 255 255 255 
0 0.526281 0.725401 255 255 255 255 
0 0.406248 0.0850377 255 255 255 255 
0 0.749989 0.0912245 255 255 255 255 
0 0.56913 0.666125 255 255 255 255 
0 0.197225 0.498169 255 255 255 255 
0 0.0451612 0.829738 255 255 255 255 
0 0.90769 0.918709 255 255 255 255 
0 0.381342 0.1412 255 255 255 255 
0 0.42633 0.190722 255 255 255 255 
0 0.446504 0.538023 255 255 255 255 
0 0.683601 0.0726731 255 255 255 255 
0 0.140847 0.0106543 255 255 255 255 
0 0.299288 0.329974 255 255 255 255 
0 0.673487 0.324495 255 255 255 255 
0 0.859013 0.737283 255 255 255 255 
0 0.973777 0.385294 255 255 255 255 
0 0.462684 0.380025 255 255 255 255 
0 0.470332 0.212673 255 255 255 255 
0 0.47125 0.039462 255 255 255 255 
0 0.878798 0.668474 255 255 255 255 
0 0.537631 0.923959 255 255 255 255 
0 0.498212 0.445321 255 255 255 255 
0 0.842668 0.879554 255 255 255 255 
0 0.586521 0.268998 255 255 255 255 
0 0.0702759 0.0330244 255 255 255 255 
0 0.807021 0.753877 255 255 255 255 
0 0.105697 0.947868 255 255 255 255 
0 0.764531 0.404986 255 255 255 255 
0 0.277842 0.438019 255 255 255 255 
0 0.72948 0.136854 255 255 255 255 
0 0.175302 0.703257 255 255 255 255 
0 0.522149 0.637986 255 255 255 255 
0 0.0832823 0.99248 255 255 255 255 
0 0.850659 0.554532 255 255 255 255 
0 0.0319423 0.729457 255 255 255 255 
0 0.223006 0.569573 255 255 255 255 
0 0.653416 0.721218 255 255 255 255 
0 0.0148939 0.496084 255 255 255 255 
0 0.600773 0.601415 255 255 255 255 
0 0.765083 0.671049 255 255 255 255 
0 0.634439 0.572104 255 255 255 255 
0 0.424926 0.740137 255 255 255 255 
0 0.519971 0.189457 255 255 255 255 
0 0.145122 0.797813 255 255 255 255 
0 0.627476 0.874602 255 255 255 255 
0 0.934668 0.802778 255 255 255 255 
0 0.577859 0.456816 255 255 255 255 
0 0.440764 0.661142 255 255 255 255 
0 0.449297 0.291423 255 255 255 255 
0 0.215674 0.481239 255 255 255 255 
0 0.0208804 0.43868 255 255 255 255 
0 0.0508123 0.674297 255 255 255 255 
0 0.159898 0.0657063 255 255 255 255 
0 0.170381 0.760671 255 255 255 255 
0 0.667121 0.935464 255 255 255 255 
0 0.43172 0.30156 255 255 255 255 
0 0.507567 0.856645 255 255 255 255 
0 0.0416963 0.0275388 255 255 255 255 
0 0.0461026 0.186818 255 255 255 255 
0 0.825352 0.673578 255 255 255 255 
0 0.0614205 0.76002 255 255 255 255 
0 0.476356 0.63928 255 255 255 255 
0 0.216836 0.91712 255 255 255 255 
0 0.300422 0.666133 255 255 255 255 
0 0.208544 0.516095 255 255 255 255 
0 0.147372 0.229424 255 255 255 255 
0 0.954775 0.198184 255 255 255 255 
0 0.903721 0.114674 255 255 255 255 
0 0.263891 0.0741015 255 255 255 255 
0 0.875345 0.931011 255 255 255 255 
0 0.00956518 0.307064 255 255 255 255 
0 0.232571 0.517133 255 255 255 255 
0 0.16371 0.274267 255 255 255 255 
0 0.544671 0.209812 255 255 255 255 
0 0.461086 0.370023 255 255 255 255 
0 0.883391 0.522506 255 255 255 255 
0 0.130043 0.359747 255 255 255 255 
0 0.161786 0.346879 255 255 255 255 
0 0.276867 0.462208 255 255 255 255 
0 0.0130124 0.485411 255 255 255 255 
0 0.978303 0.160384 255 255 255 255 
0 0.714835 0.933078 255 255 255 255 
0 0.358569 0.618555 255 255 255 255 
0 0.0477516 0.622459 255 255 255 255 
0 0.692657 0.923096 255 255 255 255 
0 0.55347 0.702222 255 255 255 255 
0 0.230161 0.786042 255 255 255 255 
0 0.219355 0.39387 255 255 255 255 
0 0.0603091 0.764026 255 255 255 255 
0 0.603683 0.521395 255 255 255 255 
0 0.134049 0.487073 255 255 255 255 
0 0.0439012 0.264093 255 255 255 255 
0 0.84682 0.205687 255 255 255 255 
0 0.610972 0.123687 255 255 255 255 
0 0.667895 0.623984 255 255 255 255 
0 0.609098 0.646198 255 255 255 255 
0 0.784369 0.323933 255 255 255 255 
0 0.579276 0.142937 255 255 255 255 
0 0.942488 0.627028 255 255 255 255 
0 0.765396 0.635145 255 255 255 255 
0 0.550124 0.318867 255 255 255 255 
0 0.337367 0.780284 255 255 255 255 
0 0.104909 0.556721 255 255 255 255 
0 0.174155 0.165218 255 255 255 255 
0 0.320747 0.777837 255 255 255 255 
0 0.686613 0.454796 255 255 255 255 
0 0.26491 0.730514 255 255 255 255 
0 0.718889 0.11173 255 255 255 255 
0 0.936201 0.329861 255 255 255 255 
0 0.235418 0.604096 255 255 255 255 
0 0.953846 0.844516 255 255 255 255 
0 0.250294 0.738214 255 255 255 255 
0 0.168448 0.82957 255 255 255 255 
0 0.881152 0.110936 255 255 255 255 
0 0.456598 0.646548 255 255 255 255 
0 0.746081 0.0067218 255 255 255 255 
0 0.965415 0.0834478 255 255 255 255 
0 0.787006 0.0703238 255 255 255 255 
0 0.640169 0.961161 255 255 255 255 
0 0.235542 0.960916 255 255 255 255 
0 0.738998 0.922154 255 255 255 255 
0 0.415713 0.00390787 255 255 255 255 
0 0.652668 0.134602 255 255 255 255 
0 0.115638 0.58887 255 255 255 255 
0 0.464463 0.351056 255 255 255 255 
0 0.192966 0.418308 255 255 255 255 
0 0.195571 0.443261 255 255 255 255 
0 0.156523 0.36402 255 255 255 255 
0 0.272831 0.0376744 255 255 255 255 
0 0.474956 0.729429 255 255 255 255 
0 0.684223 0.221037 255 255 255 255 
0 0.736151 0.649638 255 255 255 255 
0 0.304485 0.523157 255 255 255 255 
0 0.719962 0.944654 255 255 255 255 
0 0.484317 0.955503 255 255 255 255 
0 0.90557 0.223315 255 255 255 255 
0 0.877657 0.321283 255 255 255 255 
0 0.227223 0.530326 255 255 255 255 
0 0.455885 0.342861 255 255 255 255 
0 0.119195 0.920348 255 255 255 255 
0 0.693917 0.312162 255 255 255 255 
0 0.338656 0.889488 255 255 255 255 
0 0.755422 0.495179 255 255 255 255 
0 0.253508 0.028253 255 255 255 255 
0 0.532853 0.728464 255 255 255 255 
0 0.757682 0.217076 255 255 255 255 
0 0.9495 0.493833 255 255 255 255 
0 0.866714 0.253985 255 255 255 255 
0 0.0169895 0.586675 255 255 255 255 
0 0.198639 0.501307 255 255 255 255 
0 0.542178 0.104209 255 255 255 255 
0 0.724622 0.419836 255 255 255 255 
0 0.425491 0.951845 255 255 255 255 
0 0.950161 0.881376 255 255 255 255 
0 0.294706 0.0693566 255 255 255 255 
0 0.801723 0.988623 255 255 255 255 
0 0.381518 0.14038 255 255 255 255 
0 0.878112 0.13694 255 255 255 255 
0 0.635558 0.131619 255 255 255 255 
0 0.165193 0.168412 255 255 255 255 
0 0.860083 0.922875 255 255 255 255 
0 0.385487 0.809583 255 255 255 255 
0 0.416708 0.252201 255 255 255 255 
0 0.0635682 0.433697 255 255 255 255 
0 0.838876 0.262207 255 255 255 255 
0 0.935004 0.381054 255 255 255 255 
0 0.366415 0.659627 255 255 255 255 
0 0.80089 0.791907 255 255 255 255 
0 0.611472 0.751051 255 255 255 255 
0 0.673283 0.906178 255 255 255 255 
0 0.820407 0.475006 255 255 255 255 
0 0.894801 0.201925 255 255 255 255 
0 0.615386 0.772913 255 255 255 255 
0 0.338866 0.250944 255 255 255 255 
0 0.904532 0.504059 255 255 255 255 
0 0.419356 0.764616 255 255 255 255 
0 0.426934 0.804843 255 255 255 255 
0 0.574199 0.843642 255 255 255 255 
0 0.057044 0.637767 255 255 255 255 
0 0.277339 0.89592 255 255 255 255 
0 0.899974 0.212344 255 255 255 255 
0 0.276974 0.266389 255 255 255 255 
0 0.87197 0.0778637 255 255 255 255 
0 0.058296 0.483442 255 255 255 255 
0 0.828914 0.731579 255 255 255 255 
0 0.38962 0.649322 255 255 255 255 
0 0.206585 0.284421 255 255 255 255 
0 0.851247 0.821971 255 255 255 255 
0 0.0573342 0.190113 255 255 255 255 
0 0.0729147 0.961867 255 255 255 255 
0 0.694172 0.49227 255 255 255 255 
0 0.726482 0.121106 255 255 255 255 
0 0.297113 0.300681 255 255 255 255 
0 0.964748 0.354157 255 255 255 255 
0 0.938448 0.242087 255 255 255 255 
0 0.250077 0.838422 255 255 255 255 
0 0.454431 0.527052 255 255 255 255 
0 0.104811 0.326401 255 255 255 255 
0 0.604915 0.163107 255 255 255 255 
0 0.809843 0.43383 255 255 255 255 
0 0.894686 0.199462 255 255 255 255 
0 0.0831515 0.101271 255 255 255 255 
0 0.483884 0.934399 255 255 255 255 
0 0.923242 0.541218 255 255 255 255 
0 0.124512 0.996157 255 255 255 255 
0 0.503085 0.818684 255 255 255 255 
0 0.488427 0.229567 255 255 255 255 
0 0.93979 0.78554 255 255 255 255 
0 0.530248 0.904537 255 255 255 255 
0 0.139698 0.468696 255 255 255 255 
0 0.146624 0.389775 255 255 255 255 
0 0.307119 0.601055 255 255 255 255 
0 0.916827 0.41193 255 255 255 255 
0 0.927455 0.521742 255 255 255 255 
0 0.575037 0.737298 255 255 255 255 
0 0.955571 0.469724 255 255 255 255 
0 0.93676 0.038723 255 255 255 255 
0 0.570995 0.420644 255 255 255 255 
0 0.973122 0.494237 255 255 255 255 
0 0.961862 0.0976336 255 255 255 255 
0 0.490393 0.464947 255 255 255 255 
0 0.916317 0.97882 255 255 255 255 
0 0.694513 0.856107 255 255 255 255 
0 0.76436 0.224761 255 255 255 255 
0 0.760644 0.904058 255 255 255 255 
0 0.693458 0.907268 255 255 255 255 
0 0.293833 0.000576218 255 255 255 255 
0 0.508323 0.21066 255 255 255 255 
0 0.412506 0.435779 255 255 255 255 
0 0.732402 0.987544 255 255 255 255 
0 0.173077 0.687973 255 255 255 255 
0 0.457267 0.109837 255 255 255 255 
0 0.726696 0.0282621 255 255 255 255 
0 0.530481 0.699818 255 255 255 255 
0 0.522499 0.492343 255 255 255 255 
0 0.797452 0.0128918 255 255 255 255 
0 0.95729 0.713769 255 255 255 255 
0 0.991712 0.651803 255 255 255 255 
0 0.569876 0.756072 255 255 255 255 
0 0.876565 0.33052 255 255 255 255 
0 0.66013 0.570022 255 255 255 255 
0 0.237789 0.953964 255 255 255 255 
0 0.570598 0.746112 255 255 255 255 
0 0.164624 0.983105 255 255 255 255 
0 0.181891 0.897026 255 255 255 255 
0 0.970648 0.354968 255 255 255 255 
0 0.584999 0.427916 255 255 255 255 
0 0.464805 0.311696 255 255 255 255 
0 0.456178 0.995286 255 255 255 255 
0 0.0115141 0.978676 255 255 255 255 
0 0.487629 0.808966 255 255 255 255 
0 0.991568 0.444919 255 255 255 255 
0 0.522735 0.98328 255 255 255 255 
0 0.0967222 0.0926115 255 255 255 255 
0 0.739352 0.973287 255 255 255 255 
0 0.423132 0.399482 255 255 255 255 
0 0.543309 0.660921 255 255 255 255 
0 0.353446 0.113907 255 255 255 255 
0 0.407033 0.51807 255 255 255 255 
0 0.097012 0.588923 255 255 255 255 
0 0.415096 0.0676603 255 255 255 255 
0 0.943891 9.5177e-05 255 255 255 255 
0 0.495576 0.408696 255 255 255 255 
0 0.311791 0.951754 255 255 255 255 
0 0.403982 0.323305 255 255 255 255 
0 0.93043 0.891611 255 255 255 255 
0 0.132271 0.921998 255 255 255 255 
0 0.33653 0.655007 255 255 255 255 
0 0.905278 0.433252 255 255 255 255 
0 0.747618 0.64463 255 255 255 255 
0 0.406539 0.17075 255 255 255 255 
0 0.0441126 0.949848 255 255 255 255 
0 0.83167 0.397559 255 255 255 255 
0 0.0637551 0.238703 255 255 255 255 
0 0.915629 0.160767 255 255 255 255 
0 0.827626 0.330724 255 255 255 255 
0 0.228427 0.771517 255 255 255 255 
0 0.33082 0.724003 255 255 255 255 
0 0.180213 0.642611 255 255 255 255 
0 0.675757 0.584194 255 255 255 255 
0 0.965916 0.606187 255 255 255 255 
0 0.475805 0.098187 255 255 255 255 
0 0.528185 0.812335 255 255 255 255 
0 0.753193 0.433463 255 255 255 255 
0 0.245587 0.500812 255 255 255 255 
0 0.0780936 0.652126 255 255 255 255 
0 0.671561 0.122206 255 255 255 255 
0 0.601974 0.503232 255 255 255 255 
0 0.519765 0.665729 255 255 255 255 
0 0.741935 0.435394 255 255 255 255 
0 0.826496 0.569561 255 255 255 255 
0 0.766118 0.0549231 255 255 255 255 
0 0.341078 0.0969377 255 255 255 255 
0 0.778926 0.521291 255 255 255 255 
0 0.739548 0.454683 255 255 255 255 
0 0.105485 0.705464 255 255 255 255 
0 0.0608701 0.58129 255 255 255 255 
0 0.803651 0.589055 255 255 255 255 
0 0.393625 0.556845 255 255 255 255 
0 0.0225187 0.639212 255 255 255 255 
0 0.0576561 0.100612 255 255 255 255 
0 0.291338 0.729217 255 255 255 255 
0 0.222818 0.893312 255 255 255 255 
0 0.232449 0.742583 255 255 255 255 
0 0.559041 0.974384 255 255 255 255 
0 0.177977 0.385536 255 255 255 255 
0 0.543945 0.944095 255 255 255 255 
0 0.440459 0.885023 255 255 255 255 
0 0.0410326 0.219386 255 255 255 255 
0 0.406314 0.780581 255 255 255 255 
0 0.674069 0.511799 255 255 255 255 
0 0.486045 0.734939 255 255 255 255 
0 0.0930884 0.289696 255 255 255 255 
0 0.323994 0.486713 255 255 255 255 
0 0.846541 0.346513 255 255 255 255 
0 0.125925 0.904197 255 255 255 255 
0 0.447125 0.417264 255 255 255 255 
0 0.633414 0.669944 255 255 255 255 
0 0.310575 0.865863 255 255 255 255 
0 0.412527 0.869616 255 255 255 255 
0 0.840247 0.590504 255 255 255 255 
0 0.255152 0.384192 255 255 255 255 
0 0.534599 0.695612 255 255 255 255 
0 0.269215 0.575631 255 255 255 255 
0 0.914998 0.675529 255 255 255 255 
0 0.356212 0.589067 255 255 255 255 
0 0.187327 0.842257 255 255 255 255 
0 0.324006 0.280416 255 255 255 255 
0 0.131954 0.648 255 255 255 255 
0 0.767129 0.978494 255 255 255 255 
0 0.994513 0.893055 255 255 255 255 
0 0.882691 0.441638 255 255 255 255 
0 0.310318 0.516105 255 255 255 255 
0 0.111582 0.620894 255 255 255 255 
0 0.381969 0.524109 255 255 255 255 
0 0.49051 0.222216 255 255 255 255 
0 0.114613 0.745662 255 255 255 255 
0 0.606408 0.649212 255 255 255 255 
0 0.441274 0.875623 255 255 255 255 
0 0.224844 0.356271 255 255 255 255 
0 0.551152 0.581056 255 255 255 255 
0 0.945338 0.738479 255 255 255 255 
0 0.423313 0.269343 255 255 255 255 
0 0.0188952 0.555267 255 255 255 255 
0 0.917343 0.786024 255 255 255 255 
0 0.533761 0.911856 255 255 255 255 
0 0.679079 0.416452 255 255 255 255 
0 0.353495 0.989397 255 255 255 255 
0 0.932558 0.465077 255 255 255 255 
0 0.610291 0.314526 255 255 255 255 
0 0.989186 0.1008 255 255 255 255 
0 0.536743 0.1038 255 255 255 255 
0 0.846462 0.143151 255 255 255 255 
0 0.753012 0.287736 255 255 255 255 
0 0.018774 0.977856 255 255 255 255 
0 0.644007 0.569926 255 255 255 255 
0 0.558912 0.589345 255 255 255 255 
0 0.308406 0.982225 255 255 255 255 
0 0.858688 0.327301 255 255 255 255 
0 0.537492 0.776032 255 255 255 255 
0 0.113325 0.0712534 255 255 255 255 
0 0.687888 0.792404 255 255 255 255 
0 0.487706 0.0413826 255 255 255 255 
0 0.781801 0.420264 255 255 255 255 
0 0.506459 0.392092 255 255 255 255 
0 0.73479 0.495646 255 255 255 255 
0 0.492892 0.271533 255 255 255 255 
0 0.599445 0.339355 255 255 255 255 
0 0.414683 0.352457 255 255 255 255 
0 0.627091 0.433457 255 255 255 255 
0 0.330312 0.271098 255 255 255 255 
0 0.00338347 0.889224 255 255 255 255 
0 0.860443 0.311789 255 255 255 255 
0 0.871449 0.719131 255 255 255 255 
0 0.63909 0.408941 255 255 255 255 
0 0.495163 0.752415 255 255 255 255 
0 0.480195 0.183051 255 255 255 255 
0 0.54482 0.967901 255 255 255 255 
0 0.224434 0.326621 255 255 255 255 
0 0.388164 0.730893 255 255 255 255 
0 0.718713 0.122954 255 255 255 255 
0 0.226539 0.211605 255 255 255 255 
0 0.394487 0.825984 255 255 255 255 
0 0.55096 0.80917 255 255 255 255 
0 0.178441 0.17805 255 255 255 255 
0 0.242627 0.508753 255 255 255 255 
0 0.449148 0.246011 255 255 255 255 
0 0.397977 0.309591 255 255 255 255 
0 0.5578 0.269427 255 255 255 255 
0 0.0287225 0.19689 255 255 255 255 
0 0.678368 0.523886 255 255 255 255 
0 0.949305 0.158563 255 255 255 255 
0 0.706937 0.494125 255 255 255 255 
0 0.126463 0.931371 255 255 255 255 
0 0.820746 0.514628 255 255 255 255 
0 0.662264 0.539459 255 255 255 255 
0 0.637582 0.888803 255 255 255 255 
0 0.751064 0.0320686 255 255 255 255 
0 0.714787 0.302024 255 255 255 255 
0 0.841238 0.893227 255 255 255 255 
0 0.480075 0.0838657 255 255 255 255 
0 0.401981 0.929223 255 255 255 255 
0 0.329876 0.799958 255 255 255 255 
0 0.238814 0.887676 255 255 255 255 
0 0.0693846 0.267537 255 255 255 255 
0 0.0845661 0.747753 255 255 255 255 
0 0.791422 0.0338714 255 255 255 255 
0 0.906316 0.498359 255 255 255 255 
0 0.527996 0.032779 255 255 255 255 
0 0.42973 0.348742 255 255 255 255 
0 0.547407 0.0919935 255 255 255 255 
0 0.888201 0.184988 255 255 255 255 
0 0.980796 0.639265 255 255 255 255 
0 0.217057 0.695583 255 255 255 255 
0 0.941289 0.0582956 255 255 255 255 
0 0.58881 0.421364 255 255 255 255 
0 0.142161 0.990791 255 255 255 255 
0 0.350587 0.472038 255 255 255 255 
0 0.790749 0.589401 255 255 255 255 
0 0.359714 0.860133 255 255 255 255 
0 0.856938 0.44428 255 255 255 255 
0 0.607886 0.64836 255 255 255 255 
0 0.478151 0.514202 255 255 255 255 
0 0.146719 0.0061477 255 255 255 255 
0 0.546981 0.576449 255 255 255 255 
0 0.35489 0.0943871 255 255 255 255 
0 0.668442 0.243091 255 255 255 255 
0 0.279376 0.649238 255 255 255 255 
0 0.882356 0.496433 255 255 255 255 
0 0.344821 0.823646 255 255 255 255 
0 0.554728 0.933631 255 255 255 255 
0 0.24501 0.696889 255 255 255 255 
0 0.924422 0.595596 255 255 255 255 
0 0.168927 0.71517 255 255 255 255 
0 0.184997 0.528641 255 255 255 255 
0 0.575304 0.0419351 255 255 255 255 
0 0.972921 0.18319 255 255 255 255 
0 0.690295 0.451072 255 255 255 255 
0 0.697391 0.837014 255 255 255 255 
0 0.45722 0.244372 255 255 255 255 
0 0.413463 0.81211 255 255 255 255 
0 0.338759 0.0819047 255 255 255 255 
0 0.0552007 0.618134 255 255 255 255 
0 0.731143 0.937557 255 255 255 255 
0 0.114567 0.0759641 255 255 255 255 
0 0.761202 0.669295 255 255 255 255 
0 0.00959519 0.0062119 255 255 255 255 
0 0.366185 0.934017 255 255 255 255 
0 0.601808 0.535112 255 255 255 255 
0 0.649187 0.786806 255 255 255 255 
0 0.0637526 0.224491 255 255 255 255 
0 0.828741 0.0366735 255 255 255 255 
0 0.407681 0.519036 255 255 255 255 
0 0.487746 0.105072 255 255 255 255 
0 0.35605 0.944966 255 255 255 255 
0 0.349444 0.769512 255 255 255 255 
0 0.757076 0.688202 255 255 255 255 
0 0.851417 0.812276 255 255 255 255 
0 0.306337 0.58256 255 255 255 255 
0 0.749833 0.420904 255 255 255 255 
0 0.658524 0.511036 255 255 255 255 
0 0.090199 0.668119 255 255 255 255 
0 0.517247 0.456384 255 255 255 255 
0 0.602136 0.119056 255 255 255 255 
0 0.991495 0.251324 255 255 255 255 
0 0.905862 0.0552479 255 255 255 255 
0 0.475815 0.734603 255 255 255 255 
0 0.0919214 0.883495 255 255 255 255 
0 0.253639 0.579667 255 255 255 255 
0 0.988567 0.609688 255 255 255 255 
0 0.524633 0.338011 255 255 255 255 
0 0.379201 0.281709 255 255 255 255 
0 0.0262134 0.230618 255 255 255 255 
0 0.0939853 0.33255 255 255 255 255 
0 0.813178 0.843819 255 255 255 255 
0 0.753454 0.471702 255 255 255 255 
0 0.354854 0.843653 255 255 255 255 
0 0.139822 0.872102 255 255 255 255 
0 0.300036 0.741958 255 255 255 255 
0 0.991157 0.291532 255 255 255 255 
0 0.993281 0.897019 255 255 255 255 
0 0.34678 0.469096 255 255 255 255 
0 0.631622 0.438701 255 255 255 255 
0 0.352591 0.885261 255 255 255 255 
0 0.0183683 0.341159 255 255 255 255 
0 0.494949 0.543001 255 255 255 255 
0 0.67917 0.87415 255 255 255 255 
0 0.82471 0.705383 255 255 255 255 
0 0.104767 0.918696 255 255 255 255 
0 0.0379332 0.917945 255 255 255 255 
0 0.762514 0.791387 255 255 255 255 
0 0.389647 0.117368 255 255 255 255 
0 0.63504 0.529469 255 255 255 255 
0 0.98947 0.935077 255 255 255 255 
0 0.271427 0.980627 255 255 255 255 
0 0.226608 0.264708 255 255 255 255 
0 0.877647 0.573388 255 255 255 255 
0 0.733804 0.509268 255 255 255 255 
0 0.012089 0.0863959 255 255 255 255 
0 0.394529 0.0304573 255 255 255 255 
0 0.427555 0.889478 255 255 255 255 
0 0.573459 0.106724 255 255 255 255 
0 0.763628 0.398169 255 255 255 255 
0 0.812107 0.868395 255 255 255 255 
0 0.316865 0.850041 255 255 255 255 
0 0.78634 0.0793788 255 255 255 255 
0 0.641428 0.175988 255 255 255 255 
0 0.196747 0.276468 255 255 255 255 
0 0.705457 0.186217 255 255 255 255 
0 0.211545 0.976883 255 255 255 255 
0 0.166844 0.438153 255 255 255 255 
0 0.241592 0.0444907 255 255 255 255 
0 0.0115408 0.975396 255 255 255 255 
0 0.553759 0.0236298 255 255 255 255 
0 0.061792 0.948288 255 255 255 255 
0 0.0540871 0.489347 255 255 255 255 
0 0.837766 0.627546 255 255 255 255 
0 0.596071 0.601394 255 255 255 255 
0 0.0257148 0.408178 255 255 255 255 
0 0.469789 0.342579 255 255 255 255 
0 0.258219 0.256129 255 255 255 255 
0 0.421958 0.899647 255 255 255 255 
0 0.432117 0.618705 255 255 255 255 
0 0.176115 0.137573 255 255 255 255 
0 0.804922 0.387659 255 255 255 255 
0 0.114457 0.971766 255 255 255 255 
0 0.825812 0.356048 255 255 255 255 
0 0.0162571 0.837353 255 255 255 255 
0 0.331444 0.570016 255 255 255 255 
0 0.860983 0.393236 255 255 255 255 
0 0.518304 0.91507 255 255 255 255 
0 0.882583 0.35607 255 255 255 255 
0 0.542616 0.478654 255 255 255 255 
0 0.957464 0.56833 255 255 255 255 
0 0.886833 0.427253 255 255 255 255 
0 0.91091 0.145052 255 255 255 255 
0 0.683381 0.332868 255 255 255 255 
0 0.0446984 0.115498 255 255 255 255 
0 0.951573 0.220813 255 255 255 255 
0 0.253071 0.756496 255 255 255 255 
0 0.608472 0.367528 255 255 255 255 
0 0.728262 0.434285 255 255 255 255 
0 0.723576 0.744519 255 255 255 255 
0 0.271638 0.0550209 255 255 255 255 
0 0.314535 0.13262 255 255 255 255 
0 0.448257 0.832839 255 255 255 255 
0 0.0476904 0.33084 255 255 255 255 
0 0.18891 0.590306 255 255 255 255 
0 0.809495 0.146374 255 255 255 255 
0 0.158637 0.696327 255 255 255 255 
0 0.573626 0.0695464 255 255 255 255 
0 0.841379 0.257008 255 255 255 255 
0 0.402414 0.886077 255 255 255 255 
0 0.372506 0.353988 255 255 255 255 
0 0.10689 0.625577 255 255 255 255 
0 0.110483 0.715363 255 255 255 255 
0 0.993105 0.838745 255 255 255 255 
0 0.149647 0.716682 255 255 255 255 
0 0.583264 0.421285 255 255 255 255 
0 0.771702 0.897799 255 255 255 255 
0 0.553906 0.21996 255 255 255 255 
0 0.730639 0.601596 255 255 255 255 
0 0.5508 0.919549 255 255 255 255 
0 0.191902 0.360295 255 255 255 255 
0 0.0659225 0.350539 255 255 255 255 
0 0.0566222 0.639549 255 255 255 255 
0 0.420085 0.898001 255 255 255 255 
0 0.896556 0.8225 255 255 255 255 
0 0.784078 0.269062 255 255 255 255 
0 0.176487 0.890968 255 255 255 255 
0 0.89464 0.286971 255 255 255 255 
0 0.606331 0.887745 255 255 255 255 
0 0.125716 0.755979 255 255 255 255 
0 0.604426 0.70898 255 255 255 255 
0 0.177264 0.376129 255 255 255 255 
0 0.60678 0.731169 255 255 255 255 
0 0.596089 0.337419 255 255 255 255 
0 0.332765 0.146889 255 255 255 255 
0 0.256968 0.524667 255 255 255 255 
0 0.507184 0.32289 255 255 255 255 
0 0.875206 0.563806 255 255 255 255 
0 0.962439 0.295291 255 255 255 255 
0 0.461807 0.858995 255 255 255 255 
0 0.117791 0.245885 255 255 255 255 
0 0.128058 0.294278 255 255 255 255 
0 0.136854 0.0226973 255 255 255 255 
0 0.581249 0.743185 255 255 255 255 
0 0.910442 0.706964 255 255 255 255 
0 0.499164 0.514868 255 255 255 255 
0 0.415945 0.676427 255 255 255 255 
0 0.890997 0.0227243 255 255 255 255 
0 0.407597 0.487086 255 255 255 255 
0 0.360143 0.740362 255 255 255 255 
0 0.633975 0.617111 255 255 255 255 
0 0.26503 0.141159 255 255 255 255 
0 0.940001 0.140236 255 255 255 255 
0 0.704965 0.90244 255 255 255 255 
0 0.435527 0.166772 255 255 255 255 
0 0.761435 0.553317 255 255 255 255 
0 0.412657 0.889493 255 255 255 255 
0 0.847595 0.54951 255 255 255 255 
0 0.91219 0.428844 255 255 255 255 
0 0.292695 0.822632 255 255 255 255 
0 0.135808 0.791858 255 255 255 255 
0 0.337501 0.551753 255 255 255 255 
0 0.468286 0.228498 255 255 255 255 
0 0.574477 0.875882 255 255 255 255 
0 0.715584 0.93462 255 255 255 255 
0 0.616245 0.349558 255 255 255 255 
0 0.551731 0.881274 255 255 255 255 
0 0.490717 0.491731 255 255 255 255 
0 0.02151 0.195681 255 255 255 255 
0 0.394171 0.457037 255 255 255 255 
0 0.362453 0.155606 255 255 255 255 
0 0.0103541 0.77511 255 255 255 255 
0 0.0450987 0.857949 255 255 255 255 
0 0.32462 0.957289 255 255 255 255 
0 0.286793 0.617314 255 255 255 255 
0 0.779921 0.422601 255 255 255 255 
0 0.409173 0.117421 255 255 255 255 
0 0.974354 0.877459 255 255 255 255 
0 0.345919 0.548831 255 255 255 255 
0 0.753341 0.0615027 255 255 255 255 
0 0.483451 0.369586 255 255 255 255 
0 0.411061 0.0351822 255 255 255 255 
0 0.25086 0.901778 255 255 255 255 
0 0.526914 0.27237 255 255 255 255 
0 0.0974594 0.921085 255 255 255 255 
0 0.729407 0.459912 255 255 255 255 
0 0.0766906 0.739761 255 255 255 255 
0 0.235022 0.121789 255 255 255 255 
0 0.59771 0.559642 255 255 255 255 
0 0.079078 0.884503 255 255 255 255 
0 0.176956 0.858999 255 255 255 255 
0 0.307105 0.586129 255 255 255 255 
0 0.97642 0.281459 255 255 255 255 
0 0.463587 0.322339 255 255 255 255 
0 0.83029 0.216928 255 255 255 255 
0 0.383842 0.313741 255 255 255 255 
0 0.586514 0.794903 255 255 255 255 
0 0.348924 0.837374 255 255 255 255 
0 0.696681 0.875837 255 255 255 255 
0 0.109744 0.79414 255 255 255 255 
0 0.796922 0.839151 255 255 255 255 
0 0.254053 0.873613 255 255 255 255 
0 0.578911 0.489075 255 255 255 255 
0 0.995402 0.176622 255 255 255 255 
0 0.0487163 0.0744797 255 255 255 255 
0 0.0611248 0.225672 255 255 255 255 
0 0.933478 0.368229 255 255 255 255 
0 0.811801 0.909899 255 255 255 255 
0 0.649688 0.275389 255 255 255 255 
0 0.232238 0.479978 255 255 255 255 
0 0.492317 0.61608 255 255 255 255 
0 0.79372 0.0788313 255 255 255 255 
0 0.410983 0.142643 255 255 255 255 
0 0.916205 0.107664 255 255 255 255 
0 0.0184804 0.0259493 255 255 255 255 
0 0.901804 0.815402 255 255 255 255 
0 0.8651 0.155857 255 255 255 255 
0 0.689015 0.444011 255 255 255 255 
0 0.644932 0.684417 255 255 255 255 
0 0.620633 0.693648 255 255 255 255 
0 0.758896 0.681758 255 255 255 255 
0 0.919321 0.692375 255 255 255 255 
0 0.0499871 0.731122 255 255 255 255 
0 0.602273 0.699675 255 255 255 255 
0 0.00651054 0.834511 255 255 255 255 
0 0.179653 0.498828 255 255 255 255 
0 0.450591 0.973373 255 255 255 255 
0 0.577659 0.861574 255 255 255 255 
0 0.116016 0.493864 255 255 255 255 
0 0.969238 0.134496 255 255 255 255 
0 0.519814 0.871043 255 255 255 255 
0 0.949899 0.384914 255 255 255 255 
0 0.0269 0.638913 255 255 255 255 
0 0.828925 0.671832 255 255 255 255 
0 0.32333 0.449558 255 255 255 255 
0 0.36548 0.0822263 255 255 255 255 
0 0.131315 0.284801 255 255 255 255 
0 0.774601 0.181303 255 255 255 255 
0 0.015923 0.376874 255 255 255 255 
0 0.880978 0.0224335 255 255 255 255 
0 0.211386 0.060631 255 255 255 255 
0 0.521261 0.661977 255 255 255 255 
0 0.0340038 0.0989201 255 255 255 255 
0 0.523551 0.15002 255 255 255 255 
0 0.592784 0.49279 255 255 255 255 
0 0.284516 0.112598 255 255 255 255 
0 0.363832 0.234415 255 255 255 255 
0 0.497512 0.390732 255 255 255 255 
0 0.873328 0.326437 255 255 255 255 
0 0.0625642 0.196658 255 255 255 255 
0 0.775994 0.428045 255 255 255 255 
0 0.278884 0.90731 255 255 255 255 
0 0.712846 0.0534855 255 255 255 255 
0 0.0886124 0.728769 255 255 255 255 
0 0.43036 0.96959 255 255 255 255 
0 0.751202 0.641746 255 255 255 255 
0 0.0302211 0.272463 255 255 255 255 
0 0.303723 0.0642249 255 255 255 255 
0 0.371384 0.827274 255 255 255 255 
0 0.214245 0.964168 255 255 255 255 
0 0.320064 0.498761 255 255 255 255 
0 0.076766 0.683896 255 255 255 255 
0 0.733175 0.574278 255 255 255 255 
0 0.074628 0.606503 255 255 255 255 
0 0.900714 0.137192 255 255 255 255 
0 0.803161 0.676708 255 255 255 255 
0 0.565237 0.0820459 255 255 255 255 
0 0.584018 0.278083 255 255 255 255 
0 0.135531 0.672631 255 255 255 255 
0 0.00685119 0.565891 255 255 255 255 
0 0.642221 0.758053 255 255 255 255 
0 0.207637 0.672442 255 255 255 255 
0 0.0305168 0.51136 255 255 255 255 
0 0.736667 0.4019 255 255 255 255 
0 0.338634 0.950911 255 255 255 255 
0 0.366068 0.658698 255 255 255 255 
0 0.449672 0.442834 255 255 255 255 
0 0.342594 0.182847 255 255 255 255 
0 0.0171118 0.417222 255 255 255 255 
0 0.789351 0.917826 255 255 255 255 
0 0.554414 0.592512 255 255 255 255 
0 0.594534 0.119651 255 255 255 255 
0 0.674558 0.178553 255 255 255 255 
0 0.397733 0.810089 255 255 255 255 
0 0.851183 0.404584 255 255 255 255 
0 0.375981 0.493404 255 255 255 255 
0 0.162638 0.583618 255 255 255 255 
0 0.165846 0.193155 255 255 255 255 
0 0.0949777 0.902513 255 255 255 255 
0 0.595055 0.433612 255 255 255 255 
0 0.853424 0.961123 255 255 255 255 
0 0.0923095 0.303096 255 255 255 255 
0 0.403957 0.434903 255 255 255 255 
0 0.485943 0.421069 255 255 255 255 
0 0.852125 0.275294 255 255 255 255 
0 0.338895 0.406538 255 255 255 255 
0 0.867806 0.93343 255 255 255 255 
0 0.526189 0.542364 255 255 255 255 
0 0.111982 0.923922 255 255 255 255 
0 0.352454 0.963166 255 255 255 255 
0 0.328507 0.728434 255 255 255 255 
0 0.45657 0.491145 255 255 255 255 
0 0.312052 0.622416 255 255 255 255 
0 0.684299 0.40703 255 255 255 255 
0 0.524929 0.279354 255 255 255 255 
0 0.840642 0.378353 255 255 255 255 
0 0.240477 0.932951 255 255 255 255 
0 0.681449 0.644434 255 255 255 255 
0 0.367854 0.167392 255 255 255 255 
0 0.0655034 0.219979 255 255 255 255 
0 0.442687 0.404399 255 255 255 255 
0 0.626517 0.310493 255 255 255 255 
0 0.337828 0.152706 255 255 255 255 
0 0.852857 0.44981 255 255 255 255 
0 0.0766288 0.205311 255 255 255 255 
0 0.412976 0.405136 255 255 255 255 
0 0.933745 0.869546 255 255 255 255 
0 0.89628 0.245797 255 255 255 255 
0 0.491962 0.580579 255 255 255 255 
0 0.652827 0.0168901 255 255 255 255 
0 0.859933 0.493468 255 255 255 255 
0 0.395243 0.10041 255 255 255 255 
0 0.426419 0.0766917 255 255 255 255 
0 0.744845 0.794274 255 255 255 255 
0 0.244084 0.810348 255 255 255 255 
0 0.0142524 0.686771 255 255 255 255 
0 0.214747 0.64077 255 255 255 255 
0 0.997263 0.552575 255 255 255 255 
0 0.793476 0.85012 255 255 255 255 
0 0.00238506 0.870105 255 255 255 255 
0 0.0554311 0.415361 255 255 255 255 
0 0.275241 0.989176 255 255 255 255 
0 0.284907 0.171521 255 255 255 255 
0 0.234973 0.776868 255 255 255 255 
0 0.7521 0.8878 255 255 255 255 
0 0.793759 0.612033 255 255 255 255 
0 0.381268 0.189001 255 255 255 255 
0 0.712444 0.807688 255 255 255 255 
0 0.265693 0.457288 255 255 255 255 
0 0.601961 0.509777 255 255 255 255 
0 0.267636 0.616214 255 255 255 255 
0 0.196548 0.482383 255 255 255 255 
0 0.256983 0.193811 255 255 255 255 
0 0.0349575 0.0504593 255 255 255 255 
0 0.0439316 0.0373426 255 255 255 255 
0 0.920564 0.0993627 255 255 255 255 
0 0.452704 0.195805 255 255 255 255 
0 0.0885387 0.737611 255 255 255 255 
0 0.367326 0.323512 255 255 255 255 
0 0.514479 0.119426 255 255 255 255 
0 0.211312 0.308237 255 255 255 255 
0 0.731459 0.59258 255 255 255 255 
0 0.497239 0.443903 255 255 255 255 
0 0.400267 0.762932 255 255 255 255 
0 0.901191 0.00222849 255 255 255 255 
0 0.272709 0.168827 255 255 255 255 
0 0.618442 0.469256 255 255 255 255 
0 0.65121 0.875425 255 255 255 255 
0 0.663068 0.686168 255 255 255 255 
0 0.925885 0.706999 255 255 255 255 
0 0.72351 0.846449 255 255 255 255 
0 0.806362 0.176214 255 255 255 255 
0 0.0422536 0.8949 255 255 255 255 
0 0.913825 0.409579 255 255 255 255 
0 0.218412 0.428304 255 255 255 255 
0 0.529005 0.429724 255 255 255 255 
0 0.736541 0.260464 255 255 255 255 
0 0.0223034 0.23378 255 255 255 255 
0 0.704367 0.422571 255 255 255 255 
0 0.996712 0.605558 255 255 255 255 
0 0.424799 0.26942 255 255 255 255 
0 0.774386 0.0432413 255 255 255 255 
0 0.738677 0.425596 255 255 255 255 
0 0.918666 0.401744 255 255 255 255 
0 0.111764 0.844551 255 255 255 255 
0 0.108743 0.835274 255 255 255 255 
0 0.691 0.915105 255 255 255 255 
0 0.0114884 0.733253 255 255 255 255 
0 0.810006 0.925313 255 255 255 255 
0 0.142833 0.0284177 255 255 255 255 
0 0.353617 0.671838 255 255 255 255 
0 0.458141 0.0901579 255 255 255 255 
0 0.932302 0.480445 255 255 255 255 
0 0.323938 0.636669 255 255 255 255 
0 0.903016 0.320649 255 255 255 255 
0 0.242227 0.327815 255 255 255 255 
0 0.59007 0.0166131 255 255 255 255 
0 0.371056 0.328747 255 255 255 255 
0 0.442209 0.289723 255 255 255 255 
0 0.730491 0.553973 255 255 255 255 
0 0.134274 0.839234 255 255 255 255 
0 0.389247 0.825274 255 255 255 255 
0 0.754339 0.400736 255 255 255 255 
0 0.558527 0.564345 255 255 255 255 
0 0.326049 0.70136 255 255 255 255 
0 0.592763 0.679666 255 255 255 255 
0 0.373197 0.050904 255 255 255 255 
0 0.769824 0.305499 255 255 255 255 
0 0.531349 0.0937614 255 255 255 255 
0 0.942168 0.434365 255 255 255 255 
0 0.414411 0.184396 255 255 255 255 
0 0.762179 0.00448057 255 255 255 255 
0 0.201009 0.133236 255 255 255 255 
0 0.333227 0.643218 255 255 255 255 
0 0.422958 0.063718 255 255 255 255 
0 0.197191 0.557232 255 255 255 255 
0 0.902952 0.586438 255 255 255 255 
0 0.382506 0.657291 255 255 255 255 
0 0.987174 0.941033 255 255 255 255 
0 0.221636 0.313223 255 255 255 255 
0 0.642392 0.814399 255 255 255 255 
0 0.992889 0.0155897 255 255 255 255 
0 0.865303 0.762713 255 255 255 255 
0 0.321089 0.396652 255 255 255 255 
0 0.856474 0.263257 255 255 255 255 
0 0.831016 0.270885 255 255 255 255 
0 0.447653 0.593196 255 255 255 255 
0 0.275365 0.648662 255 255 255 255 
0 0.726431 0.608593 255 255 255 255 
0 0.29188 0.14939 255 255 255 255 
0 0.67231 0.489071 255 255 255 255 
0 0.706622 0.575263 255 255 255 255 
0 0.075509 0.0891277 255 255 255 255 
0 0.232554 0.0626834 255 255 255 255 
0 0.0301604 0.45419 255 255 255 255 
0 0.375907 0.672553 255 255 255 255 
0 0.268589 0.368796 255 255 255 255 
0 0.688142 0.133892 255 255 255 255 
0 0.131508 0.00923153 255 255 255 255 
0 0.530544 0.987982 255 255 255 255 
0 0.272489 0.36156 255 255 255 255 
0 0.258867 0.720142 255 255 255 255 
0 0.954756 0.534232 255 255 255 255 
0 0.368804 0.681187 255 255 255 255 
0.307911 0 0.50339 255 255 255 255 
0.630695 0 0.482989 255 255 255 255 
0.82456 0 0.901859 255 255 255 255 
0.273901 0 0.726412 255 255 255 255 
0.531507 0 0.065789 255 255 255 255 
0.0408857 0 0.96503 255 255 255 255 
0.283667 0 0.4231 255 255 255 255 
0.471536 0 0.982491 255 255 255 255 
0.280137 0 0.108203 255 255 255 255 
0.703247 0 0.89738 255 255 255 255 
0.0165347 0 0.266164 255 255 255 255 
0.101712 0 0.42807 255 255 255 255 
0.249384 0 0.0175466 255 255 255 255 
0.738091 0 0.580361 255 255 255 255 
0.97748 0 0.630653 255 255 255 255 
0.292956 0 0.28539 255 255 255 255 
0.134043 0 0.923651 255 255 255 255 
0.768379 0 0.958603 255 255 255 255 
0.82551 0 0.0422799 255 255 255 255 
0.685015 0 0.357017 255 255 255 255 
0.108069 0 0.725901 255 255 255 255 
0.322048 0 0.391736 255 255 255 255 
0.149 0 0.793583 255 255 255 255 
0.374227 0 0.429138 255 255 255 255 
0.901786 0 0.0774746 255 255 255 255 
0.326518 0 0.918321 255 255 255 255 
0.343639 0 0.42823 255 255 255 255 
0.346391 0 0.593023 255 255 255 255 
0.445776 0 0.084482 255 255 255 255 
0.173384 0 0.423256 255 255 255 255 
0.715135 0 0.46634 255 255 255 255 
0.708646 0 0.849179 255 255 255 255 
0.389991 0 0.477026 255 255 255 255 
0.807782 0 0.215502 255 255 255 255 
0.519306 0 0.492797 255 255 255 255 
0.572519 0 0.627374 255 255 255 255 
0.218698 0 0.894567 255 255 255 255 
0.0191104 0 0.367698 255 255 255 255 
0.68815 0 0.393338 255 255 255 255 
0.796836 0 0.589936 255 255 255 255 
0.470812 0 0.123354 255 255 255 255 
0.508257 0 0.814451 255 255 255 255 
0.551583 0 0.854648 255 255 255 255 
0.407474 0 0.997359 255 255 255 255 
0.93913 0 0.580858 255 255 255 255 
0.420615 0 0.654265 255 255 255 255 
0.0471984 0 0.129262 255 255 255 255 
0.503444 0 0.43719 255 255 255 255 
0.606287 0 0.311226 255 255 255 255 
0.652692 0 0.125593 255 255 255 255 
0.804023 0 0.225211 255 255 255 255 
0.752967 0 0.022721 255 255 255 255 
0.119778 0 0.772078 255 255 255 255 
0.390419 0 0.807928 255 255 255 255 
0.165416 0 0.187255 255 255 255 255 
0.397864 0 0.636228 255 255 255 255 
0.310609 0 0.906121 255 255 255 255 
0.45068 0 0.862192 255 255 255 255 
0.760768 0 0.858154 255 255 255 255 
0.859551 0 0.699898 255 255 255 255 
0.439012 0 0.280166 255 255 255 255 
0.354163 0 0.486211 255 255 255 255 
0.409428 0 0.857607 255 255 255 255 
0.9234 0 0.0157152 255 255 255 255 
0.168833 0 0.576092 255 255 255 255 
0.141308 0 0.972856 255 255 255 255 
0.801303 0 0.894275 255 255 255 255 
0.995577 0 0.92108 255 255 255 255 
0.666353 0 0.385997 255 255 255 255 
0.729008 0 0.831769 255 255 255 255 
0.573252 0 0.126872 255 255 255 255 
0.467997 0 0.883861 255 255 255 255 
0.0329925 0 0.918676 255 255 255 255 
0.746052 0 0.793761 255 255 255 255 
0.77683 0 0.605603 255 255 255 255 
0.493659 0 0.215842 255 255 255 255 
0.88577 0 0.847822 255 255 255 255 
0.702053 0 0.295198 255 255 255 255 
0.705429 0 0.625453 255 255 255 255 
0.310913 0 0.874262 255 255 255 255 
0.201545 0 0.452221 255 255 255 255 
0.847118 0 0.00284809 255 255 255 255 
0.346496 0 0.842696 255 255 255 255 
0.923928 0 0.0128492 255 255 255 255 
0.228692 0 0.652936 255 255 255 255 
0.844618 0 0.801944 255 255 255 255 
0.779808 0 0.312615 255 255 255 255 
0.685804 0 0.812801 255 255 255 255 
0.231291 0 0.431857 255 255 255 255 
