ply
format ascii 1.0
comment VCGLIB generated
element vertex 1290
property float x
property float y
property float z
property uchar red
property uchar green
property uchar blue
property uchar alpha
element face 0
property list uchar int vertex_indices
end_header
0 0.640773 0.832121 255 255 255 255 
0 0.762098 0.643806 255 255 255 255 
0 0.837052 0.753367 255 255 255 255 
0 0.288331 0.863782 255 255 255 255 
0 0.681679 0.353026 255 255 255 255 
0 0.948056 0.678521 255 255 255 255 
0 0.0993642 0.282647 255 255 255 255 
0 0.862645 0.696346 255 255 255 255 
0 0.930532 0.0265623 255 255 255 255 
0 0.0321804 0.109052 255 255 255 255 
0 0.879899 0.655492 255 255 255 255 
0 0.0711612 0.0474319 255 255 255 255 
0 0.340273 0.0364982 255 255 255 255 
0 0.184215 0.762592 255 255 255 255 
0 0.730057 0.780734 255 255 255 255 
0 0.269804 0.37083 255 255 255 255 
0 0.612855 0.0319019 255 255 255 255 
0 0.0146364 0.449907 255 255 255 255 
0 0.785269 0.302968 255 255 255 255 
0 0.313689 0.466948 255 255 255 255 
0 0.655994 0.261745 255 255 255 255 
0 0.145469 0.755358 255 255 255 255 
0 0.544392 0.00811411 255 255 255 255 
0 0.451704 0.474924 255 255 255 255 
0 0.0346764 0.483885 255 255 255 255 
0 0.583976 0.914576 255 255 255 255 
0 0.139377 0.655137 255 255 255 255 
0 0.962007 0.47965 255 255 255 255 
0 0.691635 0.146222 255 255 255 255 
0 0.242242 0.421692 255 255 255 255 
0 0.926956 0.512046 255 255 255 255 
0 0.792522 0.539811 255 255 255 255 
0 0.543948 0.807159 255 255 255 255 
0 0.989718 0.329217 255 255 255 255 
0 0.110126 0.303407 255 255 255 255 
0 0.796166 0.76612 255 255 255 255 
0 0.565152 0.941635 255 255 255 255 
0 0.521479 0.109544 255 255 255 255 
0 0.949749 0.973183 255 255 255 255 
0 0.584468 0.984425 255 255 255 255 
0 0.457068 0.168444 255 255 255 255 
0 0.899001 0.596444 255 255 255 255 
0 0.823581 0.861008 255 255 255 255 
0 0.0760942 0.515216 255 255 255 255 
0 0.00723066 0.318336 255 255 255 255 
0 0.936907 0.934187 255 255 255 255 
0 0.830382 0.72943 255 255 255 255 
0 0.473998 0.37433 255 255 255 255 
0 0.536588 0.463717 255 255 255 255 
0 0.703548 0.646715 255 255 255 255 
0 0.767124 0.499713 255 255 255 255 
0 0.412835 0.332276 255 255 255 255 
0 0.441348 0.934314 255 255 255 255 
0 0.44182 0.391097 255 255 255 255 
0 0.907496 0.0262885 255 255 255 255 
0 0.375522 0.364564 255 255 255 255 
0 0.194732 0.274523 255 255 255 255 
0 0.961008 0.0183126 255 255 255 255 
0 0.135532 0.0371026 255 255 255 255 
0 0.533528 0.142762 255 255 255 255 
0 0.355439 0.470436 255 255 255 255 
0 0.0769492 0.185821 255 255 255 255 
0 0.199865 0.550948 255 255 255 255 
0 0.560151 0.736453 255 255 255 255 
0 0.014664 0.263699 255 255 255 255 
0 0.383168 0.781788 255 255 255 255 
0 0.763412 0.796003 255 255 255 255 
0 0.114064 0.20476 255 255 255 255 
0 0.730316 0.555884 255 255 255 255 
0 0.595857 0.637813 255 255 255 255 
0 0.582173 0.971379 255 255 255 255 
0 0.00237646 0.776905 255 255 255 255 
0 0.245902 0.963385 255 255 255 255 
0 0.795217 0.381434 255 255 255 255 
0 0.000487478 0.328746 255 255 255 255 
0 0.524196 0.355926 255 255 255 255 
0 0.799181 0.601145 255 255 255 255 
0 0.541747 0.999046 255 255 255 255 
0 0.152093 0.101898 255 255 255 255 
0 0.7355 0.166757 255 255 255 255 
0 0.365597 0.118667 255 255 255 255 
0 0.948544 0.129009 255 255 255 255 
0 0.91467 0.0626083 255 255 255 255 
0 0.333769 0.644986 255 255 255 255 
0 0.618493 0.929626 255 255 255 255 
0 0.282799 0.200665 255 255 255 255 
0 0.901004 0.285175 255 255 255 255 
0 0.97757 0.146907 255 255 255 255 
0 0.24856 0.772788 255 255 255 255 
0 0.52834 0.249047 255 255 255 255 
0 0.101533 0.0525362 255 255 255 255 
0 0.604974 0.900714 255 255 255 255 
0 0.653681 0.146721 255 255 255 255 
0 0.899761 0.805774 255 255 255 255 
0 0.248619 0.63526 255 255 255 255 
0 0.972531 0.614216 255 255 255 255 
0 0.753927 0.921075 255 255 255 255 
0 0.743225 0.668597 255 255 255 255 
0 0.983683 0.0769942 255 255 255 255 
0 0.313584 0.602176 255 255 255 255 
0 0.00661978 0.596382 255 255 255 255 
0 0.802841 0.907624 255 255 255 255 
0 0.881557 0.780411 255 255 255 255 
0 0.0545309 0.130117 255 255 255 255 
0 0.553199 0.582871 255 255 255 255 
0 0.379165 0.654732 255 255 255 255 
0 0.635407 0.984138 255 255 255 255 
0 0.555446 0.289089 255 255 255 255 
0 0.130859 0.455207 255 255 255 255 
0 0.0948627 0.379479 255 255 255 255 
0 0.0904669 0.0673933 255 255 255 255 
0 0.993695 0.844394 255 255 255 255 
0 0.988468 0.73692 255 255 255 255 
0 0.512992 0.972152 255 255 255 255 
0 0.813915 0.826575 255 255 255 255 
0 0.574328 0.820534 255 255 255 255 
0 0.422957 0.377169 255 255 255 255 
0 0.728159 0.304515 255 255 255 255 
0 0.15758 0.782689 255 255 255 255 
0 0.434632 0.710779 255 255 255 255 
0 0.365561 0.813797 255 255 255 255 
0 0.36551 0.000968041 255 255 255 255 
0 0.797936 0.920956 255 255 255 255 
0 0.290057 0.928795 255 255 255 255 
0 0.376163 0.384919 255 255 255 255 
0 0.308273 0.46663 255 255 255 255 
0 0.452313 0.301968 255 255 255 255 
0 0.311024 0.440781 255 255 255 255 
0 0.0388886 0.824016 255 255 255 255 
0 0.412933 0.852803 255 255 255 255 
0 0.650591 0.987261 255 255 255 255 
0 0.673338 0.0735489 255 255 255 255 
0 0.364429 0.401496 255 255 255 255 
0 0.378064 0.522009 255 255 255 255 
0 0.184186 0.812696 255 255 255 255 
0 0.232788 0.549746 255 255 255 255 
0 0.626493 0.598298 255 255 255 255 
0 0.550714 0.424428 255 255 255 255 
0 0.519255 0.840771 255 255 255 255 
0 0.353223 0.895418 255 255 255 255 
0 0.22569 0.661497 255 255 255 255 
0 0.362048 0.678003 255 255 255 255 
0 0.963465 0.673072 255 255 255 255 
0 0.118784 0.0023537 255 255 255 255 
0 0.497088 0.531717 255 255 255 255 
0 0.855157 0.14768 255 255 255 255 
0 0.518978 0.528494 255 255 255 255 
0 0.221229 0.883407 255 255 255 255 
0 0.92999 0.599292 255 255 255 255 
0 0.405416 0.114176 255 255 255 255 
0 0.411988 0.638204 255 255 255 255 
0 0.663922 0.038481 255 255 255 255 
0 0.236502 0.214636 255 255 255 255 
0 0.462909 0.755757 255 255 255 255 
0 0.0554075 0.816133 255 255 255 255 
0 0.651175 0.281098 255 255 255 255 
0 0.477629 0.0132225 255 255 255 255 
0 0.959101 0.441095 255 255 255 255 
0 0.686295 0.0778855 255 255 255 255 
0 0.443448 0.183383 255 255 255 255 
0 0.609603 0.298605 255 255 255 255 
0 0.331063 0.128581 255 255 255 255 
0 0.8271 0.552291 255 255 255 255 
0 0.011988 0.75709 255 255 255 255 
0 0.151584 0.417405 255 255 255 255 
0 0.871266 0.563572 255 255 255 255 
0 0.0556088 0.535188 255 255 255 255 
0 0.602053 0.292111 255 255 255 255 
0 0.749825 0.0649622 255 255 255 255 
0 0.0478683 0.805232 255 255 255 255 
0 0.881095 0.699043 255 255 255 255 
0 0.0863301 0.358724 255 255 255 255 
0 0.712266 0.0454312 255 255 255 255 
0 0.799819 0.39856 255 255 255 255 
0 0.123317 0.243267 255 255 255 255 
0 0.581943 0.73292 255 255 255 255 
0 0.541872 0.913006 255 255 255 255 
0 0.8615 0.368972 255 255 255 255 
0 0.465297 0.873488 255 255 255 255 
0 0.126062 0.616881 255 255 255 255 
0 0.290893 0.997328 255 255 255 255 
0 0.180452 0.346502 255 255 255 255 
0 0.532516 0.782505 255 255 255 255 
0 0.638613 0.282341 255 255 255 255 
0 0.847467 0.686481 255 255 255 255 
0 0.0875728 0.728562 255 255 255 255 
0 0.385524 0.173903 255 255 255 255 
0 0.0872865 0.09779 255 255 255 255 
0 0.219334 0.887105 255 255 255 255 
0 0.49635 0.342651 255 255 255 255 
0 0.130373 0.0782934 255 255 255 255 
0 0.0755704 0.672245 255 255 255 255 
0 0.991299 0.937071 255 255 255 255 
0 0.0412167 0.456596 255 255 255 255 
0 0.810559 0.167278 255 255 255 255 
0 0.073477 0.101452 255 255 255 255 
0 0.164606 0.253929 255 255 255 255 
0 0.447954 0.697122 255 255 255 255 
0 0.0364343 0.0865666 255 255 255 255 
0 0.979463 0.883901 255 255 255 255 
0 0.773048 0.0670355 255 255 255 255 
0 0.612464 0.158572 255 255 255 255 
0 0.240938 0.69975 255 255 255 255 
0 0.256362 0.460272 255 255 255 255 
0 0.586856 0.752712 255 255 255 255 
0 0.802923 0.717228 255 255 255 255 
0 0.831006 0.878494 255 255 255 255 
0 0.389473 0.822305 255 255 255 255 
0 0.815564 0.43069 255 255 255 255 
0 0.278901 0.626123 255 255 255 255 
0 0.597968 0.352378 255 255 255 255 
0 0.727575 0.762574 255 255 255 255 
0 0.606308 0.175529 255 255 255 255 
0 0.459697 0.642742 255 255 255 255 
0 0.262096 0.439159 255 255 255 255 
0 0.526644 0.0351435 255 255 255 255 
0 0.506195 0.139107 255 255 255 255 
0 0.193716 0.747133 255 255 255 255 
0 0.838857 0.450078 255 255 255 255 
0 0.207405 0.425713 255 255 255 255 
0 0.20279 0.0103287 255 255 255 255 
0 0.142941 0.0337962 255 255 255 255 
0 0.888822 0.532414 255 255 255 255 
0 0.856101 0.704387 255 255 255 255 
0 0.963104 0.135003 255 255 255 255 
0 0.33051 0.561073 255 255 255 255 
0 0.487381 0.0580857 255 255 255 255 
0 0.323647 0.093689 255 255 255 255 
0 0.233615 0.783344 255 255 255 255 
0 0.736431 0.49571 255 255 255 255 
0 0.222503 0.263075 255 255 255 255 
0 0.530854 0.728698 255 255 255 255 
0 0.402182 0.72457 255 255 255 255 
0 0.475831 0.241039 255 255 255 255 
0 0.174648 0.683237 255 255 255 255 
0 0.666752 0.377438 255 255 255 255 
0 0.693565 0.809693 255 255 255 255 
0 0.411234 0.582388 255 255 255 255 
0 0.342108 0.267335 255 255 255 255 
0 0.286774 0.305212 255 255 255 255 
0 0.402338 0.617285 255 255 255 255 
0 0.866285 0.889719 255 255 255 255 
0 0.67537 0.189932 255 255 255 255 
0 0.983408 0.908985 255 255 255 255 
0 0.973276 0.71984 255 255 255 255 
0 0.404695 0.19578 255 255 255 255 
0 0.982914 0.935549 255 255 255 255 
0 0.924478 0.385096 255 255 255 255 
0 0.660119 0.400309 255 255 255 255 
0 0.626135 0.834767 255 255 255 255 
0.262926 0 0.572357 255 255 255 255 
0.977476 0 0.0778555 255 255 255 255 
0.793405 0 0.996543 255 255 255 255 
0.331743 0 0.624038 255 255 255 255 
0.840692 0 0.677211 255 255 255 255 
0.843648 0 0.235723 255 255 255 255 
0.266874 0 0.37845 255 255 255 255 
0.692584 0 0.618316 255 255 255 255 
0.121014 0 0.276785 255 255 255 255 
0.578035 0 0.0395668 255 255 255 255 
0.113376 0 0.0271731 255 255 255 255 
0.302105 0 0.806261 255 255 255 255 
0.402892 0 0.920794 255 255 255 255 
0.9693 0 0.795817 255 255 255 255 
0.200829 0 0.603809 255 255 255 255 
0.138081 0 0.463756 255 255 255 255 
0.176166 0 0.115557 255 255 255 255 
0.541611 0 0.969571 255 255 255 255 
0.1121 0 0.873354 255 255 255 255 
0.593608 0 0.952792 255 255 255 255 
0.550565 0 0.437256 255 255 255 255 
0.188515 0 0.817439 255 255 255 255 
0.815706 0 0.881099 255 255 255 255 
0.435755 0 0.93672 255 255 255 255 
0.157885 0 0.0137896 255 255 255 255 
0.976287 0 0.271261 255 255 255 255 
0.0409627 0 0.278392 255 255 255 255 
0.0775223 0 0.443855 255 255 255 255 
0.199186 0 0.0468224 255 255 255 255 
0.239672 0 0.400015 255 255 255 255 
0.650631 0 0.377753 255 255 255 255 
0.863771 0 0.826797 255 255 255 255 
0.49331 0 0.405382 255 255 255 255 
0.796367 0 0.60541 255 255 255 255 
0.278736 0 0.389975 255 255 255 255 
0.558202 0 0.829301 255 255 255 255 
0.827231 0 0.746718 255 255 255 255 
0.64674 0 0.642938 255 255 255 255 
0.627817 0 0.0824953 255 255 255 255 
0.579658 0 0.785702 255 255 255 255 
0.0962849 0 0.555945 255 255 255 255 
0.0569627 0 0.137248 255 255 255 255 
0.834337 0 0.134485 255 255 255 255 
0.581103 0 0.0335225 255 255 255 255 
0.181307 0 0.820775 255 255 255 255 
0.433538 0 0.831939 255 255 255 255 
0.198528 0 0.297308 255 255 255 255 
0.658735 0 0.691838 255 255 255 255 
0.70269 0 0.455102 255 255 255 255 
0.297248 0 0.981426 255 255 255 255 
0.845078 0 0.855451 255 255 255 255 
0.810728 0 0.672309 255 255 255 255 
0.602168 0 0.457468 255 255 255 255 
0.315247 0 0.229985 255 255 255 255 
0.539963 0 0.894905 255 255 255 255 
0.0156872 0 0.636248 255 255 255 255 
0.45085 0 0.0726498 255 255 255 255 
0.773496 0 0.285186 255 255 255 255 
0.207135 0 0.354599 255 255 255 255 
0.318709 0 0.388442 255 255 255 255 
0.175373 0 0.752247 255 255 255 255 
0.220381 0 0.373902 255 255 255 255 
0.0495548 0 0.879116 255 255 255 255 
0.0657396 0 0.752245 255 255 255 255 
0.334218 0 0.362988 255 255 255 255 
0.733671 0 0.179296 255 255 255 255 
0.218438 0 0.544398 255 255 255 255 
0.851605 0 0.820607 255 255 255 255 
0.00186661 0 0.166852 255 255 255 255 
0.050592 0 0.54183 255 255 255 255 
0.061757 0 0.0662792 255 255 255 255 
0.178078 0 0.512607 255 255 255 255 
0.138929 0 0.951574 255 255 255 255 
0.797793 0 0.346064 255 255 255 255 
0.306173 0 0.116502 255 255 255 255 
0.734506 0 0.481546 255 255 255 255 
0.868749 0 0.954887 255 255 255 255 
0.855448 0 0.918303 255 255 255 255 
0.834003 0 0.921188 255 255 255 255 
0.670548 0 0.168221 255 255 255 255 
0.284175 0 0.404219 255 255 255 255 
0.347517 0 0.502614 255 255 255 255 
0.948618 0 0.199122 255 255 255 255 
0.323221 0 0.950484 255 255 255 255 
0.365974 0 0.373813 255 255 255 255 
0.492314 0 0.427731 255 255 255 255 
0.440092 0 0.670393 255 255 255 255 
0.940338 0 0.579021 255 255 255 255 
0.621967 0 0.738131 255 255 255 255 
0.925085 0 0.92814 255 255 255 255 
0.854633 0 0.65959 255 255 255 255 
0.409686 0 0.723382 255 255 255 255 
0.614477 0 0.265134 255 255 255 255 
0.641686 0 0.44848 255 255 255 255 
0.186321 0 0.312234 255 255 255 255 
0.616701 0 0.470497 255 255 255 255 
0.716453 0 0.964218 255 255 255 255 
0.973111 0 0.665071 255 255 255 255 
0.16334 0 0.296331 255 255 255 255 
0.615555 0 0.529314 255 255 255 255 
0.670144 0 0.107869 255 255 255 255 
0.957046 0 0.110236 255 255 255 255 
0.778262 0 0.897384 255 255 255 255 
0.689257 0 0.400229 255 255 255 255 
0.635515 0 0.614341 255 255 255 255 
0.328368 0 0.490148 255 255 255 255 
0.273932 0 0.738054 255 255 255 255 
0.21353 0 0.888409 255 255 255 255 
0.00318833 0 0.855216 255 255 255 255 
0.336889 0 0.18951 255 255 255 255 
0.16745 0 0.953589 255 255 255 255 
0.660007 0 0.883902 255 255 255 255 
0.917807 0 0.633118 255 255 255 255 
0.548973 0 0.0811469 255 255 255 255 
0.929449 0 0.164528 255 255 255 255 
0.610461 0 0.599593 255 255 255 255 
0.272397 0 0.567507 255 255 255 255 
0.709829 0 0.0506588 255 255 255 255 
0.464891 0 0.399086 255 255 255 255 
0.450887 0 0.100406 255 255 255 255 
0.0134273 0 0.779256 255 255 255 255 
0.590554 0 0.287359 255 255 255 255 
0.51731 0 0.804084 255 255 255 255 
0.175768 0 0.520499 255 255 255 255 
0.6593 0 0.512657 255 255 255 255 
0.710008 0 0.826749 255 255 255 255 
0.466246 0 0.370015 255 255 255 255 
0.710652 0 0.384053 255 255 255 255 
0.00313252 0 0.259625 255 255 255 255 
0.4652 0 0.932582 255 255 255 255 
0.424153 0 0.075661 255 255 255 255 
0.532175 0 0.69655 255 255 255 255 
0.643168 0 0.242004 255 255 255 255 
0.747209 0 0.108059 255 255 255 255 
0.64109 0 0.198096 255 255 255 255 
0.208465 0 0.654517 255 255 255 255 
0.977352 0 0.799019 255 255 255 255 
0.941876 0 0.494662 255 255 255 255 
0.603103 0 0.117644 255 255 255 255 
0.0151606 0 0.262403 255 255 255 255 
0.630301 0 0.725169 255 255 255 255 
0.0891524 0 0.0965467 255 255 255 255 
0.0951839 0 0.799804 255 255 255 255 
0.4806 0 0.0983164 255 255 255 255 
0.0594292 0 0.945799 255 255 255 255 
0.030898 0 0.483582 255 255 255 255 
0.0214603 0 0.563073 255 255 255 255 
0.180132 0 0.664628 255 255 255 255 
0.805077 0 0.92734 255 255 255 255 
0.772687 0 0.446166 255 255 255 255 
0.125436 0 0.981152 255 255 255 255 
0.100684 0 0.102788 255 255 255 255 
0.780171 0 0.0425597 255 255 255 255 
0.59745 0 0.383274 255 255 255 255 
0.160204 0 0.612611 255 255 255 255 
0.645677 0 0.790505 255 255 255 255 
0.337779 0 0.734829 255 255 255 255 
0.887051 0 0.432963 255 255 255 255 
0.534633 0 0.367651 255 255 255 255 
0.53128 0 0.594063 255 255 255 255 
0.31345 0 0.562178 255 255 255 255 
0.0776445 0 0.334911 255 255 255 255 
0.12525 0 0.257776 255 255 255 255 
0.999539 0 0.930327 255 255 255 255 
0.185116 0 0.772226 255 255 255 255 
0.376493 0 0.310553 255 255 255 255 
0.753379 0 0.477177 255 255 255 255 
0.413341 0 0.53355 255 255 255 255 
0.519737 0 0.0107908 255 255 255 255 
0.916824 0 0.679941 255 255 255 255 
0.623401 0 0.5625 255 255 255 255 
0.470445 0 0.961181 255 255 255 255 
0.29733 0 0.357497 255 255 255 255 
0.394144 0 0.831963 255 255 255 255 
0.725148 0 0.925424 255 255 255 255 
0.426026 0 0.0385981 255 255 255 255 
0.487602 0 0.50367 255 255 255 255 
0.373509 0 0.612852 255 255 255 255 
0.761446 0 0.373048 255 255 255 255 
0.543179 0 0.946563 255 255 255 255 
0.145274 0 0.919672 255 255 255 255 
0.257116 0 0.898653 255 255 255 255 
0.396849 0 0.670456 255 255 255 255 
0.432202 0 0.916586 255 255 255 255 
0.681247 0 0.349026 255 255 255 255 
0.596527 0 0.304648 255 255 255 255 
0.911526 0 0.0669719 255 255 255 255 
0.265829 0 0.208856 255 255 255 255 
0.424469 0 0.659973 255 255 255 255 
0.040819 0 0.149616 255 255 255 255 
0.585397 0 0.466845 255 255 255 255 
0.188215 0 0.072999 255 255 255 255 
0.970515 0 0.561723 255 255 255 255 
0.685851 0 0.731961 255 255 255 255 
0.934771 0 0.22903 255 255 255 255 
0.678524 0 0.0800455 255 255 255 255 
0.148703 0 0.93564 255 255 255 255 
0.978698 0 0.545552 255 255 255 255 
0.606096 0 0.410901 255 255 255 255 
0.462138 0 0.287343 255 255 255 255 
0.759927 0 0.0586649 255 255 255 255 
0.591992 0 0.671453 255 255 255 255 
0.125637 0 0.857821 255 255 255 255 
0.880309 0 0.550106 255 255 255 255 
0.517794 0 0.921128 255 255 255 255 
0.699722 0 0.103192 255 255 255 255 
0.387973 0 0.887937 255 255 255 255 
0.176191 0 0.358488 255 255 255 255 
0.44966 0 0.862042 255 255 255 255 
0.0904488 0 0.384431 255 255 255 255 
0.0910718 0 0.768973 255 255 255 255 
0.464477 0 0.239774 255 255 255 255 
0.704613 0 0.443175 255 255 255 255 
0.785326 0 0.310709 255 255 255 255 
0.854076 0 0.247465 255 255 255 255 
0.598052 0 0.614003 255 255 255 255 
0.30613 0 0.190043 255 255 255 255 
0.285456 0 0.431766 255 255 255 255 
0.0478642 0 0.165765 255 255 255 255 
0.981872 0 0.565659 255 255 255 255 
0.0868931 0 0.681594 255 255 255 255 
0.66885 0 0.474866 255 255 255 255 
0.56953 0 0.845041 255 255 255 255 
0.833353 0 0.0191904 255 255 255 255 
0.707082 0 0.923802 255 255 255 255 
0.403622 0 0.798154 255 255 255 255 
0.692775 0 0.868098 255 255 255 255 
0.0379286 0 0.397388 255 255 255 255 
0.311273 0 0.823255 255 255 255 255 
0.708097 0 0.165349 255 255 255 255 
0.0707198 0 0.306148 255 255 255 255 
0.779352 0 0.376849 255 255 255 255 
0.496192 0 0.0648075 255 255 255 255 
0.808616 0 0.544056 255 255 255 255 
0.230572 0 0.790488 255 255 255 255 
0.109715 0 0.317466 255 255 255 255 
0.472081 0 0.778565 255 255 255 255 
0.792331 0 0.0416117 255 255 255 255 
0.623605 0 0.625685 255 255 255 255 
0.0608021 0 0.330688 255 255 255 255 
0.549487 0 0.464424 255 255 255 255 
0.128842 0 0.242262 255 255 255 255 
0.332522 0 0.166771 255 255 255 255 
0.639649 0 0.643795 255 255 255 255 
0.990026 0 0.347746 255 255 255 255 
0.809144 0 0.0607456 255 255 255 255 
0.653894 0 0.588495 255 255 255 255 
0.437595 0 0.150086 255 255 255 255 
0.653303 0 0.246211 255 255 255 255 
0.694142 0 0.883875 255 255 255 255 
0.0366982 0 0.803857 255 255 255 255 
0.201341 0 0.50878 255 255 255 255 
0.582422 0 0.993672 255 255 255 255 
0.550391 0 0.206027 255 255 255 255 
0.619357 0 0.611193 255 255 255 255 
0.536715 0 0.168844 255 255 255 255 
0.075617 0 0.665557 255 255 255 255 
0.411105 0 0.408139 255 255 255 255 
0.832328 0 0.0507547 255 255 255 255 
0.0519336 0 0.822353 255 255 255 255 
0.398501 0 0.861077 255 255 255 255 
0.883099 0 0.0523949 255 255 255 255 
0.449573 0 0.320694 255 255 255 255 
0.202481 0 0.102876 255 255 255 255 
0.566905 0 0.896623 255 255 255 255 
0.986751 0 0.603603 255 255 255 255 
0.70048 0 0.188092 255 255 255 255 
0.112382 0 0.282902 255 255 255 255 
0.181764 0 0.662774 255 255 255 255 
0.488929 0 0.801121 255 255 255 255 
0.273967 0 0.0256435 255 255 255 255 
0.969964 0 0.349584 255 255 255 255 
0.6912 0 0.381069 255 255 255 255 
0.757723 0 0.523528 255 255 255 255 
0.431824 0 0.809656 255 255 255 255 
0.345882 0 0.830325 255 255 255 255 
0.670734 0 0.228981 255 255 255 255 
0.88272 0 0.120306 255 255 255 255 
0.549675 0 0.0852006 255 255 255 255 
0.223182 0 0.116579 255 255 255 255 
0.981824 0 0.209933 255 255 255 255 
0.720182 0 0.682304 255 255 255 255 
0.398024 0 0.832565 255 255 255 255 
0.965206 0 0.579788 255 255 255 255 
0.495338 0 0.454134 255 255 255 255 
0.380909 0 0.769305 255 255 255 255 
0.479778 0 0.350873 255 255 255 255 
0.118889 0 0.170978 255 255 255 255 
0.731943 0 0.876612 255 255 255 255 
0.694506 0 0.163767 255 255 255 255 
0.686268 0 0.0403879 255 255 255 255 
0.994091 0 0.357002 255 255 255 255 
0.269369 0 0.876811 255 255 255 255 
0.477308 0 0.819043 255 255 255 255 
0.962012 0 0.70049 255 255 255 255 
0.935623 0 0.943836 255 255 255 255 
0.910423 0 0.655805 255 255 255 255 
0.62614 0 0.308447 255 255 255 255 
0.48837 0 0.591345 255 255 255 255 
0.888235 0 0.983708 255 255 255 255 
0.0454797 0 0.269144 255 255 255 255 
0.753013 0 0.525258 255 255 255 255 
0.620018 0 0.871902 255 255 255 255 
0.696236 0 0.35196 255 255 255 255 
0.748514 0 0.390742 255 255 255 255 
0.515727 0 0.434782 255 255 255 255 
0.43113 0 0.509818 255 255 255 255 
0.791784 0 0.700498 255 255 255 255 
0.386629 0 0.269092 255 255 255 255 
0.519542 0 0.348641 255 255 255 255 
0.969582 0 0.455164 255 255 255 255 
0.292476 0 0.880005 255 255 255 255 
0.11097 0 0.918616 255 255 255 255 
0.188452 0 0.599339 255 255 255 255 
0.509961 0 0.0766876 255 255 255 255 
0.583047 0 0.555441 255 255 255 255 
0.345832 0 0.33606 255 255 255 255 
0.0806988 0 0.96585 255 255 255 255 
0.207962 0 0.776935 255 255 255 255 
0.31781 0 0.956476 255 255 255 255 
0.167676 0 0.833537 255 255 255 255 
0.391258 0 0.598806 255 255 255 255 
0.343355 0 0.183042 255 255 255 255 
0.299305 0 0.729985 255 255 255 255 
0.452135 0 0.818847 255 255 255 255 
0.0786255 0 0.421717 255 255 255 255 
0.274011 0 0.371102 255 255 255 255 
0.301722 0 0.384981 255 255 255 255 
0.289718 0 0.490174 255 255 255 255 
0.98432 0 0.79968 255 255 255 255 
0.566862 0 0.567367 255 255 255 255 
0.355121 0 0.912694 255 255 255 255 
0.903427 0 0.43582 255 255 255 255 
0.878544 0 0.111389 255 255 255 255 
0.212754 0 0.196354 255 255 255 255 
0.0678648 0 0.380431 255 255 255 255 
0.0298904 0 0.459123 255 255 255 255 
0.979237 0 0.373246 255 255 255 255 
0.642165 0 0.278542 255 255 255 255 
0.10323 0 0.0942998 255 255 255 255 
0.0973884 0 0.181856 255 255 255 255 
0.516017 0 0.3714 255 255 255 255 
0.552958 0 0.817739 255 255 255 255 
0.75638 0 0.842676 255 255 255 255 
0.307913 0 0.7407 255 255 255 255 
0.642355 0 0.874775 255 255 255 255 
0.308067 0 0.997476 255 255 255 255 
0.787469 0 0.211493 255 255 255 255 
0.433296 0 0.666012 255 255 255 255 
0.322882 0 0.64605 255 255 255 255 
0.862366 0 0.390747 255 255 255 255 
0.0264806 0 0.892256 255 255 255 255 
0.84987 0 0.0057176 255 255 255 255 
0.265502 0 0.492035 255 255 255 255 
0.284259 0 0.368732 255 255 255 255 
0.586335 0 0.381648 255 255 255 255 
0.550588 0 0.102352 255 255 255 255 
0.753047 0 0.103546 255 255 255 255 
0.92009 0 0.509428 255 255 255 255 
0.946222 0 0.228003 255 255 255 255 
0.250128 0 0.588577 255 255 255 255 
0.102778 0 0.558194 255 255 255 255 
0.586053 0 0.890247 255 255 255 255 
0.769688 0 0.0193493 255 255 255 255 
0.556259 0 0.0925695 255 255 255 255 
0.665399 0 0.418625 255 255 255 255 
0.483316 0 0.69188 255 255 255 255 
0.310882 0 0.333186 255 255 255 255 
0.697598 0 0.576384 255 255 255 255 
0.825221 0 0.981857 255 255 255 255 
0.945116 0 0.411556 255 255 255 255 
0.363505 0 0.495704 255 255 255 255 
0.513908 0 0.116552 255 255 255 255 
0.59925 0 0.433998 255 255 255 255 
0.62598 0 0.545471 255 255 255 255 
0.662001 0 0.876108 255 255 255 255 
0.134048 0 0.764779 255 255 255 255 
0.434302 0 0.720102 255 255 255 255 
0.655026 0 0.203989 255 255 255 255 
0.739451 0 0.211286 255 255 255 255 
0.296559 0 0.40485 255 255 255 255 
0.629911 0 0.779875 255 255 255 255 
0.0967304 0 0.940793 255 255 255 255 
0.113061 0 0.794328 255 255 255 255 
0.517176 0 0.938282 255 255 255 255 
0.776185 0 0.462292 255 255 255 255 
0.349838 0 0.13969 255 255 255 255 
0.957996 0 0.863746 255 255 255 255 
0.256242 0 0.557246 255 255 255 255 
0.297744 0 0.882222 255 255 255 255 
0.102717 0 0.959745 255 255 255 255 
0.75833 0 0.236766 255 255 255 255 
0.724525 0 0.192631 255 255 255 255 
0.956867 0 0.379551 255 255 255 255 
0.396621 0 0.696319 255 255 255 255 
0.590837 0 0.693179 255 255 255 255 
0.101169 0 0.220748 255 255 255 255 
0.473055 0 0.197899 255 255 255 255 
0.16154 0 0.586116 255 255 255 255 
0.992227 0 0.678717 255 255 255 255 
0.524398 0 0.768412 255 255 255 255 
0.141009 0 0.874236 255 255 255 255 
0.908102 0 0.0990048 255 255 255 255 
0.737982 0 0.164345 255 255 255 255 
0.656251 0 0.035726 255 255 255 255 
0.0465667 0 0.758968 255 255 255 255 
0.995471 0 0.804896 255 255 255 255 
0.995733 0 0.719996 255 255 255 255 
0.997528 0 0.952601 255 255 255 255 
0.0995468 0 0.394148 255 255 255 255 
0.648919 0 0.690384 255 255 255 255 
0.0873279 0 0.750088 255 255 255 255 
0.911131 0 0.560383 255 255 255 255 
0.947988 0 0.0726716 255 255 255 255 
0.146498 0 0.940215 255 255 255 255 
0.751388 0 0.670896 255 255 255 255 
0.708628 0 0.892397 255 255 255 255 
0.545132 0 0.61673 255 255 255 255 
0.991402 0 0.283115 255 255 255 255 
0.781075 0 0.647652 255 255 255 255 
0.318841 0 0.827641 255 255 255 255 
0.40662 0 0.314312 255 255 255 255 
0.632538 0 0.402354 255 255 255 255 
0.0343076 0 0.630066 255 255 255 255 
0.354955 0 0.133854 255 255 255 255 
0.024214 0 0.00387406 255 255 255 255 
0.824238 0 0.111542 255 255 255 255 
0.753963 0 0.735369 255 255 255 255 
0.671924 0 0.70195 255 255 255 255 
0.808041 0 0.818423 255 255 255 255 
0.642166 0 0.559429 255 255 255 255 
0.489319 0 0.350794 255 255 255 255 
0.451826 0 0.0344514 255 255 255 255 
0.967524 0 0.443227 255 255 255 255 
0.317566 0 0.748598 255 255 255 255 
0.0908797 0 0.636407 255 255 255 255 
0.57624 0 0.4975 255 255 255 255 
0.950718 0 0.208778 255 255 255 255 
0.899853 0 0.985026 255 255 255 255 
0.838843 0 0.254808 255 255 255 255 
0.118881 0 0.863057 255 255 255 255 
0.258682 0 0.943119 255 255 255 255 
0.974599 0 0.0126447 255 255 255 255 
0.678488 0 0.646524 255 255 255 255 
0.714595 0 0.486529 255 255 255 255 
0.464946 0 0.356761 255 255 255 255 
0.045958 0 0.954265 255 255 255 255 
0.707554 0 0.497784 255 255 255 255 
0.988717 0 0.675078 255 255 255 255 
0.941011 0 0.306283 255 255 255 255 
0.423676 0 0.0318911 255 255 255 255 
0.942689 0 0.999916 255 255 255 255 
0.529391 0 0.893408 255 255 255 255 
0.208694 0 0.429244 255 255 255 255 
0.878434 0 0.0475372 255 255 255 255 
0.684052 0 0.997314 255 255 255 255 
0.910594 0 0.942735 255 255 255 255 
0.940433 0 0.885194 255 255 255 255 
0.955379 0 0.618921 255 255 255 255 
0.531717 0 0.669974 255 255 255 255 
0.10545 0 0.996664 255 255 255 255 
0.0267352 0 0.151408 255 255 255 255 
0.950929 0 0.734289 255 255 255 255 
0.649192 0 0.939646 255 255 255 255 
0.409368 0 0.590203 255 255 255 255 
0.245928 0 0.833044 255 255 255 255 
0.622094 0 0.188618 255 255 255 255 
0.83296 0 0.151485 255 255 255 255 
0.0820258 0 0.0416543 255 255 255 255 
0.580729 0 0.96046 255 255 255 255 
0.0891916 0 0.264782 255 255 255 255 
0.957774 0 0.999786 255 255 255 255 
0.207517 0 0.898207 255 255 255 255 
0.88498 0 0.162896 255 255 255 255 
0.517128 0 0.416697 255 255 255 255 
0.83287 0 0.622578 255 255 255 255 
0.41336 0 0.859605 255 255 255 255 
0.773986 0 0.364289 255 255 255 255 
0.593895 0 0.423178 255 255 255 255 
0.303935 0 0.00326243 255 255 255 255 
0.0133808 0 0.549864 255 255 255 255 
0.836306 0 0.635475 255 255 255 255 
0.738481 0 0.669267 255 255 255 255 
0.78696 0 0.820507 255 255 255 255 
0.710921 0 0.36769 255 255 255 255 
0.780967 0 0.800113 255 255 255 255 
0.632472 0 0.738741 255 255 255 255 
0.799899 0 0.839988 255 255 255 255 
0.636948 0 0.684878 255 255 255 255 
0.00288425 0 0.154077 255 255 255 255 
0.101575 0 0.835755 255 255 255 255 
0.776655 0 0.514936 255 255 255 255 
0.69536 0 0.550641 255 255 255 255 
0.879225 0 0.289255 255 255 255 255 
0.973818 0 0.18316 255 255 255 255 
0.292517 0 0.987199 255 255 255 255 
0.733023 0 0.128824 255 255 255 255 
0.622674 0 0.471505 255 255 255 255 
0.798091 0 0.409634 255 255 255 255 
0.292012 0 0.509012 255 255 255 255 
0.777324 0 0.0729793 255 255 255 255 
0.309124 0 0.409796 255 255 255 255 
0.811721 0 0.109023 255 255 255 255 
0.249784 0 0.448669 255 255 255 255 
0.793901 0 0.252668 255 255 255 255 
0.602746 0 0.895476 255 255 255 255 
0.0884227 0 0.3794 255 255 255 255 
0.410412 0 0.783783 255 255 255 255 
0.930041 0 0.289637 255 255 255 255 
0.0730377 0 0.903859 255 255 255 255 
0.472797 0 0.365555 255 255 255 255 
0.891058 0 0.20582 255 255 255 255 
0.494379 0 0.513732 255 255 255 255 
0.677325 0 0.292469 255 255 255 255 
0.923367 0 0.969338 255 255 255 255 
0.801481 0 0.70069 255 255 255 255 
0.0423169 0 0.110605 255 255 255 255 
0.110486 0 0.854037 255 255 255 255 
0.219628 0 0.36027 255 255 255 255 
0.302707 0 0.013529 255 255 255 255 
0.612938 0 0.905452 255 255 255 255 
0.909005 0 0.701361 255 255 255 255 
0.284853 0 0.319417 255 255 255 255 
0.485143 0 0.214893 255 255 255 255 
0.609054 0 0.558181 255 255 255 255 
0.118753 0 0.0818513 255 255 255 255 
0.923736 0 0.00981077 255 255 255 255 
0.287672 0 0.418115 255 255 255 255 
0.523543 0 0.964997 255 255 255 255 
0.710585 0 0.44691 255 255 255 255 
0.934335 0 0.512065 255 255 255 255 
0.1476 0 0.976652 255 255 255 255 
0.622671 0 0.258086 255 255 255 255 
0.830689 0 0.842298 255 255 255 255 
0.618356 0 0.133396 255 255 255 255 
0.855827 0 0.231294 255 255 255 255 
0.0388478 0 0.764833 255 255 255 255 
0.932655 0 0.3237 255 255 255 255 
0.0842502 0 0.417798 255 255 255 255 
0.538594 0 0.693304 255 255 255 255 
0.975979 0 0.657346 255 255 255 255 
0.775156 0 0.899715 255 255 255 255 
0.667157 0 0.0628275 255 255 255 255 
0.317831 0 0.1907 255 255 255 255 
0.0278245 0 0.0284151 255 255 255 255 
0.63761 0 0.962159 255 255 255 255 
0.540481 0 0.78521 255 255 255 255 
0.938811 0 0.163151 255 255 255 255 
0.0432959 0 0.7695 255 255 255 255 
0.0054495 0 0.661652 255 255 255 255 
0.902896 0 0.861277 255 255 255 255 
0.892946 0 0.941743 255 255 255 255 
0.62611 0 0.825601 255 255 255 255 
0.265444 0 0.71036 255 255 255 255 
0.243399 0 0.804038 255 255 255 255 
0.403664 0 0.219378 255 255 255 255 
0.461384 0 0.17882 255 255 255 255 
0.119093 0 0.128541 255 255 255 255 
0.241648 0 0.436924 255 255 255 255 
0.319241 0 0.269472 255 255 255 255 
0.465339 0 0.956851 255 255 255 255 
0.231632 0 0.00581934 255 255 255 255 
0.742061 0 0.170442 255 255 255 255 
0.16897 0 0.785357 255 255 255 255 
0.939942 0 0.17442 255 255 255 255 
0.447009 0 0.842838 255 255 255 255 
0.0356969 0 0.339955 255 255 255 255 
0.784581 0 0.661807 255 255 255 255 
0.165555 0 0.0500251 255 255 255 255 
0.372167 0 0.408954 255 255 255 255 
0.854063 0 0.775831 255 255 255 255 
0.628331 0 0.315447 255 255 255 255 
0.954651 0 0.747424 255 255 255 255 
0.443988 0 0.196299 255 255 255 255 
0.184348 0 0.763229 255 255 255 255 
0.465771 0 0.649687 255 255 255 255 
0.72008 0 0.697403 255 255 255 255 
0.655506 0 0.462141 255 255 255 255 
0.867845 0 0.824477 255 255 255 255 
0.247498 0 0.807788 255 255 255 255 
0.998897 0 0.694506 255 255 255 255 
0.650626 0 0.0345935 255 255 255 255 
0.0344609 0 0.435207 255 255 255 255 
0.6964 0 0.200016 255 255 255 255 
0.485232 0 0.0685669 255 255 255 255 
0.608969 0 0.339295 255 255 255 255 
0.844398 0 0.237301 255 255 255 255 
0.654741 0 0.799049 255 255 255 255 
0.984725 0 0.0987287 255 255 255 255 
0.995349 0 0.169073 255 255 255 255 
0.861958 0 0.46112 255 255 255 255 
0.81876 0 0.582037 255 255 255 255 
0.158523 0 0.474267 255 255 255 255 
0.0441781 0 0.0263684 255 255 255 255 
0.298743 0 0.291676 255 255 255 255 
0.834156 0 0.29764 255 255 255 255 
0.986182 0 0.484782 255 255 255 255 
0.332233 0 0.0206429 255 255 255 255 
0.919988 0 0.0286336 255 255 255 255 
0.220659 0 0.40522 255 255 255 255 
0.0972005 0 0.829628 255 255 255 255 
0.744515 0 0.941599 255 255 255 255 
0.066929 0 0.399256 255 255 255 255 
0.740648 0 0.0516542 255 255 255 255 
0.497985 0 0.735997 255 255 255 255 
0.220728 0 0.359942 255 255 255 255 
0.197117 0 0.0394879 255 255 255 255 
0.94198 0 0.35564 255 255 255 255 
0.513755 0 0.986158 255 255 255 255 
0.382008 0 0.812498 255 255 255 255 
0.277834 0 0.216164 255 255 255 255 
0.110138 0 0.264016 255 255 255 255 
0.700946 0 0.442371 255 255 255 255 
0.284659 0 0.620934 255 255 255 255 
0.471005 0 0.505317 255 255 255 255 
0.0261547 0 0.568205 255 255 255 255 
0.334946 0 0.77067 255 255 255 255 
0.509804 0 0.401875 255 255 255 255 
0.169926 0 0.250452 255 255 255 255 
0.453529 0 0.667911 255 255 255 255 
0.986449 0 0.674256 255 255 255 255 
0.0278532 0 0.183566 255 255 255 255 
0.713744 0 0.969833 255 255 255 255 
0.539206 0 0.227499 255 255 255 255 
0.955991 0 0.921214 255 255 255 255 
0.0399966 0 0.233825 255 255 255 255 
0.137378 0 0.150134 255 255 255 255 
0.497841 0 0.838324 255 255 255 255 
0.592506 0 0.782499 255 255 255 255 
0.459259 0 0.0635107 255 255 255 255 
0.287816 0 0.485413 255 255 255 255 
0.631716 0 0.622762 255 255 255 255 
0.256083 0 0.14152 255 255 255 255 
0.0246366 0 0.426009 255 255 255 255 
0.391972 0 0.478165 255 255 255 255 
0.0939196 0 0.378421 255 255 255 255 
0.152422 0 0.121773 255 255 255 255 
0.561987 0 0.866166 255 255 255 255 
0.0916059 0 0.101192 255 255 255 255 
0.0936646 0 0.047597 255 255 255 255 
0.0224065 0 0.133661 255 255 255 255 
0.281422 0 0.159785 255 255 255 255 
0.283796 0 0.779262 255 255 255 255 
0.998109 0 0.876301 255 255 255 255 
0.561761 0 0.457368 255 255 255 255 
0.939812 0 0.849578 255 255 255 255 
0.942781 0 0.571528 255 255 255 255 
0.47234 0 0.198864 255 255 255 255 
0.713048 0 0.496977 255 255 255 255 
0.624873 0 0.105021 255 255 255 255 
0.975142 0 0.718792 255 255 255 255 
0.483442 0 0.127564 255 255 255 255 
0.840565 0 0.0454285 255 255 255 255 
0.993729 0 0.932171 255 255 255 255 
0.146621 0 0.087394 255 255 255 255 
0.979768 0 0.169027 255 255 255 255 
0.221055 0 0.26119 255 255 255 255 
0.328812 0 0.504851 255 255 255 255 
0.0404521 0 0.326921 255 255 255 255 
0.381152 0 0.602214 255 255 255 255 
0.784289 0 0.320964 255 255 255 255 
0.451792 0 0.72707 255 255 255 255 
0.892492 0 0.924132 255 255 255 255 
0.925933 0 0.605541 255 255 255 255 
0.421108 0 0.550806 255 255 255 255 
0.710561 0 0.39625 255 255 255 255 
0.269598 0 0.194003 255 255 255 255 
0.523814 0 0.110164 255 255 255 255 
0.239431 0 0.517543 255 255 255 255 
0.0423346 0 0.386052 255 255 255 255 
0.604937 0 0.0221025 255 255 255 255 
0.55508 0 0.825993 255 255 255 255 
0.283292 0 0.883892 255 255 255 255 
0.330843 0 0.323744 255 255 255 255 
0.210813 0 0.711995 255 255 255 255 
0.925958 0 0.995102 255 255 255 255 
0.0329595 0 0.37775 255 255 255 255 
0.722171 0 0.925452 255 255 255 255 
0.301881 0 0.648105 255 255 255 255 
0.530992 0 0.72299 255 255 255 255 
0.198911 0 0.241553 255 255 255 255 
0.11924 0 0.468509 255 255 255 255 
0.435556 0 0.643054 255 255 255 255 
0.578673 0 0.674987 255 255 255 255 
0.160598 0 0.621008 255 255 255 255 
0.0610397 0 0.765535 255 255 255 255 
0.64311 0 0.616119 255 255 255 255 
0.591528 0 0.926402 255 255 255 255 
0.500011 0 0.922371 255 255 255 255 
0.250147 0 0.710824 255 255 255 255 
0.634367 0 0.176105 255 255 255 255 
0.705926 0 0.667326 255 255 255 255 
0.553855 0 0.428097 255 255 255 255 
0.592778 0 0.855736 255 255 255 255 
0.0762021 0 0.12377 255 255 255 255 
0.578726 0 0.275113 255 255 255 255 
0.365324 0 0.697966 255 255 255 255 
0.743622 0 0.80088 255 255 255 255 
0.341021 0 0.322295 255 255 255 255 
0.475867 0 0.501619 255 255 255 255 
0.943303 0 0.536907 255 255 255 255 
0.267154 0 0.586413 255 255 255 255 
0.153026 0 0.858682 255 255 255 255 
0.512816 0 0.653038 255 255 255 255 
0.781053 0 0.762962 255 255 255 255 
0.363862 0 0.41542 255 255 255 255 
0.939067 0 0.0697875 255 255 255 255 
0.082746 0 0.492922 255 255 255 255 
0.497885 0 0.675524 255 255 255 255 
0.348658 0 0.574087 255 255 255 255 
0.799294 0 0.927384 255 255 255 255 
0.8492 0 0.164618 255 255 255 255 
0.62535 0 0.592822 255 255 255 255 
0.965498 0 0.966371 255 255 255 255 
0.915118 0 0.441366 255 255 255 255 
0.46799 0 0.858421 255 255 255 255 
0.978273 0 0.735143 255 255 255 255 
0.444834 0 0.131299 255 255 255 255 
0.593825 0 0.957649 255 255 255 255 
0.784337 0 0.374878 255 255 255 255 
0.720612 0 0.148198 255 255 255 255 
0.790298 0 0.659679 255 255 255 255 
0.217986 0 0.873044 255 255 255 255 
0.152601 0 0.715871 255 255 255 255 
0.548568 0 0.501259 255 255 255 255 
0.289957 0 0.347862 255 255 255 255 
0.428643 0 0.139157 255 255 255 255 
0.51248 0 0.0539933 255 255 255 255 
0.73198 0 0.477978 255 255 255 255 
0.0203643 0 0.647098 255 255 255 255 
0.919344 0 0.488354 255 255 255 255 
0.505518 0 0.897617 255 255 255 255 
0.223497 0 0.950352 255 255 255 255 
0.0289157 0 0.817322 255 255 255 255 
0.908002 0 0.813253 255 255 255 255 
0.1922 0 0.628614 255 255 255 255 
0.961451 0 0.982498 255 255 255 255 
0.288293 0 0.179437 255 255 255 255 
0.855542 0 0.440894 255 255 255 255 
0.895308 0 0.404109 255 255 255 255 
0.942153 0 0.185265 255 255 255 255 
0.751971 0 0.370796 255 255 255 255 
0.324422 0 0.264452 255 255 255 255 
0.424789 0 0.056402 255 255 255 255 
0.74243 0 0.445153 255 255 255 255 
0.703499 0 0.661773 255 255 255 255 
0.933507 0 0.209018 255 255 255 255 
0.55939 0 0.157004 255 255 255 255 
0.15937 0 0.588306 255 255 255 255 
0.974327 0 0.067372 255 255 255 255 
0.401558 0 0.166527 255 255 255 255 
0.695986 0 0.363009 255 255 255 255 
0.149025 0 0.984278 255 255 255 255 
0.542446 0 0.00456685 255 255 255 255 
0.425172 0 0.437753 255 255 255 255 
0.408676 0 0.367325 255 255 255 255 
0.623018 0 0.160648 255 255 255 255 
0.738121 0 0.947441 255 255 255 255 
0.425099 0 0.16291 255 255 255 255 
0.0038427 0 0.167529 255 255 255 255 
0.608063 0 0.707342 255 255 255 255 
0.829302 0 0.54157 255 255 255 255 
0.91636 0 0.388692 255 255 255 255 
0.698574 0 0.0757301 255 255 255 255 
0.976998 0 0.672901 255 255 255 255 
0.143102 0 0.378556 255 255 255 255 
0.839428 0 0.839088 255 255 255 255 
0.741565 0 0.988453 255 255 255 255 
0.823366 0 0.284011 255 255 255 255 
0.99302 0 0.248538 255 255 255 255 
0.721765 0 0.401696 255 255 255 255 
0.615863 0 0.344783 255 255 255 255 
0.562344 0 0.353984 255 255 255 255 
0.292224 0 0.987443 255 255 255 255 
0.516893 0 0.296067 255 255 255 255 
0.154972 0 0.124956 255 255 255 255 
0.00340871 0 0.984275 255 255 255 255 
0.666526 0 0.919769 255 255 255 255 
0.372967 0 0.365101 255 255 255 255 
0.995499 0 0.349965 255 255 255 255 
0.0380016 0 0.138601 255 255 255 255 
0.728521 0 0.87743 255 255 255 255 
0.977689 0 0.470086 255 255 255 255 
0.865883 0 0.801055 255 255 255 255 
0.754097 0 0.858903 255 255 255 255 
0.0495935 0 0.475862 255 255 255 255 
0.260599 0 0.665457 255 255 255 255 
0.820645 0 0.822943 255 255 255 255 
0.0194407 0 0.112869 255 255 255 255 
0.810386 0 0.536334 255 255 255 255 
0.408935 0 0.965358 255 255 255 255 
0.66129 0 0.412344 255 255 255 255 
0.949633 0 0.327816 255 255 255 255 
0.332113 0 0.3226 255 255 255 255 
0.692917 0 0.327612 255 255 255 255 
0.672564 0 0.730919 255 255 255 255 
0.466213 0 0.401085 255 255 255 255 
0.608348 0 0.443901 255 255 255 255 
0.871171 0 0.474231 255 255 255 255 
0.244956 0 0.625268 255 255 255 255 
0.333134 0 0.29455 255 255 255 255 
0.10113 0 0.593733 255 255 255 255 
0.960007 0 0.921775 255 255 255 255 
0.416676 0 0.979447 255 255 255 255 
0.0346439 0 0.227062 255 255 255 255 
0.515782 0 0.443579 255 255 255 255 
0.19242 0 0.177072 255 255 255 255 
0.855923 0 0.142053 255 255 255 255 
0.504888 0 0.188036 255 255 255 255 
0.464653 0 0.197805 255 255 255 255 
0.515647 0 0.137218 255 255 255 255 
0.928724 0 0.98186 255 255 255 255 
0.538303 0 0.537072 255 255 255 255 
0.425761 0 0.409474 255 255 255 255 
0.0113032 0 0.670718 255 255 255 255 
0.0347424 0 0.344437 255 255 255 255 
0.965268 0 0.135873 255 255 255 255 
0.93817 0 0.925274 255 255 255 255 
0.0576477 0 0.354845 255 255 255 255 
0.904722 0 0.0922916 255 255 255 255 
0.581908 0 0.420503 255 255 255 255 
0.535871 0 0.774328 255 255 255 255 
0.597575 0 0.391794 255 255 255 255 
0.916381 0 0.102463 255 255 255 255 
0.57983 0 0.381034 255 255 255 255 
0.300269 0 0.0954773 255 255 255 255 
0.518252 0 0.228993 255 255 255 255 
0.0773373 0 0.0565547 255 255 255 255 
0.766065 0 0.503099 255 255 255 255 
0.466029 0 0.777368 255 255 255 255 
0.173816 0 0.500771 255 255 255 255 
0.121805 0 0.139084 255 255 255 255 
0.636644 0 0.0599748 255 255 255 255 
0.0643586 0 0.694291 255 255 255 255 
0.41482 0 0.96908 255 255 255 255 
0.786583 0 0.996728 255 255 255 255 
0.389584 0 0.322454 255 255 255 255 
0.771056 0 0.987159 255 255 255 255 
0.714248 0 0.687437 255 255 255 255 
0.0896224 0 0.294077 255 255 255 255 
0.0684713 0 0.389891 255 255 255 255 
0.389555 0 0.586723 255 255 255 255 
0.618884 0 0.466892 255 255 255 255 
0.643278 0 0.384948 255 255 255 255 
0.969991 0 0.109307 255 255 255 255 
0.162316 0 0.143807 255 255 255 255 
0.610078 0 0.284121 255 255 255 255 
0.282891 0 0.246721 255 255 255 255 
0.344096 0 0.34725 255 255 255 255 
0.941013 0 0.758916 255 255 255 255 
0.31633 0 0.727596 255 255 255 255 
0.755644 0 0.705914 255 255 255 255 
0.0500494 0 0.5267 255 255 255 255 
0.693073 0 0.764297 255 255 255 255 
0.214137 0 0.782695 255 255 255 255 
0.0583745 0 0.282608 255 255 255 255 
0.172587 0 0.447929 255 255 255 255 
0.869331 0 0.79147 255 255 255 255 
0.914821 0 0.512609 255 255 255 255 
0.176419 0 0.884812 255 255 255 255 
0.621916 0 0.338735 255 255 255 255 
0.028619 0 0.231994 255 255 255 255 
0.622856 0 0.31151 255 255 255 255 
0.478715 0 0.966952 255 255 255 255 
0.65876 0 0.419728 255 255 255 255 
0.725869 0 0.97509 255 255 255 255 
0.147323 0 0.481513 255 255 255 255 
0.681004 0 0.197373 255 255 255 255 
0.00821296 0 0.374077 255 255 255 255 
0.96167 0 0.22235 255 255 255 255 
0.156773 0 0.0200442 255 255 255 255 
0.504958 0 0.329359 255 255 255 255 
0.467973 0 0.374289 255 255 255 255 
0.120829 0 0.382795 255 255 255 255 
0.886899 0 0.297248 255 255 255 255 
0.267607 0 0.508815 255 255 255 255 
0.635983 0 0.296226 255 255 255 255 
0.740808 0 0.258839 255 255 255 255 
0.607736 0 0.219523 255 255 255 255 
0.225791 0 0.266496 255 255 255 255 
0.639251 0 0.95166 255 255 255 255 
0.241586 0 0.786574 255 255 255 255 
0.433173 0 0.92259 255 255 255 255 
0.983947 0 0.441386 255 255 255 255 
0.296667 0 0.945617 255 255 255 255 
0.663736 0 0.453439 255 255 255 255 
0.965661 0 0.168694 255 255 255 255 
0.782798 0 0.433634 255 255 255 255 
0.542983 0 0.903628 255 255 255 255 
0.816429 0 0.429882 255 255 255 255 
0.200875 0 0.0840356 255 255 255 255 
0.938697 0 0.836858 255 255 255 255 
0.380261 0 0.679505 255 255 255 255 
0.0956966 0 0.987997 255 255 255 255 
0.899028 0 0.321488 255 255 255 255 
0.254493 0 0.538279 255 255 255 255 
0.273148 0 0.496079 255 255 255 255 
0.324854 0 0.706321 255 255 255 255 
0.418669 0 0.3088 255 255 255 255 
0.147707 0 0.715335 255 255 255 255 
0.254417 0 0.811444 255 255 255 255 
0.168775 0 0.220078 255 255 255 255 
0.980137 0 0.951573 255 255 255 255 
0.653712 0 0.523121 255 255 255 255 
0.855201 0 0.470141 255 255 255 255 
0.953003 0 0.0560759 255 255 255 255 
0.554176 0 0.8917 255 255 255 255 
0.892934 0 0.934438 255 255 255 255 
0.571205 0 0.98863 255 255 255 255 
0.922435 0 0.470233 255 255 255 255 
0.310118 0 0.176928 255 255 255 255 
0.00851233 0 0.583266 255 255 255 255 
0.673007 0 0.333366 255 255 255 255 
0.289587 0 0.0916754 255 255 255 255 
0.642166 0 0.437295 255 255 255 255 
0.807011 0 0.896583 255 255 255 255 
0.248738 0 0.975786 255 255 255 255 
0.116661 0 0.228876 255 255 255 255 
0.927359 0 0.770373 255 255 255 255 
0.751997 0 0.78256 255 255 255 255 
0.240513 0 0.704999 255 255 255 255 
0.838636 0 0.79469 255 255 255 255 
0.596699 0 0.731569 255 255 255 255 
0.729128 0 0.167904 255 255 255 255 
0.720199 0 0.651563 255 255 255 255 
0.638137 0 0.0303176 255 255 255 255 
0.828491 0 0.646649 255 255 255 255 
0.613584 0 0.501498 255 255 255 255 
0.980015 0 0.903171 255 255 255 255 
0.593173 0 0.622181 255 255 255 255 
0.340466 0 0.400184 255 255 255 255 
0.518764 0 0.589204 255 255 255 255 
0.375969 0 0.635425 255 255 255 255 
0.81808 0 0.303328 255 255 255 255 
0.405798 0 0.570077 255 255 255 255 
0.0858876 0 0.646311 255 255 255 255 
0.275076 0 0.924523 255 255 255 255 
0.441001 0 0.871775 255 255 255 255 
0.656092 0 0.170129 255 255 255 255 
0.0396784 0 0.376292 255 255 255 255 
0.821691 0 0.677815 255 255 255 255 
0.406609 0 0.650182 255 255 255 255 
0.324464 0 0.0201929 255 255 255 255 
0.15168 0 0.304479 255 255 255 255 
0.923364 0 0.744852 255 255 255 255 
0.92666 0 0.26383 255 255 255 255 
0.145036 0 0.445424 255 255 255 255 
0.853034 0 0.521006 255 255 255 255 
0.0808488 0 0.671115 255 255 255 255 
0.824334 0 0.486646 255 255 255 255 
0.241191 0 0.910221 255 255 255 255 
0.132958 0 0.516267 255 255 255 255 
0.834744 0 0.573958 255 255 255 255 
0.388042 0 0.490837 255 255 255 255 
0.744087 0 0.427721 255 255 255 255 
0.867128 0 0.565778 255 255 255 255 
0.105536 0 0.273738 255 255 255 255 
0.21596 0 0.429999 255 255 255 255 
0.293931 0 0.36764 255 255 255 255 
0.734478 0 0.217295 255 255 255 255 
0.112492 0 0.661138 255 255 255 255 
0.481125 0 0.257529 255 255 255 255 
0.106562 0 0.334159 255 255 255 255 
0.778534 0 0.18741 255 255 255 255 
0.00527334 0 0.602868 255 255 255 255 
0.674057 0 0.246464 255 255 255 255 
0.513089 0 0.807014 255 255 255 255 
0.762732 0 0.347833 255 255 255 255 
0.380973 0 0.150774 255 255 255 255 
0.83867 0 0.12506 255 255 255 255 
0.578494 0 0.705798 255 255 255 255 
0.690838 0 0.68403 255 255 255 255 
0.979536 0 0.906798 255 255 255 255 
0.114029 0 0.273466 255 255 255 255 
0.274438 0 0.848507 255 255 255 255 
0.490761 0 0.386931 255 255 255 255 
0.509645 0 0.971885 255 255 255 255 
0.644459 0 0.616207 255 255 255 255 
0.306044 0 0.422993 255 255 255 255 
0.803617 0 0.311318 255 255 255 255 
0.025861 0 0.477674 255 255 255 255 
0.557782 0 0.53895 255 255 255 255 
0.284688 0 0.320514 255 255 255 255 
0.886783 0 0.665661 255 255 255 255 
0.471287 0 0.725453 255 255 255 255 
0.79072 0 0.0497816 255 255 255 255 
0.431251 0 0.481558 255 255 255 255 
0.733811 0 0.410787 255 255 255 255 
0.388357 0 0.847841 255 255 255 255 
0.684254 0 0.662795 255 255 255 255 
0.696348 0 0.175014 255 255 255 255 
0.0497253 0 0.205993 255 255 255 255 
0.1469 0 0.694184 255 255 255 255 
0.822199 0 0.452944 255 255 255 255 
0.117178 0 0.625816 255 255 255 255 
0.764262 0 0.143039 255 255 255 255 
0.10349 0 0.322044 255 255 255 255 
0.681989 0 0.388178 255 255 255 255 
0.642557 0 0.568772 255 255 255 255 
0.0538384 0 0.113845 255 255 255 255 
0.294225 0 0.844559 255 255 255 255 
0.163626 0 0.725477 255 255 255 255 
0.326117 0 0.897438 255 255 255 255 
0.136264 0 0.714474 255 255 255 255 
0.745278 0 0.820518 255 255 255 255 
0.377268 0 0.441626 255 255 255 255 
0.995532 0 0.426994 255 255 255 255 
0.647619 0 0.142432 255 255 255 255 
0.121178 0 0.469818 255 255 255 255 
0.595376 0 0.238356 255 255 255 255 
0.0956346 0 0.359638 255 255 255 255 
0.381395 0 0.199124 255 255 255 255 
0.681681 0 0.0633833 255 255 255 255 
0.587302 0 0.324239 255 255 255 255 
0.632155 0 0.641141 255 255 255 255 
0.438083 0 0.926381 255 255 255 255 
0.485699 0 0.60171 255 255 255 255 
0.651857 0 0.811816 255 255 255 255 
0.499147 0 0.788121 255 255 255 255 
0.52629 0 0.244426 255 255 255 255 
0.608639 0 0.903558 255 255 255 255 
0.686052 0 0.604171 255 255 255 255 
0.330552 0 0.333671 255 255 255 255 
0.746603 0 0.45173 255 255 255 255 
0.803489 0 0.341979 255 255 255 255 
0.690086 0 0.899123 255 255 255 255 
0.701617 0 0.0714807 255 255 255 255 
0.0982479 0 0.383298 255 255 255 255 
0.134864 0 0.68555 255 255 255 255 
0.707537 0 0.767019 255 255 255 255 
0.326691 0 0.14562 255 255 255 255 
0.6934 0 0.81239 255 255 255 255 
0.74733 0 0.345257 255 255 255 255 
0.624207 0 0.246477 255 255 255 255 
0.133379 0 0.150497 255 255 255 255 
0.490903 0 0.742018 255 255 255 255 
0.054055 0 0.176954 255 255 255 255 
0.346189 0 0.384607 255 255 255 255 
0.510625 0 0.0927926 255 255 255 255 
0.836337 0 0.314114 255 255 255 255 
