# .PCD v0.7 - Point Cloud Data file format
VERSION 0.7
FIELDS x y z rgba
SIZE 4 4 4 4
TYPE F F F U
COUNT 1 1 1 1
WIDTH 1366
HEIGHT 1
VIEWPOINT 0 0 0 1 0 0 0
POINTS 1366
DATA ascii
0.10116899 0.22074771 1 4294967295
0.47305459 0.19789943 1 4294967295
0.1615403 0.58611572 1 4294967295
0.99222744 0.67871654 1 4294967295
0.52439797 0.76841247 1 4294967295
0.14100866 0.87423623 1 4294967295
0.90810239 0.09900479 1 4294967295
0.73798209 0.16434456 1 4294967295
0.65625066 0.035726003 1 4294967295
0.046566699 0.75896788 1 4294967295
0.99547118 0.80489635 1 4294967295
0.9957335 0.7199958 1 4294967295
0.99752778 0.95260096 1 4294967295
0.09954685 0.39414844 1 4294967295
0.64891946 0.69038361 1 4294967295
0.087327942 0.75008845 1 4294967295
0.91113132 0.56038254 1 4294967295
0.94798785 0.072671607 1 4294967295
0.14649826 0.94021535 1 4294967295
0.75138813 0.67089623 1 4294967295
0.70862782 0.89239681 1 4294967295
0.54513246 0.61673015 1 4294967295
0.99140155 0.28311458 1 4294967295
0.78107476 0.64765227 1 4294967295
0.31884059 0.82764143 1 4294967295
0.40662014 0.3143118 1 4294967295
0.63253778 0.40235364 1 4294967295
0.034307614 0.63006556 1 4294967295
0.3549546 0.13385446 1 4294967295
0.02421399 0.0038740612 1 4294967295
0.82423806 0.11154193 1 4294967295
0.75396252 0.73536938 1 4294967295
0.67192447 0.70195037 1 4294967295
0.80804098 0.81842273 1 4294967295
0.64216572 0.55942911 1 4294967295
0.48931897 0.35079354 1 4294967295
0.45182589 0.034451447 1 4294967295
0.96752369 0.44322747 1 4294967295
0.31756604 0.74859846 1 4294967295
0.090879709 0.63640666 1 4294967295
0.57623988 0.49749985 1 4294967295
0.9507184 0.20877768 1 4294967295
0.89985347 0.98502606 1 4294967295
0.83884323 0.2548081 1 4294967295
0.1188805 0.8630572 1 4294967295
0.25868216 0.94311857 1 4294967295
0.97459912 0.012644665 1 4294967295
0.67848796 0.64652359 1 4294967295
0.71459508 0.48652893 1 4294967295
0.46494636 0.3567608 1 4294967295
0.045958016 0.95426536 1 4294967295
0.70755434 0.4977839 1 4294967295
0.98871678 0.67507803 1 4294967295
0.94101137 0.30628282 1 4294967295
0.42367646 0.031891067 1 4294967295
0.94268948 0.99991637 1 4294967295
0.52939093 0.89340788 1 4294967295
0.20869403 0.4292444 1 4294967295
0.87843394 0.047537249 1 4294967295
0.68405247 0.99731445 1 4294967295
0.91059446 0.94273466 1 4294967295
0.94043303 0.88519359 1 4294967295
0.95537931 0.61892092 1 4294967295
0.53171724 0.66997439 1 4294967295
0.10544986 0.99666357 1 4294967295
0.026735153 0.15140788 1 4294967295
0.95092893 0.73428947 1 4294967295
0.6491918 0.93964565 1 4294967295
0.4093675 0.59020317 1 4294967295
0.2459285 0.83304393 1 4294967295
0.62209421 0.18861794 1 4294967295
0.83296031 0.15148512 1 4294967295
0.082025841 0.041654341 1 4294967295
0.58072948 0.96045977 1 4294967295
0.089191586 0.26478201 1 4294967295
0.95777422 0.99978602 1 4294967295
0.20751664 0.89820719 1 4294967295
0.88497967 0.16289595 1 4294967295
0.51712817 0.41669688 1 4294967295
0.8328703 0.62257802 1 4294967295
0.41336045 0.85960549 1 4294967295
0.77398592 0.36428934 1 4294967295
0.59389496 0.42317769 1 4294967295
0.30393502 0.00326243 1 4294967295
0.013380825 0.54986352 1 4294967295
0.83630639 0.63547504 1 4294967295
0.73848146 0.6692667 1 4294967295
0.78696012 0.82050729 1 4294967295
0.71092105 0.36768967 1 4294967295
0.78096706 0.80011261 1 4294967295
0.63247168 0.73874128 1 4294967295
0.79989868 0.83998829 1 4294967295
0.63694847 0.68487835 1 4294967295
0.0028842534 0.15407664 1 4294967295
0.1015752 0.83575457 1 4294967295
0.77665466 0.51493561 1 4294967295
0.69536006 0.55064058 1 4294967295
0.87922496 0.28925496 1 4294967295
0.97381824 0.18315999 1 4294967295
0.29251739 0.98719907 1 4294967295
0.73302346 0.12882379 1 4294967295
0.62267411 0.47150496 1 4294967295
0.79809052 0.40963423 1 4294967295
0.29201224 0.50901151 1 4294967295
0.7773239 0.072979294 1 4294967295
0.30912414 0.40979555 1 4294967295
0.81172055 0.10902283 1 4294967295
0.24978387 0.44866905 1 4294967295
0.79390115 0.25266811 1 4294967295
0.60274565 0.89547634 1 4294967295
0.088422693 0.37940034 1 4294967295
0.41041198 0.78378272 1 4294967295
0.9300409 0.28963694 1 4294967295
0.073037706 0.90385914 1 4294967295
0.47279695 0.36555511 1 4294967295
0.89105821 0.20582044 1 4294967295
0.49437889 0.51373231 1 4294967295
0.67732537 0.29246938 1 4294967295
0.92336655 0.96933764 1 4294967295
0.80148095 0.70069045 1 4294967295
0.042316917 0.11060508 1 4294967295
0.11048601 0.85403746 1 4294967295
0.2196279 0.36026987 1 4294967295
0.30270651 0.01352904 1 4294967295
0.61293799 0.90545219 1 4294967295
0.9090054 0.7013607 1 4294967295
0.28485253 0.31941736 1 4294967295
0.48514342 0.21489343 1 4294967295
0.60905433 0.55818111 1 4294967295
0.11875257 0.081851259 1 4294967295
0.92373621 0.0098107681 1 4294967295
0.28767169 0.41811514 1 4294967295
0.52354306 0.96499705 1 4294967295
0.71058452 0.44690961 1 4294967295
0.9343347 0.51206547 1 4294967295
0.14760005 0.97665161 1 4294967295
0.62267053 0.25808609 1 4294967295
0.83068907 0.84229845 1 4294967295
0.61835593 0.13339563 1 4294967295
0.85582745 0.23129395 1 4294967295
0.038847823 0.76483285 1 4294967295
0.93265462 0.32370037 1 4294967295
0.084250197 0.41779807 1 4294967295
0.53859377 0.69330448 1 4294967295
0.97597921 0.65734637 1 4294967295
0.77515578 0.89971542 1 4294967295
0.66715711 0.062827453 1 4294967295
0.31783056 0.19070019 1 4294967295
0.027824538 0.028415091 1 4294967295
0.63760978 0.96215922 1 4294967295
0.54048055 0.78520989 1 4294967295
0.93881088 0.16315107 1 4294967295
0.043295935 0.76949996 1 4294967295
0.0054494981 0.66165191 1 4294967295
0.90289557 0.86127698 1 4294967295
0.89294583 0.94174343 1 4294967295
0.62610978 0.8256005 1 4294967295
0.26544377 0.71035999 1 4294967295
0.24339855 0.80403757 1 4294967295
0.4036645 0.21937773 1 4294967295
0.46138391 0.17882027 1 4294967295
0.11909315 0.12854104 1 4294967295
0.24164772 0.43692371 1 4294967295
0.31924123 0.26947227 1 4294967295
0.4653388 0.95685101 1 4294967295
0.2316315 0.0058193421 1 4294967295
0.7420609 0.17044237 1 4294967295
0.16897042 0.78535682 1 4294967295
0.9399423 0.17441991 1 4294967295
0.44700873 0.84283793 1 4294967295
0.035696875 0.33995456 1 4294967295
0.7845813 0.6618067 1 4294967295
0.16555503 0.050025087 1 4294967295
0.37216669 0.40895358 1 4294967295
0.85406262 0.77583116 1 4294967295
0.6283313 0.31544656 1 4294967295
0.95465147 0.74742442 1 4294967295
0.44398758 0.19629918 1 4294967295
0.18434815 0.76322883 1 4294967295
0.46577144 0.64968693 1 4294967295
0.72007984 0.69740295 1 4294967295
0.65550631 0.46214074 1 4294967295
0.8678453 0.82447672 1 4294967295
0.24749757 0.80778766 1 4294967295
0.9988966 0.69450629 1 4294967295
0.65062553 0.034593504 1 4294967295
0.03446085 0.43520686 1 4294967295
0.69640017 0.20001589 1 4294967295
0.48523197 0.068566866 1 4294967295
0.60896945 0.33929461 1 4294967295
0.84439802 0.23730077 1 4294967295
0.65474117 0.7990495 1 4294967295
0.98472524 0.098728746 1 4294967295
0.99534869 0.16907337 1 4294967295
0.86195755 0.46112013 1 4294967295
0.81876034 0.58203739 1 4294967295
0.15852307 0.47426662 1 4294967295
0.044178147 0.026368378 1 4294967295
0.29874334 0.29167572 1 4294967295
0.83415604 0.29763997 1 4294967295
0.98618203 0.48478156 1 4294967295
0.33223346 0.02064286 1 4294967295
0.91998845 0.028633649 1 4294967295
0.22065875 0.40522039 1 4294967295
0.097200513 0.82962823 1 4294967295
0.744515 0.94159853 1 4294967295
0.066928975 0.39925614 1 4294967295
0.74064809 0.051654197 1 4294967295
0.49798489 0.73599672 1 4294967295
0.22072758 0.35994247 1 4294967295
0.19711688 0.039487906 1 4294967295
0.94197989 0.35563993 1 4294967295
0.51375455 0.98615801 1 4294967295
0.38200831 0.81249785 1 4294967295
0.27783373 0.21616434 1 4294967295
0.11013784 0.26401573 1 4294967295
0.70094591 0.44237131 1 4294967295
0.28465861 0.62093431 1 4294967295
0.47100493 0.50531733 1 4294967295
0.026154721 0.56820548 1 4294967295
0.33494556 0.7706697 1 4294967295
0.50980401 0.40187454 1 4294967295
0.16992585 0.2504521 1 4294967295
0.45352873 0.66791075 1 4294967295
0.98644882 0.67425632 1 4294967295
0.027853211 0.18356572 1 4294967295
0.71374422 0.96983308 1 4294967295
0.53920567 0.22749874 1 4294967295
0.95599109 0.92121398 1 4294967295
0.039996602 0.23382482 1 4294967295
0.13737832 0.15013443 1 4294967295
0.49784055 0.83832425 1 4294967295
0.59250575 0.78249913 1 4294967295
0.45925856 0.063510679 1 4294967295
0.28781649 0.48541328 1 4294967295
0.63171613 0.62276208 1 4294967295
0.25608298 0.14152016 1 4294967295
0.024636593 0.42600885 1 4294967295
0.39197224 0.47816533 1 4294967295
0.093919605 0.3784211 1 4294967295
0.15242162 0.12177282 1 4294967295
0.5619868 0.86616582 1 4294967295
0.091605887 0.10119247 1 4294967295
0.093664557 0.047596976 1 4294967295
0.022406459 0.13366117 1 4294967295
0.28142178 0.15978478 1 4294967295
0.2837956 0.77926236 1 4294967295
0.99810898 0.87630135 1 4294967295
0.5617615 0.45736757 1 4294967295
0.939812 0.84957802 1 4294967295
0.94278085 0.57152814 1 4294967295
0.47234008 0.19886383 1 4294967295
0.71304834 0.49697667 1 4294967295
0.62487268 0.10502057 1 4294967295
0.975142 0.71879232 1 4294967295
0.48344165 0.12756361 1 4294967295
0.84056509 0.045428474 1 4294967295
0.99372941 0.93217099 1 4294967295
0.14662094 0.087393992 1 4294967295
0.97976798 0.1690274 1 4294967295
0.22105515 0.26118976 1 4294967295
0.32881218 0.50485075 1 4294967295
0.040452123 0.32692119 1 4294967295
0.38115206 0.60221362 1 4294967295
0.78428876 0.3209641 1 4294967295
0.45179167 0.72706962 1 4294967295
0.89249223 0.92413175 1 4294967295
0.92593348 0.60554057 1 4294967295
0.42110842 0.55080616 1 4294967295
0.7105611 0.39625043 1 4294967295
0.26959845 0.19400278 1 4294967295
0.52381402 0.11016355 1 4294967295
0.23943126 0.51754349 1 4294967295
0.04233456 0.38605219 1 4294967295
0.60493743 0.022102538 1 4294967295
0.55507958 0.82599264 1 4294967295
0.28329232 0.88389182 1 4294967295
0.33084336 0.32374445 1 4294967295
0.210813 0.71199542 1 4294967295
0.9259581 0.99510175 1 4294967295
0.032959532 0.37774974 1 4294967295
0.72217137 0.92545176 1 4294967295
0.30188149 0.64810485 1 4294967295
0.53099233 0.72298992 1 4294967295
0.19891098 0.24155344 1 4294967295
0.11924032 0.46850944 1 4294967295
0.43555623 0.64305437 1 4294967295
0.57867301 0.67498749 1 4294967295
0.16059783 0.62100756 1 4294967295
0.061039682 0.7655353 1 4294967295
0.6431101 0.61611927 1 4294967295
0.59152788 0.92640239 1 4294967295
0.50001109 0.92237127 1 4294967295
0.25014684 0.71082407 1 4294967295
0.63436669 0.1761049 1 4294967295
0.70592588 0.66732627 1 4294967295
0.55385464 0.42809725 1 4294967295
0.59277803 0.85573614 1 4294967295
0.076202072 0.12377034 1 4294967295
0.57872599 0.27511305 1 4294967295
0.36532378 0.69796634 1 4294967295
0.74362248 0.80088001 1 4294967295
0.3410207 0.32229549 1 4294967295
0.47586748 0.5016185 1 4294967295
0.94330305 0.5369072 1 4294967295
0.2671538 0.58641315 1 4294967295
0.15302646 0.85868174 1 4294967295
0.51281554 0.65303755 1 4294967295
0.78105301 0.76296234 1 4294967295
0.36386165 0.4154197 1 4294967295
0.93906724 0.069787495 1 4294967295
0.082745954 0.49292189 1 4294967295
0.49788472 0.675524 1 4294967295
0.348658 0.57408679 1 4294967295
0.79929429 0.92738402 1 4294967295
0.84919983 0.16461809 1 4294967295
0.62535036 0.59282237 1 4294967295
0.96549809 0.966371 1 4294967295
0.91511786 0.4413656 1 4294967295
0.46798953 0.85842085 1 4294967295
0.97827274 0.73514336 1 4294967295
0.44483399 0.13129923 1 4294967295
0.59382504 0.95764947 1 4294967295
0.78433681 0.37487805 1 4294967295
0.72061187 0.14819843 1 4294967295
0.79029775 0.65967911 1 4294967295
0.21798593 0.87304372 1 4294967295
0.15260097 0.71587068 1 4294967295
0.54856765 0.50125897 1 4294967295
0.28995746 0.34786198 1 4294967295
0.42864296 0.13915733 1 4294967295
0.51248008 0.053993303 1 4294967295
0.73197967 0.47797817 1 4294967295
0.020364329 0.64709753 1 4294967295
0.91934377 0.48835388 1 4294967295
0.50551838 0.89761651 1 4294967295
0.22349721 0.95035231 1 4294967295
0.028915731 0.81732225 1 4294967295
0.90800184 0.81325251 1 4294967295
0.19220033 0.62861365 1 4294967295
0.96145093 0.98249805 1 4294967295
0.28829277 0.17943686 1 4294967295
0.85554177 0.44089374 1 4294967295
0.89530754 0.40410945 1 4294967295
0.94215268 0.18526497 1 4294967295
0.75197142 0.37079567 1 4294967295
0.3244223 0.2644515 1 4294967295
0.42478898 0.056401961 1 4294967295
0.74242967 0.4451533 1 4294967295
0.70349944 0.66177344 1 4294967295
0.93350714 0.20901783 1 4294967295
0.55938995 0.15700439 1 4294967295
0.15937017 0.58830565 1 4294967295
0.97432667 0.067371994 1 4294967295
0.40155816 0.16652699 1 4294967295
0.69598567 0.3630091 1 4294967295
0.14902507 0.98427844 1 4294967295
0.54244596 0.0045668534 1 4294967295
0.42517218 0.43775347 1 4294967295
0.4086763 0.36732489 1 4294967295
0.62301844 0.16064775 1 4294967295
0.73812056 0.94744074 1 4294967295
0.42509925 0.16290952 1 4294967295
0.003842704 0.16752891 1 4294967295
0.6080628 0.70734215 1 4294967295
0.82930231 0.54157001 1 4294967295
0.91635996 0.38869226 1 4294967295
0.69857436 0.075730145 1 4294967295
0.97699791 0.67290103 1 4294967295
0.14310214 0.3785561 1 4294967295
0.83942801 0.83908784 1 4294967295
0.74156523 0.98845309 1 4294967295
0.82336628 0.28401116 1 4294967295
0.99301994 0.24853843 1 4294967295
0.72176462 0.40169626 1 4294967295
0.61586332 0.3447831 1 4294967295
0.56234401 0.35398385 1 4294967295
0.29222384 0.98744327 1 4294967295
0.51689339 0.29606655 1 4294967295
0.15497218 0.12495621 1 4294967295
0.0034087109 0.98427451 1 4294967295
0.6665262 0.91976869 1 4294967295
0.37296677 0.36510056 1 4294967295
0.99549884 0.34996471 1 4294967295
0.038001616 0.13860099 1 4294967295
0.72852081 0.87742966 1 4294967295
0.97768879 0.47008601 1 4294967295
0.86588275 0.80105507 1 4294967295
0.75409716 0.85890269 1 4294967295
0.049593505 0.47586182 1 4294967295
0.26059899 0.66545683 1 4294967295
0.82064492 0.82294297 1 4294967295
0.019440684 0.11286876 1 4294967295
0.81038624 0.53633404 1 4294967295
0.40893531 0.96535844 1 4294967295
0.66129029 0.41234401 1 4294967295
0.94963294 0.32781646 1 4294967295
0.3321127 0.32259974 1 4294967295
0.69291705 0.32761157 1 4294967295
0.67256445 0.73091865 1 4294967295
0.46621254 0.40108523 1 4294967295
0.60834831 0.44390136 1 4294967295
0.87117124 0.47423106 1 4294967295
0.24495642 0.6252684 1 4294967295
0.33313376 0.29454994 1 4294967295
0.10113021 0.59373277 1 4294967295
0.96000677 0.9217751 1 4294967295
0.41667575 0.97944742 1 4294967295
0.034643874 0.22706199 1 4294967295
0.51578152 0.44357917 1 4294967295
0.19242042 0.17707177 1 4294967295
0.85592318 0.14205337 1 4294967295
0.50488824 0.18803589 1 4294967295
0.4646531 0.19780526 1 4294967295
0.51564747 0.13721754 1 4294967295
0.92872393 0.98185998 1 4294967295
0.53830278 0.53707218 1 4294967295
0.42576134 0.40947399 1 4294967295
0.011303248 0.67071778 1 4294967295
0.034742389 0.344437 1 4294967295
0.96526772 0.1358726 1 4294967295
0.93816978 0.92527443 1 4294967295
0.057647716 0.35484549 1 4294967295
0.90472192 0.092291586 1 4294967295
0.58190751 0.42050341 1 4294967295
0.53587073 0.77432793 1 4294967295
0.59757519 0.39179394 1 4294967295
0.9163813 0.10246339 1 4294967295
0.57982981 0.38103437 1 4294967295
0.30026865 0.095477276 1 4294967295
0.5182519 0.22899255 1 4294967295
0.077337272 0.056554679 1 4294967295
0.76606476 0.50309861 1 4294967295
0.46602866 0.77736801 1 4294967295
0.1738164 0.50077105 1 4294967295
0.12180501 0.1390841 1 4294967295
0.63664365 0.059974775 1 4294967295
0.064358562 0.69429135 1 4294967295
0.41482028 0.96908045 1 4294967295
0.78658295 0.99672776 1 4294967295
0.38958386 0.32245371 1 4294967295
0.7710557 0.98715901 1 4294967295
0.71424764 0.68743694 1 4294967295
0.089622408 0.29407749 1 4294967295
0.068471342 0.38989106 1 4294967295
0.38955477 0.58672327 1 4294967295
0.61888361 0.46689203 1 4294967295
0.64327794 0.38494837 1 4294967295
0.96999067 0.1093066 1 4294967295
0.16231638 0.14380705 1 4294967295
0.61007768 0.28412139 1 4294967295
0.28289115 0.24672133 1 4294967295
0.34409618 0.34724972 1 4294967295
0.94101268 0.75891644 1 4294967295
0.31633016 0.72759563 1 4294967295
0.7556442 0.70591402 1 4294967295
0.050049365 0.52669984 1 4294967295
0.69307303 0.76429701 1 4294967295
0.21413682 0.78269547 1 4294967295
0.058374505 0.28260818 1 4294967295
0.17258652 0.44792926 1 4294967295
0.86933142 0.79147011 1 4294967295
0.91482133 0.51260936 1 4294967295
0.17641851 0.88481194 1 4294967295
0.62191594 0.33873489 1 4294967295
0.028619006 0.23199363 1 4294967295
0.62285626 0.31151015 1 4294967295
0.47871494 0.96695244 1 4294967295
0.65875983 0.41972765 1 4294967295
0.72586888 0.97509003 1 4294967295
0.1473233 0.48151308 1 4294967295
0.68100405 0.19737266 1 4294967295
0.0082129566 0.37407708 1 4294967295
0.96166968 0.22234978 1 4294967295
0.15677251 0.02004418 1 4294967295
0.50495797 0.32935902 1 4294967295
0.46797344 0.37428936 1 4294967295
0.12082915 0.38279477 1 4294967295
0.88689876 0.29724765 1 4294967295
0.26760671 0.50881469 1 4294967295
0.63598251 0.29622573 1 4294967295
0.74080831 0.25883883 1 4294967295
0.60773587 0.21952328 1 4294967295
0.22579128 0.26649573 1 4294967295
0.63925093 0.95166016 1 4294967295
0.24158576 0.78657424 1 4294967295
0.43317327 0.92258978 1 4294967295
0.98394686 0.44138622 1 4294967295
0.29666686 0.94561654 1 4294967295
0.66373599 0.45343938 1 4294967295
0.96566075 0.16869394 1 4294967295
0.78279841 0.43363416 1 4294967295
0.54298329 0.90362757 1 4294967295
0.81642896 0.42988205 1 4294967295
0.20087521 0.08403565 1 4294967295
0.93869674 0.83685774 1 4294967295
0.38026139 0.67950511 1 4294967295
0.095696568 0.98799723 1 4294967295
0.89902836 0.32148784 1 4294967295
0.254493 0.53827929 1 4294967295
0.27314803 0.49607876 1 4294967295
0.32485351 0.7063213 1 4294967295
0.41866857 0.3088004 1 4294967295
0.14770748 0.71533543 1 4294967295
0.25441694 0.81144351 1 4294967295
0.1687748 0.22007766 1 4294967295
0.98013741 0.95157319 1 4294967295
0.65371186 0.52312076 1 4294967295
0.85520077 0.47014076 1 4294967295
0.95300281 0.056075945 1 4294967295
0.55417639 0.89169955 1 4294967295
0.89293367 0.93443781 1 4294967295
0.57120466 0.98863029 1 4294967295
0.92243505 0.47023302 1 4294967295
0.31011811 0.17692804 1 4294967295
0.0085123274 0.58326614 1 4294967295
0.67300683 0.33336586 1 4294967295
0.28958741 0.091675371 1 4294967295
0.64216626 0.4372949 1 4294967295
0.80701077 0.8965832 1 4294967295
0.24873836 0.97578561 1 4294967295
0.11666083 0.22887579 1 4294967295
0.92735881 0.77037269 1 4294967295
0.75199652 0.78255951 1 4294967295
0.24051343 0.70499933 1 4294967295
0.8386355 0.79468983 1 4294967295
0.59669888 0.73156917 1 4294967295
0.72912765 0.16790354 1 4294967295
0.72019941 0.65156269 1 4294967295
0.63813657 0.030317551 1 4294967295
0.82849073 0.64664888 1 4294967295
0.61358368 0.50149757 1 4294967295
0.98001474 0.90317106 1 4294967295
0.59317291 0.622181 1 4294967295
0.34046596 0.40018371 1 4294967295
0.51876414 0.58920437 1 4294967295
0.37596932 0.63542497 1 4294967295
0.81808013 0.3033281 1 4294967295
0.40579766 0.57007664 1 4294967295
0.085887626 0.6463111 1 4294967295
0.275076 0.92452312 1 4294967295
0.44100094 0.87177491 1 4294967295
0.65609229 0.17012857 1 4294967295
0.039678447 0.37629169 1 4294967295
0.82169127 0.67781502 1 4294967295
0.40660927 0.65018201 1 4294967295
0.3244639 0.020192936 1 4294967295
0.15167958 0.30447865 1 4294967295
0.92336404 0.74485248 1 4294967295
0.92665964 0.26383001 1 4294967295
0.14503622 0.44542378 1 4294967295
0.85303432 0.52100551 1 4294967295
0.080848783 0.6711145 1 4294967295
0.82433361 0.48664644 1 4294967295
0.24119115 0.91022122 1 4294967295
0.13295752 0.51626718 1 4294967295
0.83474433 0.57395846 1 4294967295
0.38804206 0.49083662 1 4294967295
0.74408704 0.42772052 1 4294967295
0.86712831 0.56577826 1 4294967295
0.10553552 0.27373755 1 4294967295
0.21596029 0.42999944 1 4294967295
0.2939305 0.36763987 1 4294967295
0.73447812 0.21729451 1 4294967295
0.11249238 0.66113776 1 4294967295
0.48112452 0.2575286 1 4294967295
0.10656154 0.33415887 1 4294967295
0.77853411 0.18741032 1 4294967295
0.0052733417 0.60286772 1 4294967295
0.67405677 0.24646449 1 4294967295
0.513089 0.80701429 1 4294967295
0.76273167 0.34783334 1 4294967295
0.38097271 0.1507737 1 4294967295
0.83866996 0.12505971 1 4294967295
0.57849419 0.70579827 1 4294967295
0.69083798 0.68402976 1 4294967295
0.97953582 0.9067983 1 4294967295
0.11402918 0.27346632 1 4294967295
0.27443817 0.84850729 1 4294967295
0.49076083 0.38693056 1 4294967295
0.50964504 0.97188532 1 4294967295
0.64445913 0.61620659 1 4294967295
0.30604422 0.42299327 1 4294967295
0.80361688 0.31131756 1 4294967295
0.025861003 0.47767362 1 4294967295
0.55778205 0.53894997 1 4294967295
0.28468791 0.3205137 1 4294967295
0.8867833 0.66566062 1 4294967295
0.4712874 0.72545326 1 4294967295
0.79072034 0.049781617 1 4294967295
0.4312515 0.48155832 1 4294967295
0.73381138 0.41078731 1 4294967295
0.3883566 0.84784055 1 4294967295
0.68425363 0.66279477 1 4294967295
0.69634783 0.17501445 1 4294967295
0.049725313 0.20599283 1 4294967295
0.1468998 0.69418442 1 4294967295
0.8221994 0.45294404 1 4294967295
0.11717771 0.62581629 1 4294967295
0.7642616 0.1430387 1 4294967295
0.10348991 0.32204363 1 4294967295
0.68198872 0.38817781 1 4294967295
0.64255732 0.56877202 1 4294967295
0.053838395 0.11384474 1 4294967295
0.29422528 0.84455872 1 4294967295
0.16362636 0.7254768 1 4294967295
0.32611701 0.89743769 1 4294967295
0.1362641 0.71447361 1 4294967295
0.74527824 0.82051772 1 4294967295
0.3772684 0.44162607 1 4294967295
0.99553216 0.4269937 1 4294967295
0.64761889 0.14243199 1 4294967295
0.12117816 0.46981829 1 4294967295
0.59537601 0.23835586 1 4294967295
0.095634565 0.35963762 1 4294967295
0.38139457 0.19912447 1 4294967295
0.68168122 0.063383274 1 4294967295
0.58730227 0.32423857 1 4294967295
0.6321553 0.64114064 1 4294967295
0.43808332 0.92638057 1 4294967295
0.48569936 0.60170966 1 4294967295
0.65185738 0.81181639 1 4294967295
0.49914739 0.78812146 1 4294967295
0.52629 0.24442562 1 4294967295
0.60863918 0.90355843 1 4294967295
0.68605167 0.60417134 1 4294967295
0.33055213 0.33367059 1 4294967295
0.74660337 0.45173028 1 4294967295
0.80348885 0.34197938 1 4294967295
0.69008613 0.89912343 1 4294967295
0.701617 0.071480729 1 4294967295
0.098247893 0.38329822 1 4294967295
0.134864 0.68555015 1 4294967295
0.70753682 0.76701927 1 4294967295
0.32669082 0.14562012 1 4294967295
0.69339985 0.81239021 1 4294967295
0.74732977 0.34525722 1 4294967295
0.6242066 0.24647716 1 4294967295
0.13337867 0.1504966 1 4294967295
0.49090278 0.74201787 1 4294967295
0.05405502 0.17695446 1 4294967295
0.3461892 0.38460717 1 4294967295
0.51062506 0.092792571 1 4294967295
0.83633745 0.31411391 1 4294967295
0.43477196 0.52642357 1 4294967295
0.21323733 0.13638893 1 4294967295
0.59790432 0.31148523 1 4294967295
0.51968718 0.73276836 1 4294967295
0.99703538 0.22722398 1 4294967295
0.49978763 0.32372621 1 4294967295
0.3728441 0.19318749 1 4294967295
0.1361164 0.12017388 1 4294967295
0.5384447 0.76032299 1 4294967295
0.36665103 0.67182338 1 4294967295
0.91081959 0.85755384 1 4294967295
0.41384125 0.96487463 1 4294967295
0.034508292 0.76003045 1 4294967295
0.34948176 0.54513335 1 4294967295
0.85282302 0.18581919 1 4294967295
0.85924727 0.28759497 1 4294967295
0.71224278 0.072484575 1 4294967295
0.42398393 0.31014711 1 4294967295
0.38396981 0.94367111 1 4294967295
0.042915441 0.3810052 1 4294967295
0.17089505 0.54270309 1 4294967295
0.7047314 0.54373914 1 4294967295
0.73589057 0.84084779 1 4294967295
0.66391301 0.27433529 1 4294967295
0.60117078 0.030564064 1 4294967295
0.94615865 0.51199037 1 4294967295
0.88811791 0.35999992 1 4294967295
0.47686493 0.9226262 1 4294967295
0.12003039 0.8263467 1 4294967295
0.46775952 0.97285342 1 4294967295
0.012165885 0.32700676 1 4294967295
0.26044843 0.72440869 1 4294967295
0.39949134 0.68443233 1 4294967295
0.034555785 0.78346115 1 4294967295
0.62810344 0.077471226 1 4294967295
0.16446634 0.79899848 1 4294967295
0.62017429 0.86919773 1 4294967295
0.34273762 0.35606486 1 4294967295
0.71004552 0.006650642 1 4294967295
0.63040012 0.31121632 1 4294967295
0.037214708 0.57655883 1 4294967295
0.82320666 0.92533261 1 4294967295
0.93655872 0.3000716 1 4294967295
0.8479588 0.056589134 1 4294967295
0.12641829 0.31571829 1 4294967295
0.02944256 0.13858418 1 4294967295
0.64272505 0.28989097 1 4294967295
0.86299288 0.042216375 1 4294967295
0.97432333 0.89754862 1 4294967295
0.82567751 0.60242671 1 4294967295
0.97501987 0.99014384 1 4294967295
0.40142518 0.59519416 1 4294967295
0.85934162 0.7441628 1 4294967295
0.95125902 0.56938714 1 4294967295
0.75081342 0.58165914 1 4294967295
0.88060343 0.78802818 1 4294967295
0.15821797 0.7038101 1 4294967295
0.71336073 0.094776712 1 4294967295
0.0038817027 0.56131953 1 4294967295
0.15136585 0.1303 1 4294967295
0.87703782 0.18080841 1 4294967295
0.26888418 0.51976287 1 4294967295
0.47069937 0.13187703 1 4294967295
0.56197923 0.44502267 1 4294967295
0.029425677 0.38765675 1 4294967295
0.047449403 0.004445543 1 4294967295
0.37780061 0.44887459 1 4294967295
0.59963971 0.23714221 1 4294967295
0.19303741 0.55089873 1 4294967295
0.80652934 0.94385087 1 4294967295
0.13255788 0.68713278 1 4294967295
0.731879 0.29077587 1 4294967295
0.39094287 0.44523978 1 4294967295
0.38555256 0.39482456 1 4294967295
0.0065593105 0.5369184 1 4294967295
0.52512455 0.88359714 1 4294967295
0.71772683 0.79400873 1 4294967295
0.40336001 0.1884262 1 4294967295
0.9258858 0.96533924 1 4294967295
0.6334489 0.95531148 1 4294967295
0.35299599 0.68089831 1 4294967295
0.95975703 0.73079658 1 4294967295
0.12977289 0.55939674 1 4294967295
0.96793878 0.32281029 1 4294967295
0.11029544 0.77446812 1 4294967295
0.26666117 0.24285333 1 4294967295
0.4616009 0.99854016 1 4294967295
0.53362918 0.85254377 1 4294967295
0.44377995 0.91918176 1 4294967295
0.24736835 0.45033926 1 4294967295
0.45610017 0.77249295 1 4294967295
0.33393639 0.17382698 1 4294967295
0.56650168 0.7372964 1 4294967295
0.36225319 0.49238747 1 4294967295
0.70263565 0.99570209 1 4294967295
0.44769895 0.055631638 1 4294967295
0.67660034 0.40745595 1 4294967295
0.78642821 0.80637324 1 4294967295
0.96685266 0.75436705 1 4294967295
0.12918353 0.077148117 1 4294967295
0.52883518 0.3958447 1 4294967295
0.32000142 0.99043608 1 4294967295
0.39438486 0.8536306 1 4294967295
0.84297985 0.83816481 1 4294967295
0.77281237 0.090348229 1 4294967295
0.28850406 0.22891252 1 4294967295
0.86284113 0.62244046 1 4294967295
0.4027395 0.42934284 1 4294967295
0.35973686 0.76499265 1 4294967295
0.92173034 0.062372506 1 4294967295
0.76069474 0.36942926 1 4294967295
0.11800414 0.43729508 1 4294967295
0.77688521 0.90443236 1 4294967295
0.24366833 0.74373788 1 4294967295
0.65879941 0.37285185 1 4294967295
0.82088602 0.18763462 1 4294967295
0.76869655 0.14088744 1 4294967295
0.17807071 0.16308141 1 4294967295
0.99451804 0.021050578 1 4294967295
0.0012462097 0.76733041 1 4294967295
0.1113988 0.28975028 1 4294967295
0.99624294 0.97423995 1 4294967295
0.91219074 0.39898244 1 4294967295
0.40358278 0.27192762 1 4294967295
0.16397512 0.32531312 1 4294967295
0.33430013 0.92466986 1 4294967295
0.69474238 0.45230424 1 4294967295
0.36196494 0.47162759 1 4294967295
0.35673663 0.60563326 1 4294967295
0.21536548 0.015536074 1 4294967295
0.97848517 0.036251485 1 4294967295
0.20317069 0.74718165 1 4294967295
0.17713892 0.38124138 1 4294967295
0.91026306 0.171657 1 4294967295
0.40229198 0.91150928 1 4294967295
0.93898743 0.51369077 1 4294967295
0.20125957 0.93523031 1 4294967295
0.48793074 0.11345033 1 4294967295
0.33421278 0.89151353 1 4294967295
0.38537794 0.4981879 1 4294967295
0.21682663 0.71967804 1 4294967295
0.42285776 0.911569 1 4294967295
0.17198232 0.7848227 1 4294967295
0.38319659 0.52871895 1 4294967295
0.39045599 0.59856206 1 4294967295
0.54425502 0.36894113 1 4294967295
0.63481355 0.74742573 1 4294967295
0.1161228 0.81195247 1 4294967295
0.12866712 0.026385881 1 4294967295
0.9836095 0.53095907 1 4294967295
0.93789518 0.92259687 1 4294967295
0.044649862 0.13915475 1 4294967295
0.85782725 0.53258061 1 4294967295
0.25260508 0.19204 1 4294967295
0.42409411 0.63798302 1 4294967295
0.69022787 0.64092076 1 4294967295
0.35766107 0.11308563 1 4294967295
0.55248976 0.52964336 1 4294967295
0.89790833 0.93568635 1 4294967295
0.058362335 0.28836429 1 4294967295
0.53424841 0.60261738 1 4294967295
0.65730542 0.16906196 1 4294967295
0.35004309 0.7734282 1 4294967295
0.98101443 0.4787102 1 4294967295
0.79981411 0.96462393 1 4294967295
0.0096692834 0.73770928 1 4294967295
0.8872208 0.054319147 1 4294967295
0.87686402 0.74504799 1 4294967295
0.58689976 0.1294691 1 4294967295
0.93708801 0.010993861 1 4294967295
0.76745212 0.62731588 1 4294967295
0.6519146 0.12511317 1 4294967295
0.74040151 0.20440437 1 4294967295
0.65475655 0.63830984 1 4294967295
0.14009072 0.71311891 1 4294967295
0.92667413 0.67433912 1 4294967295
0.31573626 0.58397955 1 4294967295
0.84340107 0.66577935 1 4294967295
0.35740778 0.8244155 1 4294967295
0.14448953 0.1572219 1 4294967295
0.78903943 0.15415882 1 4294967295
0.8949312 0.67626017 1 4294967295
0.20847796 0.77179521 1 4294967295
0.42130819 0.79537773 1 4294967295
0.90126431 0.3583962 1 4294967295
0.80637157 0.66871637 1 4294967295
0.98571205 0.45828617 1 4294967295
0.79382956 0.72611356 1 4294967295
0.66269058 0.44858611 1 4294967295
0.36442342 0.80278128 1 4294967295
0.161705 0.29109755 1 4294967295
0.4771204 0.47744125 1 4294967295
0.87507713 0.32052147 1 4294967295
0.14322059 0.23248492 1 4294967295
0.14493698 0.28771013 1 4294967295
0.38970682 0.93397641 1 4294967295
0.44186893 0.28463799 1 4294967295
0.61023659 0.65034693 1 4294967295
0.056433182 0.031544805 1 4294967295
0.44572461 0.95769745 1 4294967295
0.38994101 0.25209618 1 4294967295
0.62641388 0.37565309 1 4294967295
0.71038234 0.42024344 1 4294967295
0.10176666 0.37307292 1 4294967295
0.86882955 0.46619007 1 4294967295
0.17585418 0.030534562 1 4294967295
0.75728762 0.65297455 1 4294967295
0.50797582 0.63236475 1 4294967295
0.97349602 0.65119642 1 4294967295
0.86484969 0.11843301 1 4294967295
0.93890655 0.25455651 1 4294967295
0.052409422 0.38077548 1 4294967295
0.53919446 0.66264606 1 4294967295
0.031122377 0.59562767 1 4294967295
0.69419086 0.47684699 1 4294967295
0.55332518 0.084131837 1 4294967295
0.72894317 0.17973903 1 4294967295
0.45978492 0.43932551 1 4294967295
0.59998244 0.56155157 1 4294967295
0.81239843 0.46881202 1 4294967295
0.027741645 0.98825258 1 4294967295
0.49934658 0.78502929 1 4294967295
0.64122719 0.007322405 1 4294967295
0.41739407 0.61472321 1 4294967295
0.65851879 0.28224376 1 4294967295
0.7331562 0.59742534 1 4294967295
0.53680027 0.78556561 1 4294967295
0.97820079 0.075994752 1 4294967295
0.44821167 0.0093231881 1 4294967295
0.6716224 0.1424025 1 4294967295
0.48617017 0.22494757 1 4294967295
0.22653434 0.21511334 1 4294967295
0.4046866 0.68631923 1 4294967295
0.65443885 0.0046690702 1 4294967295
0.24787082 0.46683729 1 4294967295
0.47348109 0.27561244 1 4294967295
0.45508987 0.97282767 1 4294967295
0.060641743 0.096317045 1 4294967295
0.9801501 0.47803581 1 4294967295
0.71104026 0.63866889 1 4294967295
0.76027954 0.44419646 1 4294967295
0.23609424 0.2970798 1 4294967295
0.22976211 0.21429506 1 4294967295
0.37307456 0.67797375 1 4294967295
0.22361824 0.044696987 1 4294967295
0.82037628 0.70978844 1 4294967295
0.26964456 0.046910599 1 4294967295
0.92490178 0.67433119 1 4294967295
0.73322982 0.57934064 1 4294967295
0.67900026 0.98110068 1 4294967295
0.046177894 0.15248133 1 4294967295
0.25671312 0.50126779 1 4294967295
0.12530902 0.31735486 1 4294967295
0.59758484 0.10545912 1 4294967295
0.79539067 0.30862507 1 4294967295
0.74412799 0.5556702 1 4294967295
0.75282151 0.98022228 1 4294967295
0.85275 0.98258364 1 4294967295
0.19451731 0.22582458 1 4294967295
0.66055739 0.41813555 1 4294967295
0.27052155 0.48093367 1 4294967295
0.12792397 0.54016614 1 4294967295
0.52784425 0.052825723 1 4294967295
0.21449728 0.2610741 1 4294967295
0.63216633 0.89349753 1 4294967295
0.24217476 0.67834425 1 4294967295
0.045978848 0.49888787 1 4294967295
0.17961201 0.17128786 1 4294967295
0.81624269 0.77719682 1 4294967295
0.27674699 0.61163336 1 4294967295
0.085821897 0.020874996 1 4294967295
0.16730358 0.83864343 1 4294967295
0.001097254 0.020053588 1 4294967295
0.82122707 0.19561456 1 4294967295
0.24587816 0.48178446 1 4294967295
0.6137501 0.51639974 1 4294967295
0.96271813 0.74167407 1 4294967295
0.05656584 0.49056241 1 4294967295
0.79449981 0.27106312 1 4294967295
0.75163651 0.42666614 1 4294967295
0.16456063 0.99381131 1 4294967295
0.10501037 0.21053949 1 4294967295
0.49269915 0.28462237 1 4294967295
0.38182735 0.30894187 1 4294967295
0.061819203 0.65857434 1 4294967295
0.92057526 0.14764111 1 4294967295
0.67944932 0.087878816 1 4294967295
0.98628455 0.68054658 1 4294967295
0.1079324 0.80751163 1 4294967295
0.87616116 0.35381058 1 4294967295
0.28929609 0.48991126 1 4294967295
0.87021029 0.25201422 1 4294967295
0.23158534 0.92677611 1 4294967295
0.74257666 0.026085146 1 4294967295
0.19783925 0.49421316 1 4294967295
0.45275128 0.36239988 1 4294967295
0.48802444 0.55776167 1 4294967295
0.5729394 0.98072356 1 4294967295
0.84238404 0.95476669 1 4294967295
0.28966546 0.90420324 1 4294967295
0.61334103 0.21024069 1 4294967295
0.05184434 0.29279035 1 4294967295
0.29811952 0.038128875 1 4294967295
0.97333694 0.4060519 1 4294967295
0.84564048 0.84949809 1 4294967295
0.75986248 0.13493657 1 4294967295
0.33940935 0.63007277 1 4294967295
0.38695079 0.57099468 1 4294967295
0.55684888 0.12952743 1 4294967295
0.59707981 0.75468814 1 4294967295
0.62374061 0.049831118 1 4294967295
0.11708803 0.11176503 1 4294967295
0.60759276 0.69002742 1 4294967295
0.092488624 0.4499768 1 4294967295
0.64479411 0.38215408 1 4294967295
0.35418004 0.25813514 1 4294967295
0.59239477 0.4060244 1 4294967295
0.55092549 0.89051431 1 4294967295
0.44415325 0.52426249 1 4294967295
0.29656622 0.28979376 1 4294967295
0.37376055 0.056428697 1 4294967295
0.42473033 0.71316987 1 4294967295
0.68650144 0.81168109 1 4294967295
0.28416458 0.24335036 1 4294967295
0.94120854 0.88124442 1 4294967295
0.99803853 0.56494915 1 4294967295
0.93107551 0.11512654 1 4294967295
0.67671418 0.53866833 1 4294967295
0.80515391 0.76920283 1 4294967295
0.98864514 0.44994804 1 4294967295
0.15135689 0.34282517 1 4294967295
0.70808321 0.7437517 1 4294967295
0.74884957 0.25900871 1 4294967295
0.63426596 0.19300282 1 4294967295
0.78327119 0.93083221 1 4294967295
0.48279655 0.15703171 1 4294967295
0.98726088 0.90752685 1 4294967295
0.87020165 0.67376232 1 4294967295
0.719208 0.15436621 1 4294967295
0.91711271 0.66041654 1 4294967295
0.035610635 0.91515124 1 4294967295
0.2253657 0.96668619 1 4294967295
0.030277748 0.90207988 1 4294967295
0.50535452 0.83543169 1 4294967295
0.67128271 0.49399963 1 4294967295
0.28537971 0.82263958 1 4294967295
0.83682477 0.99346286 1 4294967295
0.56639129 0.58567435 1 4294967295
0.2524716 0.20065725 1 4294967295
0.77867717 0.035742756 1 4294967295
0.13148943 0.26147372 1 4294967295
0.19277447 0.11875031 1 4294967295
0.1690006 0.0629761 1 4294967295
0.79251266 0.88820857 1 4294967295
0.21734232 0.70962536 1 4294967295
0.54862511 0.25295296 1 4294967295
0.6247766 0.77399081 1 4294967295
0.21963912 0.65505433 1 4294967295
0.67607069 0.72499365 1 4294967295
0.490486 0.34735343 1 4294967295
0.21899325 0.77586573 1 4294967295
0.16999301 0.05581804 1 4294967295
0.76932859 0.73638427 1 4294967295
0.64149237 0.021800179 1 4294967295
0.93704152 0.42016956 1 4294967295
0.057542935 0.068530962 1 4294967295
0.68164325 0.25031742 1 4294967295
0.18728127 0.85064387 1 4294967295
0.31329352 0.97979391 1 4294967295
0.73885244 0.53063583 1 4294967295
0.68941933 0.28747758 1 4294967295
0.78358877 0.3141959 1 4294967295
0.061468422 0.0032279063 1 4294967295
0.9692502 0.73753911 1 4294967295
0.72822154 0.45973623 1 4294967295
0.084892556 0.94721478 1 4294967295
0.23560193 0.25488555 1 4294967295
0.003032817 0.0049305228 1 4294967295
0.99126983 0.64452523 1 4294967295
0.026730701 0.92831135 1 4294967295
0.064694755 0.084273636 1 4294967295
0.99684232 0.74633801 1 4294967295
0.33459106 0.18412361 1 4294967295
0.59698188 0.64788455 1 4294967295
0.16391754 0.33583435 1 4294967295
0.1785204 0.85333681 1 4294967295
0.62331194 0.96210915 1 4294967295
0.16753273 0.68478036 1 4294967295
0.9653371 0.13678294 1 4294967295
0.4223195 0.69355863 1 4294967295
0.59651917 0.50721204 1 4294967295
0.64077342 0.83212113 1 4294967295
0.7620976 0.64380622 1 4294967295
0.83705163 0.75336748 1 4294967295
0.28833142 0.86378235 1 4294967295
0.68167883 0.35302615 1 4294967295
0.94805598 0.67852116 1 4294967295
0.099364176 0.28264701 1 4294967295
0.86264479 0.69634604 1 4294967295
0.93053156 0.026562309 1 4294967295
0.032180406 0.10905198 1 4294967295
0.87989914 0.65549237 1 4294967295
0.071161158 0.047431879 1 4294967295
0.34027269 0.036498237 1 4294967295
0.18421483 0.7625922 1 4294967295
0.73005682 0.780734 1 4294967295
0.26980424 0.37083024 1 4294967295
0.61285514 0.031901866 1 4294967295
0.014636438 0.44990674 1 4294967295
0.78526932 0.30296785 1 4294967295
0.31368908 0.46694818 1 4294967295
0.655994 0.26174507 1 4294967295
0.14546934 0.75535816 1 4294967295
0.54439205 0.0081141088 1 4294967295
0.45170426 0.47492367 1 4294967295
0.034676418 0.48388466 1 4294967295
0.58397567 0.91457558 1 4294967295
0.139377 0.65513682 1 4294967295
0.96200746 0.47964969 1 4294967295
0.69163501 0.14622228 1 4294967295
0.24224189 0.42169189 1 4294967295
0.9269563 0.51204616 1 4294967295
0.79252213 0.53981143 1 4294967295
0.54394799 0.80715859 1 4294967295
0.98971814 0.32921734 1 4294967295
0.11012641 0.30340725 1 4294967295
0.79616553 0.76612043 1 4294967295
0.56515229 0.94163483 1 4294967295
0.52147859 0.10954437 1 4294967295
0.94974893 0.97318286 1 4294967295
0.58446807 0.98442537 1 4294967295
0.45706752 0.16844368 1 4294967295
0.89900094 0.59644449 1 4294967295
0.8235805 0.86100841 1 4294967295
0.07609421 0.51521552 1 4294967295
0.0072306613 0.3183361 1 4294967295
0.93690741 0.93418694 1 4294967295
0.83038223 0.72942954 1 4294967295
0.47399837 0.37433025 1 4294967295
0.53658813 0.46371651 1 4294967295
0.7035476 0.64671451 1 4294967295
0.76712376 0.49971309 1 4294967295
0.41283491 0.33227605 1 4294967295
0.44134793 0.93431354 1 4294967295
0.44182041 0.39109689 1 4294967295
0.90749639 0.026288452 1 4294967295
0.37552226 0.36456388 1 4294967295
0.19473214 0.2745232 1 4294967295
0.96100843 0.018312627 1 4294967295
0.13553157 0.037102617 1 4294967295
0.53352815 0.14276223 1 4294967295
0.35543871 0.47043559 1 4294967295
0.076949179 0.18582095 1 4294967295
0.19986512 0.55094755 1 4294967295
0.56015122 0.73645324 1 4294967295
0.014664039 0.26369879 1 4294967295
0.38316774 0.78178781 1 4294967295
0.76341188 0.79600269 1 4294967295
0.11406383 0.20475981 1 4294967295
0.73031616 0.55588424 1 4294967295
0.59585667 0.63781255 1 4294967295
0.58217269 0.97137892 1 4294967295
0.0023764558 0.77690482 1 4294967295
0.24590212 0.96338487 1 4294967295
0.79521745 0.3814337 1 4294967295
0.00048747845 0.3287456 1 4294967295
0.52419591 0.35592619 1 4294967295
0.79918122 0.60114509 1 4294967295
0.54174715 0.99904633 1 4294967295
0.15209264 0.10189836 1 4294967295
0.73549956 0.16675667 1 4294967295
0.36559716 0.11866728 1 4294967295
0.94854444 0.12900904 1 4294967295
0.91466993 0.062608279 1 4294967295
0.33376884 0.64498615 1 4294967295
0.61849254 0.92962557 1 4294967295
0.28279868 0.20066522 1 4294967295
0.90100449 0.28517514 1 4294967295
0.97757006 0.14690661 1 4294967295
0.24856001 0.77278751 1 4294967295
0.52834028 0.24904749 1 4294967295
0.10153312 0.052536223 1 4294967295
0.60497367 0.90071434 1 4294967295
0.65368134 0.14672084 1 4294967295
0.8997606 0.80577397 1 4294967295
0.2486192 0.63526016 1 4294967295
0.9725306 0.61421633 1 4294967295
0.75392747 0.92107511 1 4294967295
0.7432254 0.6685974 1 4294967295
0.98368335 0.07699424 1 4294967295
0.31358352 0.60217589 1 4294967295
0.0066197831 0.5963822 1 4294967295
0.80284113 0.90762424 1 4294967295
0.88155735 0.78041112 1 4294967295
0.054530874 0.13011736 1 4294967295
0.55319864 0.5828712 1 4294967295
0.37916484 0.65473175 1 4294967295
0.63540739 0.98413849 1 4294967295
0.55544609 0.28908873 1 4294967295
0.13085936 0.45520672 1 4294967295
0.094862685 0.37947854 1 4294967295
0.090466902 0.06739331 1 4294967295
0.9936949 0.84439433 1 4294967295
0.98846841 0.7369203 1 4294967295
0.51299173 0.97215176 1 4294967295
0.81391454 0.82657528 1 4294967295
0.57432765 0.82053435 1 4294967295
0.42295748 0.37716877 1 4294967295
0.72815859 0.30451483 1 4294967295
0.15757991 0.78268945 1 4294967295
0.43463218 0.71077853 1 4294967295
0.36556065 0.813797 1 4294967295
0.36551034 0.0009680409 1 4294967295
0.79793555 0.92095643 1 4294967295
0.29005677 0.92879486 1 4294967295
0.37616315 0.38491946 1 4294967295
0.30827343 0.46663004 1 4294967295
0.45231277 0.30196834 1 4294967295
0.3110244 0.44078118 1 4294967295
0.038888637 0.82401615 1 4294967295
0.41293293 0.85280317 1 4294967295
0.65059143 0.98726058 1 4294967295
0.67333752 0.073548883 1 4294967295
0.36442935 0.40149608 1 4294967295
0.37806371 0.52200925 1 4294967295
0.18418555 0.81269586 1 4294967295
0.23278782 0.54974622 1 4294967295
0.62649286 0.59829813 1 4294967295
0.55071425 0.4244284 1 4294967295
0.51925457 0.84077102 1 4294967295
0.35322329 0.89541769 1 4294967295
0.22569045 0.6614967 1 4294967295
0.36204776 0.67800325 1 4294967295
0.96346503 0.67307216 1 4294967295
0.11878438 0.0023536994 1 4294967295
0.49708828 0.5317173 1 4294967295
0.8551569 0.1476797 1 4294967295
0.51897788 0.52849436 1 4294967295
0.22122858 0.88340724 1 4294967295
0.92999047 0.59929228 1 4294967295
0.40541649 0.11417603 1 4294967295
0.41198817 0.63820434 1 4294967295
0.66392225 0.038481046 1 4294967295
0.23650247 0.21463646 1 4294967295
0.46290946 0.75575703 1 4294967295
0.055407468 0.81613272 1 4294967295
0.65117478 0.28109792 1 4294967295
0.47762948 0.013222511 1 4294967295
0.95910114 0.44109452 1 4294967295
0.68629467 0.077885538 1 4294967295
0.44344825 0.18338294 1 4294967295
0.60960287 0.29860511 1 4294967295
0.33106264 0.12858075 1 4294967295
0.8270995 0.55229121 1 4294967295
0.011987993 0.75708997 1 4294967295
0.15158352 0.4174045 1 4294967295
0.87126601 0.56357169 1 4294967295
0.055608816 0.5351882 1 4294967295
0.60205275 0.29211128 1 4294967295
0.7498247 0.064962186 1 4294967295
0.04786833 0.80523217 1 4294967295
0.88109493 0.6990431 1 4294967295
0.086330071 0.35872442 1 4294967295
0.71226561 0.045431223 1 4294967295
0.79981893 0.39856026 1 4294967295
0.12331676 0.24326716 1 4294967295
0.58194321 0.73291963 1 4294967295
0.54187226 0.91300583 1 4294967295
0.86150038 0.36897177 1 4294967295
0.4652971 0.87348837 1 4294967295
0.12606174 0.6168806 1 4294967295
0.29089284 0.99732774 1 4294967295
0.18045229 0.34650165 1 4294967295
0.53251594 0.78250504 1 4294967295
0.63861293 0.28234062 1 4294967295
0.84746718 0.6864813 1 4294967295
0.087572761 0.72856212 1 4294967295
0.38552436 0.17390284 1 4294967295
0.087286539 0.097789966 1 4294967295
0.21933407 0.88710546 1 4294967295
0.49635023 0.3426508 1 4294967295
0.13037264 0.078293428 1 4294967295
0.075570419 0.67224491 1 4294967295
0.99129927 0.93707079 1 4294967295
0.041216701 0.45659637 1 4294967295
0.81055915 0.16727844 1 4294967295
0.073476985 0.10145197 1 4294967295
0.16460615 0.25392926 1 4294967295
0.44795364 0.6971221 1 4294967295
0.036434289 0.086566575 1 4294967295
0.97946274 0.88390148 1 4294967295
0.77304786 0.067035474 1 4294967295
0.61246365 0.15857221 1 4294967295
0.24093832 0.69975019 1 4294967295
0.25636217 0.46027237 1 4294967295
0.58685565 0.75271243 1 4294967295
0.8029232 0.71722829 1 4294967295
0.83100581 0.87849361 1 4294967295
0.38947323 0.82230514 1 4294967295
0.81556439 0.43068993 1 4294967295
0.27890149 0.62612349 1 4294967295
0.59796834 0.35237849 1 4294967295
0.72757548 0.76257449 1 4294967295
0.60630774 0.17552911 1 4294967295
0.45969662 0.64274204 1 4294967295
0.26209569 0.43915933 1 4294967295
0.52664351 0.035143528 1 4294967295
0.50619483 0.13910715 1 4294967295
0.19371575 0.74713314 1 4294967295
0.83885729 0.45007792 1 4294967295
0.20740549 0.42571297 1 4294967295
0.20279033 0.010328684 1 4294967295
0.14294127 0.033796165 1 4294967295
0.88882232 0.5324145 1 4294967295
0.85610127 0.70438665 1 4294967295
0.96310443 0.13500278 1 4294967295
0.3305102 0.56107277 1 4294967295
0.48738125 0.058085661 1 4294967295
0.32364732 0.09368901 1 4294967295
0.23361477 0.78334391 1 4294967295
0.73643106 0.49571043 1 4294967295
0.22250326 0.26307458 1 4294967295
0.53085399 0.72869807 1 4294967295
0.40218171 0.72456974 1 4294967295
0.47583118 0.24103905 1 4294967295
0.17464764 0.68323672 1 4294967295
0.66675204 0.37743798 1 4294967295
0.69356537 0.80969328 1 4294967295
0.41123414 0.58238769 1 4294967295
0.34210777 0.26733541 1 4294967295
0.28677434 0.3052122 1 4294967295
0.40233821 0.61728454 1 4294967295
0.86628497 0.88971949 1 4294967295
0.67537022 0.1899323 1 4294967295
0.98340845 0.90898496 1 4294967295
0.97327626 0.71983951 1 4294967295
0.40469542 0.1957795 1 4294967295
0.98291409 0.93554938 1 4294967295
0.92447758 0.38509583 1 4294967295
0.66011912 0.40030876 1 4294967295
0.62613487 0.83476675 1 4294967295
1 0.26292616 0.57235688 4294967295
1 0.97747612 0.077855468 4294967295
1 0.79340494 0.99654323 4294967295
1 0.33174348 0.62403756 4294967295
1 0.84069192 0.67721069 4294967295
1 0.84364802 0.23572326 4294967295
1 0.26687381 0.37845042 4294967295
1 0.69258404 0.61831576 4294967295
1 0.12101365 0.27678537 4294967295
1 0.57803482 0.039566755 4294967295
1 0.11337602 0.027173094 4294967295
1 0.3021051 0.80626148 4294967295
1 0.40289226 0.92079365 4294967295
1 0.96930015 0.79581738 4294967295
1 0.20082942 0.6038087 4294967295
1 0.13808076 0.46375558 4294967295
1 0.17616558 0.11555691 4294967295
1 0.54161108 0.96957052 4294967295
1 0.11210017 0.87335449 4294967295
1 0.59360808 0.95279211 4294967295
1 0.55056524 0.43725607 4294967295
1 0.18851537 0.81743902 4294967295
1 0.81570649 0.8810994 4294967295
1 0.43575481 0.93672013 4294967295
1 0.15788479 0.013789621 4294967295
1 0.97628689 0.2712608 4294967295
1 0.040962715 0.27839199 4294967295
1 0.07752227 0.44385496 4294967295
1 0.19918565 0.046822429 4294967295
1 0.23967235 0.40001509 4294967295
1 0.65063113 0.37775311 4294967295
1 0.86377066 0.82679671 4294967295
1 0.49331003 0.40538171 4294967295
1 0.79636723 0.60541016 4294967295
1 0.27873623 0.38997528 4294967295
1 0.55820227 0.82930148 4294967295
1 0.82723135 0.74671763 4294967295
1 0.6467405 0.64293784 4294967295
1 0.62781709 0.082495295 4294967295
1 0.57965797 0.78570187 4294967295
1 0.096284918 0.55594486 4294967295
1 0.056962676 0.13724764 4294967295
1 0.83433682 0.13448495 4294967295
1 0.58110261 0.03352249 4294967295
1 0.18130738 0.82077497 4294967295
1 0.43353757 0.83193851 4294967295
1 0.19852807 0.29730824 4294967295
1 0.65873522 0.69183809 4294967295
1 0.70268995 0.45510247 4294967295
1 0.29724827 0.98142618 4294967295
1 0.84507775 0.85545057 4294967295
1 0.8107276 0.6723091 4294967295
1 0.6021682 0.45746809 4294967295
1 0.31524688 0.2299853 4294967295
1 0.53996342 0.89490485 4294967295
1 0.015687156 0.63624829 4294967295
1 0.45084968 0.072649837 4294967295
1 0.77349597 0.2851865 4294967295
1 0.20713478 0.35459855 4294967295
1 0.31870899 0.38844216 4294967295
1 0.17537349 0.75224656 4294967295
1 0.22038068 0.37390158 4294967295
1 0.049554802 0.87911594 4294967295
1 0.065739647 0.75224471 4294967295
1 0.33421838 0.36298794 4294967295
1 0.73367089 0.17929614 4294967295
1 0.21843849 0.54439849 4294967295
1 0.85160524 0.82060671 4294967295
1 0.0018666144 0.16685212 4294967295
1 0.050591998 0.54183 4294967295
1 0.061756954 0.066279158 4294967295
1 0.17807832 0.51260662 4294967295
1 0.13892899 0.95157427 4294967295
1 0.79779315 0.34606376 4294967295
1 0.30617282 0.11650214 4294967295
1 0.73450595 0.48154631 4294967295
1 0.86874872 0.95488662 4294967295
1 0.85544789 0.91830349 4294967295
1 0.83400255 0.92118752 4294967295
1 0.67054826 0.16822094 4294967295
1 0.28417546 0.40421915 4294967295
