ply
format ascii 1.0
comment PCL generated
element vertex 988
property float x
property float y
property float z
property uchar red
property uchar green
property uchar blue
property uchar alpha
element camera 0
property float view_px
property float view_py
property float view_pz
property float x_axisx
property float x_axisy
property float x_axisz
property float y_axisx
property float y_axisy
property float y_axisz
property float z_axisx
property float z_axisy
property float z_axisz
property float focal
property float scalex
property float scaley
property float centerx
property float centery
property int viewportx
property int viewporty
property float k1
property float k2
end_header
0.47410738 1 0.80921412 255 255 255 255
0.91268301 1 0.68804002 255 255 255 255
0.26407108 1 0.17658317 255 255 255 255
0.61700225 1 0.92333698 255 255 255 255
0.88363671 1 0.56394339 255 255 255 255
0.93699908 1 0.46818814 255 255 255 255
0.71046329 1 0.098273113 255 255 255 255
0.66556865 1 0.13125509 255 255 255 255
0.048384082 1 0.90052032 255 255 255 255
0.43807951 1 0.85035908 255 255 255 255
0.59435177 1 0.68938982 255 255 255 255
0.91226149 1 0.82905447 255 255 255 255
0.46589127 1 0.79441994 255 255 255 255
0.72512734 1 0.26194456 255 255 255 255
0.024088478 1 0.57478362 255 255 255 255
0.59669995 1 0.49819586 255 255 255 255
0.38399777 1 0.50938296 255 255 255 255
0.18623589 1 0.64806885 255 255 255 255
0.68596619 1 0.80323815 255 255 255 255
0.57140583 1 0.56960291 255 255 255 255
0.36718154 1 0.50840491 255 255 255 255
0.037791032 1 0.077644825 255 255 255 255
0.60667801 1 0.70335966 255 255 255 255
0.20889992 1 0.65506214 255 255 255 255
0.60388005 1 0.64697939 255 255 255 255
0.50542116 1 0.19823177 255 255 255 255
0.33636928 1 0.41768268 255 255 255 255
0.027286269 1 0.80226052 255 255 255 255
0.21210259 1 0.75241363 255 255 255 255
0.064205073 1 0.23619106 255 255 255 255
0.32719728 1 0.66090506 255 255 255 255
0.73438692 1 0.71119505 255 255 255 255
0.17028804 1 0.92062283 255 255 255 255
0.35926387 1 0.85625422 255 255 255 255
0.72386098 1 0.93066972 255 255 255 255
0.4258571 1 0.091042489 255 255 255 255
0.43907464 1 0.46364814 255 255 255 255
0.16868731 1 0.045752674 255 255 255 255
0.1670078 1 0.37758723 255 255 255 255
0.70081478 1 0.77088779 255 255 255 255
0.024566645 1 0.20623598 255 255 255 255
0.96911961 1 0.3609359 255 255 255 255
0.62391865 1 0.99640584 255 255 255 255
0.16319643 1 0.83602124 255 255 255 255
0.74881947 1 0.22740151 255 255 255 255
0.072212294 1 0.076016754 255 255 255 255
0.88830656 1 0.8065992 255 255 255 255
0.78721178 1 0.058594596 255 255 255 255
0.72722203 1 0.14647566 255 255 255 255
0.9148488 1 0.451083 255 255 255 255
0.077145368 1 0.3407059 255 255 255 255
0.54212546 1 0.51622003 255 255 255 255
0.80435401 1 0.71081281 255 255 255 255
0.56197268 1 0.97136182 255 255 255 255
0.088400029 1 0.26278746 255 255 255 255
0.74224961 1 0.11296667 255 255 255 255
0.46902344 1 0.71136922 255 255 255 255
0.47390258 1 0.092942096 255 255 255 255
0.70777506 1 0.63709903 255 255 255 255
0.9289633 1 0.45659456 255 255 255 255
0.86450052 1 0.0011756201 255 255 255 255
0.53261131 1 0.75280708 255 255 255 255
0.80777484 1 0.31982312 255 255 255 255
0.81140167 1 0.53499687 255 255 255 255
0.46629876 1 0.72625047 255 255 255 255
0.98607987 1 0.54344416 255 255 255 255
0.066956379 1 0.52820534 255 255 255 255
0.059664138 1 0.87131041 255 255 255 255
0.23901814 1 0.62163681 255 255 255 255
0.84267223 1 0.32741818 255 255 255 255
0.88442427 1 0.58492184 255 255 255 255
0.44038484 1 0.35344774 255 255 255 255
0.29629108 1 0.91428745 255 255 255 255
0.44638982 1 0.004066152 255 255 255 255
0.55138642 1 0.37535316 255 255 255 255
0.4606607 1 0.41588697 255 255 255 255
0.37652877 1 0.99327201 255 255 255 255
0.16869406 1 0.18430363 255 255 255 255
0.31309512 1 0.98009574 255 255 255 255
0.71930051 1 0.77939391 255 255 255 255
0.70634621 1 0.70538032 255 255 255 255
0.32283801 1 0.77330261 255 255 255 255
0.23358569 1 0.38250217 255 255 255 255
0.64461303 1 0.47260383 255 255 255 255
0.0041389721 1 0.48728523 255 255 255 255
0.80002201 1 0.88856328 255 255 255 255
0.072207086 1 0.24040683 255 255 255 255
0.24201101 1 0.36849818 255 255 255 255
0.15469424 1 0.68840086 255 255 255 255
0.37256432 1 0.70608068 255 255 255 255
0.063754 1 0.83322501 255 255 255 255
0.12196767 1 0.44028279 255 255 255 255
0.82649708 1 0.29066172 255 255 255 255
0.6245864 1 0.13959217 255 255 255 255
0.2707575 1 0.34388688 255 255 255 255
0.91898608 1 0.97710371 255 255 255 255
0.049267225 1 0.24182409 255 255 255 255
0.75040632 1 0.28285292 255 255 255 255
0.62432623 1 0.39501932 255 255 255 255
0.75545675 1 0.62846524 255 255 255 255
0.88230455 1 0.55547869 255 255 255 255
0.51702845 1 0.95451164 255 255 255 255
0.7958855 1 0.75903946 255 255 255 255
0.32300982 1 0.95057976 255 255 255 255
0.44744033 1 0.6955741 255 255 255 255
0.6566605 1 0.51119429 255 255 255 255
0.52879918 1 0.77862817 255 255 255 255
0.28496823 0.77615452 0.53333336 255 255 255 255
0.81735122 0.64760828 0.53333336 255 255 255 255
0.18921643 0.33902302 0.53333336 255 255 255 255
0.15018049 0.51123917 0.53333336 255 255 255 255
0.31237265 0.79545891 0.53333336 255 255 255 255
0.80665475 0.33129057 0.53333336 255 255 255 255
0.20000783 0.68029058 0.53333336 255 255 255 255
0.35666966 0.81930614 0.53333336 255 255 255 255
0.84347397 0.43272719 0.53333336 255 255 255 255
0.30454323 0.20966114 0.53333336 255 255 255 255
0.81893921 0.64414507 0.53333336 255 255 255 255
0.49544686 0.8499704 0.53333336 255 255 255 255
0.43436307 0.84379035 0.53333336 255 255 255 255
0.15963116 0.58154172 0.53333336 255 255 255 255
0.84960866 0.51654708 0.53333336 255 255 255 255
0.79372221 0.30966535 0.53333336 255 255 255 255
0.30348679 0.78962487 0.53333336 255 255 255 255
0.17706953 0.36503366 0.53333336 255 255 255 255
0.18763174 0.65787995 0.53333336 255 255 255 255
0.39311451 0.83327991 0.53333336 255 255 255 255
0.27878538 0.771227 0.53333336 255 255 255 255
0.63989341 0.82082683 0.53333336 255 255 255 255
0.24850699 0.25658417 0.53333336 255 255 255 255
0.37223822 0.82584804 0.53333336 255 255 255 255
0.26363066 0.24187301 0.53333336 255 255 255 255
0.35501486 0.81855816 0.53333336 255 255 255 255
0.84210515 0.42608073 0.53333336 255 255 255 255
0.71764421 0.77410036 0.53333336 255 255 255 255
0.69994706 0.21273501 0.53333336 255 255 255 255
0.48847845 0.1501897 0.53333336 255 255 255 255
0.78988588 0.69612795 0.53333336 255 255 255 255
0.60381293 0.83424973 0.53333336 255 255 255 255
0.63708156 0.17796174 0.53333336 255 255 255 255
0.33280087 0.19251919 0.53333336 255 255 255 255
0.3855072 0.1692563 0.53333336 255 255 255 255
0.69836819 0.78835756 0.53333336 255 255 255 255
0.20529336 0.31119323 0.53333336 255 255 255 255
0.76850539 0.72451025 0.53333336 255 255 255 255
0.15569571 0.56288522 0.53333336 255 255 255 255
0.17449826 0.37135854 0.53333336 255 255 255 255
0.5362938 0.15188685 0.53333336 255 255 255 255
0.16035223 0.41550511 0.53333336 255 255 255 255
0.63286507 0.17619932 0.53333336 255 255 255 255
0.83513063 0.60093302 0.53333336 255 255 255 255
0.84998679 0.5030399 0.53333336 255 255 255 255
0.6480248 0.18284285 0.53333336 255 255 255 255
0.83613241 0.40245506 0.53333336 255 255 255 255
0.30097866 0.78790712 0.53333336 255 255 255 255
0.24112198 0.73554653 0.53333336 255 255 255 255
0.24400941 0.73868144 0.53333336 255 255 255 255
0.28662524 0.22256313 0.53333336 255 255 255 255
0.48108873 0.15051128 0.53333336 255 255 255 255
0.17889488 0.36074662 0.53333336 255 255 255 255
0.46037066 0.84774923 0.53333336 255 255 255 255
0.83227527 0.60996884 0.53333336 255 255 255 255
0.61415523 0.83086038 0.53333336 255 255 255 255
0.19990654 0.31987807 0.53333336 255 255 255 255
0.84800541 0.53731239 0.53333336 255 255 255 255
0.31187516 0.79514241 0.53333336 255 255 255 255
0.18072695 0.64340401 0.53333336 255 255 255 255
0.52583623 0.15095487 0.53333336 255 255 255 255
0.17879882 0.63903165 0.53333336 255 255 255 255
0.26835024 0.23762929 0.53333336 255 255 255 255
0.18895936 0.33952034 0.53333336 255 255 255 255
0.77558321 0.71576357 0.53333336 255 255 255 255
0.32784218 0.80473214 0.53333336 255 255 255 255
0.45592839 0.15278582 0.53333336 255 255 255 255
0.38434699 0.16966021 0.53333336 255 255 255 255
0.17245489 0.62334585 0.53333336 255 255 255 255
0.60573894 0.83364546 0.53333336 255 255 255 255
0.48614249 0.84972554 0.53333336 255 255 255 255
0.58871561 0.83856988 0.53333336 255 255 255 255
0.47793552 0.15069617 0.53333336 255 255 255 255
0.8182863 0.64558107 0.53333336 255 255 255 255
0.48730975 0.84976983 0.53333336 255 255 255 255
0.48097023 0.15051772 0.53333336 255 255 255 255
0.76653254 0.27315113 0.53333336 255 255 255 255
0.58529341 0.83944815 0.53333336 255 255 255 255
0.79830229 0.68307304 0.53333336 255 255 255 255
0.4555259 0.84716284 0.53333336 255 255 255 255
0.20613068 0.30989257 0.53333336 255 255 255 255
0.46326005 0.15193367 0.53333336 255 255 255 255
0.84905875 0.5256511 0.53333336 255 255 255 255
0.69397098 0.79133356 0.53333336 255 255 255 255
0.84998792 0.5029068 0.53333336 255 255 255 255
0.82332218 0.63402522 0.53333336 255 255 255 255
0.28786311 0.77838451 0.53333336 255 255 255 255
0.20141292 0.31739181 0.53333336 255 255 255 255
0.80719167 0.66772974 0.53333336 255 255 255 255
0.37927184 0.17148104 0.53333336 255 255 255 255
0.84719306 0.54423785 0.53333336 255 255 255 255
0.68994838 0.20602788 0.53333336 255 255 255 255
0.74129295 0.7535305 0.53333336 255 255 255 255
0.30337 0.2104544 0.53333336 255 255 255 255
0.1964051 0.67415547 0.53333336 255 255 255 255
0.53369617 0.84837419 0.53333336 255 255 255 255
0.84881496 0.47122318 0.53333336 255 255 255 255
0.71099752 0.77924907 0.53333336 255 255 255 255
0.81767082 0.35308075 0.53333336 255 255 255 255
0.18370533 0.64985883 0.53333336 255 255 255 255
0.29754421 0.78550249 0.53333336 255 255 255 255
0.63422638 0.82323873 0.53333336 255 255 255 255
0.27486295 0.23201995 0.53333336 255 255 255 255
0.79769772 0.68405455 0.53333336 255 255 255 255
0.48761418 0.8497808 0.53333336 255 255 255 255
0.77596676 0.28472731 0.53333336 255 255 255 255
0.66759604 0.19273536 0.53333336 255 255 255 255
0.71727479 0.77439326 0.53333336 255 255 255 255
0.77603441 0.715186 0.53333336 255 255 255 255
0.80356055 0.32578462 0.53333336 255 255 255 255
0.20022218 0.68064678 0.53333336 255 255 255 255
0.38511539 0.1693922 0.53333336 255 255 255 255
0.29488194 0.2164042 0.53333336 255 255 255 255
0.18778892 0.65819049 0.53333336 255 255 255 255
0.71152258 0.22114845 0.53333336 255 255 255 255
0.2972444 0.21471038 0.53333336 255 255 255 255
0.1510106 0.52657819 0.53333336 255 255 255 255
0.59358913 0.83725524 0.53333336 255 255 255 255
0.52412581 0.84916747 0.53333336 255 255 255 255
0.18095832 0.35608193 0.53333336 255 255 255 255
0.78427404 0.29582295 0.53333336 255 255 255 255
0.47979969 0.84941661 0.53333336 255 255 255 255
0.20597331 0.68986392 0.53333336 255 255 255 255
0.84388125 0.56515896 0.53333336 255 255 255 255
0.80041146 0.32040888 0.53333336 255 255 255 255
0.66056913 0.18900554 0.53333336 255 255 255 255
0.46825075 0.848557 0.53333336 255 255 255 255
0.78462839 0.29631722 0.53333336 255 255 255 255
0.84492743 0.44062766 0.53333336 255 255 255 255
0.61749679 0.82968849 0.53333336 255 255 255 255
0.32999197 0.80593669 0.53333336 255 255 255 255
0.34890956 0.81570822 0.53333336 255 255 255 255
0.24058025 0.73494977 0.53333336 255 255 255 255
0.84360009 0.4333744 0.53333336 255 255 255 255
0.20546629 0.68907642 0.53333336 255 255 255 255
0.27437773 0.23242833 0.53333336 255 255 255 255
0.72994173 0.2361311 0.53333336 255 255 255 255
0.52495366 0.84910929 0.53333336 255 255 255 255
0.56970805 0.15701197 0.53333336 255 255 255 255
0.84357917 0.43326661 0.53333336 255 255 255 255
0.69541478 0.79036713 0.53333336 255 255 255 255
0.61732209 0.82975072 0.53333336 255 255 255 255
0.3241871 0.1973619 0.53333336 255 255 255 255
0.62075371 0.17149043 0.53333336 255 255 255 255
0.24630648 0.25887844 0.53333336 255 255 255 255
0.15262999 0.45717391 0.53333336 255 255 255 255
0.16227469 0.59187824 0.53333336 255 255 255 255
0.77127111 0.72116053 0.53333336 255 255 255 255
0.44838056 0.15382744 0.53333336 255 255 255 255
0.38506052 0.16941126 0.53333336 255 255 255 255
0.34366342 0.18685646 0.53333336 255 255 255 255
0.25612986 0.2489475 0.53333336 255 255 255 255
0.83667147 0.40433216 0.53333336 255 255 255 255
0.8012051 0.67825687 0.53333336 255 255 255 255
0.30713123 0.20793556 0.53333336 255 255 255 255
0.73988253 0.24513461 0.53333336 255 255 255 255
0.79657459 0.31414118 0.53333336 255 255 255 255
0.80835593 0.33442026 0.53333336 255 255 255 255
0.54675919 0.15313752 0.53333336 255 255 255 255
0.76074833 0.26652554 0.53333336 255 255 255 255
0.75948727 0.73487514 0.53333336 255 255 255 255
0.78048146 0.70935649 0.53333336 255 255 255 255
0.59803784 0.83598894 0.53333336 255 255 255 255
0.15000002 0.50010067 0.53333336 255 255 255 255
0.81520557 0.65213633 0.53333336 255 255 255 255
0.23599131 0.27021876 0.53333336 255 255 255 255
0.72569919 0.76750678 0.53333336 255 255 255 255
0.82177979 0.36231279 0.53333336 255 255 255 255
0.7103737 0.22028066 0.53333336 255 255 255 255
0.80709904 0.33210066 0.53333336 255 255 255 255
0.78962433 0.30348605 0.53333336 255 255 255 255
0.84951836 0.51835513 0.53333336 255 255 255 255
0.76112688 0.733051 0.53333336 255 255 255 255
0.18459344 0.34828085 0.53333336 255 255 255 255
0.63781565 0.1782752 0.53333336 255 255 255 255
0.47127834 0.15118048 0.53333336 255 255 255 255
0.79447216 0.68917227 0.53333336 255 255 255 255
0.45147333 0.84661961 0.53333336 255 255 255 255
0.69815373 0.21149504 0.53333336 255 255 255 255
0.64367378 0.18084823 0.53333336 255 255 255 255
0.84333193 0.43200603 0.53333336 255 255 255 255
0.15336533 0.45158097 0.53333336 255 255 255 255
0.17096691 0.61931986 0.53333336 255 255 255 255
0.81167209 0.3407501 0.53333336 255 255 255 255
0.22635108 0.28178847 0.53333336 255 255 255 255
0.78088361 0.70881665 0.53333336 255 255 255 255
0.59764981 0.16389805 0.53333336 255 255 255 255
0.15224613 0.46041149 0.53333336 255 255 255 255
0.84625119 0.55108917 0.53333336 255 255 255 255
0.17995679 0.35832307 0.53333336 255 255 255 255
0.21451679 0.70248294 0.53333336 255 255 255 255
0.72242343 0.77023655 0.53333336 255 255 255 255
0.32827091 0.19502603 0.53333336 255 255 255 255
0.22565658 0.28266224 0.53333336 255 255 255 255
0.27749875 0.22982746 0.53333336 255 255 255 255
0.47790757 0.15069795 0.53333336 255 255 255 255
0.56425399 0.84405148 0.53333336 255 255 255 255
0.56301332 0.15571912 0.53333336 255 255 255 255
0.3422763 0.18755282 0.53333336 255 255 255 255
0.81358629 0.65544653 0.53333336 255 255 255 255
0.39013392 0.16769074 0.53333336 255 255 255 255
0.19405478 0.33000723 0.53333336 255 255 255 255
0.80500263 0.67167813 0.53333336 255 255 255 255
0.63930273 0.17891631 0.53333336 255 255 255 255
0.70201707 0.78581303 0.53333336 255 255 255 255
0.77790648 0.28723726 0.53333336 255 255 255 255
0.16856781 0.38751575 0.53333336 255 255 255 255
0.51548719 0.84965718 0.53333336 255 255 255 255
0.67217678 0.80472142 0.53333336 255 255 255 255
0.21963775 0.70951611 0.53333336 255 255 255 255
0.82519662 0.6294108 0.53333336 255 255 255 255
0.72809428 0.76546746 0.53333336 255 255 255 255
0.80665106 0.33128384 0.53333336 255 255 255 255
0.1501665 0.48920572 0.53333336 255 255 255 255
0.82390368 0.63261378 0.53333336 255 255 255 255
0.15505563 0.44072625 0.53333336 255 255 255 255
0.22569013 0.28261995 0.53333336 255 255 255 255
0.71771681 0.22595732 0.53333336 255 255 255 255
0.83602619 0.59791011 0.53333336 255 255 255 255
0.26035893 0.24490754 0.53333336 255 255 255 255
0.1899877 0.66245729 0.53333336 255 255 255 255
0.16927153 0.61453676 0.53333336 255 255 255 255
0.54466724 0.15286194 0.53333336 255 255 255 255
0.79366672 0.69042021 0.53333336 255 255 255 255
0.83036095 0.61559248 0.53333336 255 255 255 255
0.20364088 0.68620223 0.53333336 255 255 255 255
0.6715039 0.19489935 0.53333336 255 255 255 255
0.44702068 0.84596705 0.53333336 255 255 255 255
0.62980366 0.82503998 0.53333336 255 255 255 255
0.15034837 0.48438773 0.53333336 255 255 255 255
0.29887724 0.78644305 0.53333336 255 255 255 255
0.767865 0.27472603 0.53333336 255 255 255 255
0.79805791 0.68347061 0.53333336 255 255 255 255
0.18423149 0.65096438 0.53333336 255 255 255 255
0.39995018 0.16460466 0.53333336 255 255 255 255
0.52221286 0.84929442 0.53333336 255 255 255 255
0.34104419 0.81182212 0.53333336 255 255 255 255
0.48695144 0.84975666 0.53333336 255 255 255 255
0.1520306 0.53764707 0.53333336 255 255 255 255
0.15032172 0.51500374 0.53333336 255 255 255 255
0.30108184 0.21202159 0.53333336 255 255 255 255
0.16277027 0.40631911 0.53333336 255 255 255 255
0.26073539 0.2445544 0.53333336 255 255 255 255
0.1868998 0.34357664 0.53333336 255 255 255 255
0.83418012 0.60403681 0.53333336 255 255 255 255
0.37536266 0.17294414 0.53333336 255 255 255 255
0.78208673 0.70718849 0.53333336 255 255 255 255
0.30270463 0.2109074 0.53333336 255 255 255 255
0.16639169 0.394144 0.53333336 255 255 255 255
0.71286482 0.77782828 0.53333336 255 255 255 255
0.42438495 0.84173435 0.53333336 255 255 255 255
0.84462792 0.43891311 0.53333336 255 255 255 255
0.20793712 0.30712888 0.53333336 255 255 255 255
0.82928997 0.61860907 0.53333336 255 255 255 255
0.82239413 0.63624257 0.53333336 255 255 255 255
0.28802359 0.22149324 0.53333336 255 255 255 255
0.15807609 0.57475322 0.53333336 255 255 255 255
0.7767415 0.28572416 0.53333336 255 255 255 255
0.80738431 0.33262354 0.53333336 255 255 255 255
0.3037692 0.21018372 0.53333336 255 255 255 255
0.21397586 0.70171809 0.53333336 255 255 255 255
0.46034807 0.84774661 0.53333336 255 255 255 255
0.16328172 0.40449715 0.53333336 255 255 255 255
0.15068255 0.52184749 0.53333336 255 255 255 255
0.38578135 0.16916153 0.53333336 255 255 255 255
0.50473541 0.84996796 0.53333336 255 255 255 255
0.45602688 0.15277332 0.53333336 255 255 255 255
0.84662426 0.5484938 0.53333336 255 255 255 255
0.15009879 0.49168479 0.53333336 255 255 255 255
0.58106667 0.84048229 0.53333336 255 255 255 255
0.15161559 0.46640971 0.53333336 255 255 255 255
0.69202024 0.79262304 0.53333336 255 255 255 255
0.51302451 0.15024243 0.53333336 255 255 255 255
0.7136445 0.77722919 0.53333336 255 255 255 255
0.45900428 0.15240923 0.53333336 255 255 255 255
0.61640048 0.16992283 0.53333336 255 255 255 255
0.68297529 0.20163774 0.53333336 255 255 255 255
0.67272127 0.19558685 0.53333336 255 255 255 255
0.16174814 0.5899204 0.53333336 255 255 255 255
0.23535569 0.72904891 0.53333336 255 255 255 255
0.84668821 0.45196563 0.53333336 255 255 255 255
0.48528022 0.15030967 0.53333336 255 255 255 255
0.27939451 0.77172267 0.53333336 255 255 255 255
0.18423092 0.34903678 0.53333336 255 255 255 255
0.60465533 0.16601308 0.53333336 255 255 255 255
0.19102255 0.66441691 0.53333336 255 255 255 255
0.57111812 0.84269845 0.53333336 255 255 255 255
0.46909276 0.84863269 0.53333336 255 255 255 255
0.35635331 0.81916398 0.53333336 255 255 255 255
0.72634351 0.76696181 0.53333336 255 255 255 255
0.80601251 0.33012843 0.53333336 255 255 255 255
0.43344367 0.15638648 0.53333336 255 255 255 255
0.20911419 0.69464183 0.53333336 255 255 255 255
0.15924789 0.579925 0.53333336 255 255 255 255
0.58787543 0.83878893 0.53333336 255 255 255 255
0.77891308 0.71144146 0.53333336 255 255 255 255
0.41547209 0.16036043 0.53333336 255 255 255 255
0.825064 0.37025642 0.53333336 255 255 255 255
0.74692696 0.74804652 0.53333336 255 255 255 255
0.57643509 0.8415519 0.53333336 255 255 255 255
0.70150644 0.78617328 0.53333336 255 255 255 255
0.27801847 0.22940031 0.53333336 255 255 255 255
0.25637469 0.75129008 0.53333336 255 255 255 255
0.79347372 0.30928245 0.53333336 255 255 255 255
0.57883716 0.15899457 0.53333336 255 255 255 255
0.77809638 0.71251452 0.53333336 255 255 255 255
0.41774002 0.15980405 0.53333336 255 255 255 255
0.25052023 0.25452116 0.53333336 255 255 255 255
0.82207239 0.36299866 0.53333336 255 255 255 255
0.66690046 0.80764306 0.53333336 255 255 255 255
0.84928584 0.52234715 0.53333336 255 255 255 255
0.80022287 0.32009384 0.53333336 255 255 255 255
0.80035156 0.32030877 0.53333336 255 255 255 255
0.26249537 0.75708276 0.53333336 255 255 255 255
0.15154199 0.5328179 0.53333336 255 255 255 255
0.41833952 0.15965962 0.53333336 255 255 255 255
0.58889949 0.16147839 0.53333336 255 255 255 255
0.39706209 0.16547976 0.53333336 255 255 255 255
0.84622192 0.44871277 0.53333336 255 255 255 255
0.77221084 0.72000283 0.53333336 255 255 255 255
0.68858498 0.20515138 0.53333336 255 255 255 255
0.77781719 0.28712064 0.53333336 255 255 255 255
0.66422445 0.19092019 0.53333336 255 255 255 255
0.50723755 0.84992516 0.53333336 255 255 255 255
0.27813604 0.7706961 0.53333336 255 255 255 255
0.84041166 0.58136266 0.53333336 255 255 255 255
0.29437131 0.78322577 0.53333336 255 255 255 255
0.81626523 0.64992106 0.53333336 255 255 255 255
0.84631962 0.4493767 0.53333336 255 255 255 255
0.15420447 0.55408746 0.53333336 255 255 255 255
0.42276558 0.84137201 0.53333336 255 255 255 255
0.7407791 0.75401855 0.53333336 255 255 255 255
0.76113224 0.73304492 0.53333336 255 255 255 255
0.30866528 0.20692828 0.53333336 255 255 255 255
0.84030896 0.58179134 0.53333336 255 255 255 255
0.78587562 0.29807144 0.53333336 255 255 255 255
0.52592146 0.15096121 0.53333336 255 255 255 255
0.49951786 0.15000033 0.53333336 255 255 255 255
0.15460184 0.44343048 0.53333336 255 255 255 255
0.3872281 0.16866559 0.53333336 255 255 255 255
0.80741286 0.33267599 0.53333336 255 255 255 255
0.15891849 0.42149261 0.53333336 255 255 255 255
0.2329548 0.27375486 0.53333336 255 255 255 255
0.67790073 0.19858447 0.53333336 255 255 255 255
0.78911817 0.30274203 0.53333336 255 255 255 255
0.78708267 0.70020878 0.53333336 255 255 255 255
0.16539617 0.39733413 0.53333336 255 255 255 255
0.38264671 0.1702604 0.53333336 255 255 255 255
0.60692054 0.16673134 0.53333336 255 255 255 255
0.15396394 0.44747341 0.53333336 255 255 255 255
0.61599666 0.16978072 0.53333336 255 255 255 255
0.27685666 0.23035756 0.53333336 255 255 255 255
0.19338116 0.66877466 0.53333336 255 255 255 255
0.26281539 0.24262197 0.53333336 255 255 255 255
0.76497048 0.27132848 0.53333336 255 255 255 255
0.56383145 0.15586987 0.53333336 255 255 255 255
0.32914445 0.19453579 0.53333336 255 255 255 255
0.52937186 0.84876537 0.53333336 255 255 255 255
0.70508575 0.21638082 0.53333336 255 255 255 255
0.28675926 0.22246011 0.53333336 255 255 255 255
0.73137128 0.76261634 0.56666666 255 255 255 255
0.5547325 0.15430598 0.56666666 255 255 255 255
0.66454816 0.1910924 0.56666666 255 255 255 255
0.59341747 0.1626972 0.56666666 255 255 255 255
0.63400203 0.17666818 0.56666666 255 255 255 255
0.45618021 0.15275395 0.56666666 255 255 255 255
0.17054209 0.38185817 0.56666666 255 255 255 255
0.17648391 0.36644343 0.56666666 255 255 255 255
0.48711896 0.84976292 0.56666666 255 255 255 255
0.49431172 0.84995377 0.56666666 255 255 255 255
0.15199935 0.53735709 0.56666666 255 255 255 255
0.59100699 0.16203886 0.56666666 255 255 255 255
0.73055524 0.23666699 0.56666666 255 255 255 255
0.35528693 0.81868184 0.56666666 255 255 255 255
0.3847037 0.16953553 0.56666666 255 255 255 255
0.83974284 0.41588813 0.56666666 255 255 255 255
0.73182666 0.23778559 0.56666666 255 255 255 255
0.22732343 0.71942532 0.56666666 255 255 255 255
0.52369618 0.15080307 0.56666666 255 255 255 255
0.23144679 0.72445303 0.56666666 255 255 255 255
0.61665404 0.82998765 0.56666666 255 255 255 255
0.21586879 0.70437574 0.56666666 255 255 255 255
0.62703282 0.17386709 0.56666666 255 255 255 255
0.66360867 0.19059378 0.56666666 255 255 255 255
0.41842431 0.8403607 0.56666666 255 255 255 255
0.20250435 0.31561902 0.56666666 255 255 255 255
0.15009722 0.50824904 0.56666666 255 255 255 255
0.1539941 0.44727501 0.56666666 255 255 255 255
0.17626826 0.63303292 0.56666666 255 255 255 255
0.71972275 0.77243698 0.56666666 255 255 255 255
0.53074539 0.848647 0.56666666 255 255 255 255
0.18617472 0.34503648 0.56666666 255 255 255 255
0.80344516 0.32558376 0.56666666 255 255 255 255
0.82216793 0.63677651 0.56666666 255 255 255 255
0.26689607 0.76107961 0.56666666 255 255 255 255
0.45505118 0.15289828 0.56666666 255 255 255 255
0.59536523 0.16324271 0.56666666 255 255 255 255
0.80754954 0.33292732 0.56666666 255 255 255 255
0.40909702 0.83798915 0.56666666 255 255 255 255
0.83301944 0.60769427 0.56666666 255 255 255 255
0.66205227 0.81022424 0.56666666 255 255 255 255
0.55430865 0.15423915 0.56666666 255 255 255 255
0.69058168 0.20643803 0.56666666 255 255 255 255
0.84015507 0.58242893 0.56666666 255 255 255 255
0.79236728 0.69240934 0.56666666 255 255 255 255
0.16004238 0.41676053 0.56666666 255 255 255 255
0.84999573 0.49826738 0.56666666 255 255 255 255
0.83780301 0.40840772 0.56666666 255 255 255 255
0.81703818 0.35172045 0.56666666 255 255 255 255
0.52196717 0.15069003 0.56666666 255 255 255 255
0.29954317 0.78690946 0.56666666 255 255 255 255
0.74546903 0.74948937 0.56666666 255 255 255 255
0.68613964 0.7963984 0.56666666 255 255 255 255
0.69458872 0.79092133 0.56666666 255 255 255 255
0.83529842 0.39962578 0.56666666 255 255 255 255
0.16838047 0.61193067 0.56666666 255 255 255 255
0.48786029 0.1502106 0.56666666 255 255 255 255
0.16716048 0.60824907 0.56666666 255 255 255 255
0.84469676 0.43930277 0.56666666 255 255 255 255
0.64418155 0.8189227 0.56666666 255 255 255 255
0.20679016 0.30887702 0.56666666 255 255 255 255
0.59074211 0.83803236 0.56666666 255 255 255 255
0.51192456 0.1502032 0.56666666 255 255 255 255
0.15054838 0.48041505 0.56666666 255 255 255 255
0.45142666 0.84661305 0.56666666 255 255 255 255
0.75298619 0.74186355 0.56666666 255 255 255 255
0.52545565 0.84907305 0.56666666 255 255 255 255
0.82026362 0.64117789 0.56666666 255 255 255 255
0.83775592 0.59176558 0.56666666 255 255 255 255
0.15629458 0.43391982 0.56666666 255 255 255 255
0.7612856 0.73287296 0.56666666 255 255 255 255
0.5750463 0.8418597 0.56666666 255 255 255 255
0.38138831 0.82928902 0.56666666 255 255 255 255
0.83759689 0.40765089 0.56666666 255 255 255 255
0.49242356 0.84991801 0.56666666 255 255 255 255
0.21989581 0.70986098 0.56666666 255 255 255 255
0.1501265 0.50940961 0.56666666 255 255 255 255
0.49415579 0.84995121 0.56666666 255 255 255 255
0.28457609 0.77584875 0.56666666 255 255 255 255
0.18706284 0.65674925 0.56666666 255 255 255 255
0.84889442 0.52779686 0.56666666 255 255 255 255
0.3972559 0.16542019 0.56666666 255 255 255 255
0.16878955 0.38686451 0.56666666 255 255 255 255
0.66201186 0.81024534 0.56666666 255 255 255 255
0.72098172 0.2285832 0.56666666 255 255 255 255
0.15025651 0.48660257 0.56666666 255 255 255 255
0.24727923 0.25785911 0.56666666 255 255 255 255
0.22108169 0.28856543 0.56666666 255 255 255 255
0.83673918 0.40457094 0.56666666 255 255 255 255
0.20911622 0.30535513 0.56666666 255 255 255 255
0.57776111 0.1587476 0.56666666 255 255 255 255
0.16578871 0.39606342 0.56666666 255 255 255 255
0.6125741 0.16859831 0.56666666 255 255 255 255
0.16159503 0.41065747 0.56666666 255 255 255 255
0.82787168 0.62247521 0.56666666 255 255 255 255
0.81257159 0.65747696 0.56666666 255 255 255 255
0.31713396 0.20157075 0.56666666 255 255 255 255
0.4016954 0.83591104 0.56666666 255 255 255 255
0.72249436 0.77017814 0.56666666 255 255 255 255
0.40177578 0.16406547 0.56666666 255 255 255 255
0.65995681 0.18869016 0.56666666 255 255 255 255
0.48633537 0.84973317 0.56666666 255 255 255 255
0.80706024 0.33202979 0.56666666 255 255 255 255
0.73868054 0.7559914 0.56666666 255 255 255 255
0.57909828 0.84094495 0.56666666 255 255 255 255
0.66128397 0.81062436 0.56666666 255 255 255 255
0.15549132 0.43824419 0.56666666 255 255 255 255
0.41176397 0.16130485 0.56666666 255 255 255 255
0.18672588 0.6560747 0.56666666 255 255 255 255
0.76071614 0.2664896 0.56666666 255 255 255 255
0.7305786 0.76331258 0.56666666 255 255 255 255
0.17532004 0.63070166 0.56666666 255 255 255 255
0.20024322 0.31931829 0.56666666 255 255 255 255
0.36691403 0.17629005 0.56666666 255 255 255 255
0.23385264 0.27269936 0.56666666 255 255 255 255
0.17062627 0.61837626 0.56666666 255 255 255 255
0.6205973 0.82856703 0.56666666 255 255 255 255
0.53492039 0.84825361 0.56666666 255 255 255 255
0.833992 0.60463905 0.56666666 255 255 255 255
0.70561343 0.78323686 0.56666666 255 255 255 255
0.66465157 0.19114749 0.56666666 255 255 255 255
0.67622823 0.19760355 0.56666666 255 255 255 255
0.38777238 0.16848083 0.56666666 255 255 255 255
0.26051778 0.24475843 0.56666666 255 255 255 255
0.25241879 0.74739349 0.56666666 255 255 255 255
0.51087618 0.15016901 0.56666666 255 255 255 255
0.40096954 0.16430227 0.56666666 255 255 255 255
0.84029615 0.58184463 0.56666666 255 255 255 255
0.83269405 0.60869539 0.56666666 255 255 255 255
0.69618434 0.21015228 0.56666666 255 255 255 255
0.48305464 0.15041046 0.56666666 255 255 255 255
0.74872744 0.25375897 0.56666666 255 255 255 255
0.7819674 0.70735085 0.56666666 255 255 255 255
0.31736013 0.20143227 0.56666666 255 255 255 255
0.84972 0.5139975 0.56666666 255 255 255 255
0.36173686 0.82153273 0.56666666 255 255 255 255
0.68081588 0.20032415 0.56666666 255 255 255 255
0.15823673 0.42451572 0.56666666 255 255 255 255
0.84600389 0.55273807 0.56666666 255 255 255 255
0.47179112 0.8488614 0.56666666 255 255 255 255
0.19505838 0.67178649 0.56666666 255 255 255 255
0.68826997 0.79504985 0.56666666 255 255 255 255
0.39589173 0.16584215 0.56666666 255 255 255 255
0.84984857 0.51029491 0.56666666 255 255 255 255
0.70129848 0.21368039 0.56666666 255 255 255 255
0.36215374 0.82171166 0.56666666 255 255 255 255
0.1672869 0.60863698 0.56666666 255 255 255 255
0.83814639 0.5903163 0.56666666 255 255 255 255
0.16614024 0.39493969 0.56666666 255 255 255 255
0.15002517 0.50419742 0.56666666 255 255 255 255
0.62556154 0.82670218 0.56666666 255 255 255 255
0.25023231 0.74518585 0.56666666 255 255 255 255
0.32741079 0.804488 0.56666666 255 255 255 255
0.76919025 0.27631134 0.56666666 255 255 255 255
0.84970438 0.51438141 0.56666666 255 255 255 255
0.40686134 0.16262011 0.56666666 255 255 255 255
0.28478423 0.22398882 0.56666666 255 255 255 255
0.41484696 0.16051663 0.56666666 255 255 255 255
0.48833719 0.15019436 0.56666666 255 255 255 255
0.38114306 0.17079942 0.56666666 255 255 255 255
0.17113091 0.38022888 0.56666666 255 255 255 255
0.15116926 0.52858526 0.56666666 255 255 255 255
0.18392666 0.34967485 0.56666666 255 255 255 255
0.30601212 0.20867766 0.56666666 255 255 255 255
0.70641422 0.78265381 0.56666666 255 255 255 255
0.19019151 0.33715436 0.56666666 255 255 255 255
0.84426016 0.4368735 0.56666666 255 255 255 255
0.84864998 0.46928841 0.56666666 255 255 255 255
0.76739675 0.72582954 0.56666666 255 255 255 255
0.84984148 0.48946753 0.56666666 255 255 255 255
0.50251162 0.84999096 0.56666666 255 255 255 255
0.1561861 0.43448666 0.56666666 255 255 255 255
0.69706368 0.78925055 0.56666666 255 255 255 255
0.83340222 0.3934966 0.56666666 255 255 255 255
0.15826187 0.42440206 0.56666666 255 255 255 255
0.84996212 0.50515014 0.56666666 255 255 255 255
0.46658632 0.84840137 0.56666666 255 255 255 255
0.84832424 0.46579164 0.56666666 255 255 255 255
0.83678079 0.59528226 0.56666666 255 255 255 255
0.63645321 0.17769499 0.56666666 255 255 255 255
0.15211102 0.53838319 0.56666666 255 255 255 255
0.53187943 0.84854513 0.56666666 255 255 255 255
0.62840843 0.82559371 0.56666666 255 255 255 255
0.63815618 0.17842127 0.56666666 255 255 255 255
0.74727786 0.74769676 0.56666666 255 255 255 255
0.61492145 0.83059502 0.56666666 255 255 255 255
0.15325178 0.45240092 0.56666666 255 255 255 255
0.54328275 0.1526866 0.56666666 255 255 255 255
0.79270166 0.30809972 0.56666666 255 255 255 255
0.46398172 0.84814173 0.56666666 255 255 255 255
0.15862785 0.57723373 0.56666666 255 255 255 255
0.15930101 0.58015108 0.56666666 255 255 255 255
0.50746441 0.15007961 0.56666666 255 255 255 255
0.84145373 0.57687229 0.56666666 255 255 255 255
0.75554645 0.7391569 0.56666666 255 255 255 255
0.78699172 0.29966086 0.56666666 255 255 255 255
0.23352294 0.27308598 0.56666666 255 255 255 255
0.79449028 0.68914407 0.56666666 255 255 255 255
0.76830554 0.27525091 0.56666666 255 255 255 255
0.44282502 0.15470155 0.56666666 255 255 255 255
0.80004883 0.68019629 0.56666666 255 255 255 255
0.72666872 0.76668572 0.56666666 255 255 255 255
0.49153104 0.8498975 0.56666666 255 255 255 255
0.52001959 0.84942698 0.56666666 255 255 255 255
0.79707086 0.68506455 0.56666666 255 255 255 255
0.58384478 0.16019115 0.56666666 255 255 255 255
0.51487571 0.84968376 0.56666666 255 255 255 255
0.28742006 0.77804637 0.56666666 255 255 255 255
0.55023116 0.15362328 0.56666666 255 255 255 255
0.41911772 0.84052616 0.56666666 255 255 255 255
0.67316699 0.80415982 0.56666666 255 255 255 255
0.48805767 0.84979618 0.56666666 255 255 255 255
0.15352228 0.45047039 0.56666666 255 255 255 255
0.28058168 0.77268225 0.56666666 255 255 255 255
0.81667745 0.64904821 0.56666666 255 255 255 255
0.29026294 0.21980298 0.56666666 255 255 255 255
0.17039071 0.38228118 0.56666666 255 255 255 255
0.20653483 0.30926928 0.56666666 255 255 255 255
0.19601659 0.67347646 0.56666666 255 255 255 255
0.15980726 0.58227336 0.56666666 255 255 255 255
0.71991849 0.22772101 0.56666666 255 255 255 255
0.75820941 0.26372069 0.56666666 255 255 255 255
0.81231159 0.34200796 0.56666666 255 255 255 255
0.23247316 0.2743246 0.56666666 255 255 255 255
0.80379957 0.3262018 0.56666666 255 255 255 255
0.83598572 0.59804893 0.56666666 255 255 255 255
0.15145831 0.46808311 0.56666666 255 255 255 255
0.15602039 0.43536231 0.56666666 255 255 255 255
0.72971189 0.76406902 0.56666666 255 255 255 255
0.21231733 0.69934565 0.56666666 255 255 255 255
0.49242201 0.84991795 0.56666666 255 255 255 255
0.56097293 0.84464812 0.56666666 255 255 255 255
0.16179627 0.40989873 0.56666666 255 255 255 255
0.15036787 0.48395723 0.56666666 255 255 255 255
0.15940376 0.58058661 0.56666666 255 255 255 255
0.26058301 0.24469721 0.56666666 255 255 255 255
0.40066761 0.83560854 0.56666666 255 255 255 255
0.40501028 0.1631366 0.56666666 255 255 255 255
0.84823215 0.46486643 0.56666666 255 255 255 255
0.81787825 0.64646977 0.56666666 255 255 255 255
0.84969652 0.48542783 0.56666666 255 255 255 255
0.70282435 0.78524077 0.56666666 255 255 255 255
0.34276924 0.8126955 0.56666666 255 255 255 255
0.15176055 0.46493882 0.56666666 255 255 255 255
0.15061867 0.47919866 0.56666666 255 255 255 255
0.22457668 0.7159676 0.56666666 255 255 255 255
0.68061328 0.79979801 0.56666666 255 255 255 255
0.82203037 0.6371001 0.56666666 255 255 255 255
0.84862512 0.46900779 0.56666666 255 255 255 255
0.19453903 0.32913867 0.56666666 255 255 255 255
0.1547655 0.44244012 0.56666666 255 255 255 255
0.69494462 0.20931703 0.56666666 255 255 255 255
0.1593032 0.58016044 0.56666666 255 255 255 255
0.16595791 0.60447913 0.56666666 255 255 255 255
0.16356309 0.59648937 0.56666666 255 255 255 255
0.24408054 0.73875767 0.56666666 255 255 255 255
0.15006447 0.50671726 0.56666666 255 255 255 255
0.8438341 0.43459281 0.56666666 255 255 255 255
0.79561085 0.31261212 0.56666666 255 255 255 255
0.2652624 0.24038824 0.56666666 255 255 255 255
0.25463867 0.74959528 0.56666666 255 255 255 255
0.68094355 0.79959881 0.56666666 255 255 255 255
0.7147488 0.22362533 0.56666666 255 255 255 255
0.80134565 0.32198089 0.56666666 255 255 255 255
0.33297917 0.1924223 0.56666666 255 255 255 255
0.35465559 0.81839442 0.56666666 255 255 255 255
0.16401133 0.40196118 0.56666666 255 255 255 255
0.84233218 0.42713931 0.56666666 255 255 255 255
0.84589046 0.55347711 0.56666666 255 255 255 255
0.15586713 0.43618333 0.56666666 255 255 255 255
0.84140527 0.57708728 0.56666666 255 255 255 255
0.847817 0.53902978 0.56666666 255 255 255 255
0.35258463 0.18255912 0.56666666 255 255 255 255
0.27775922 0.77038682 0.56666666 255 255 255 255
0.15784237 0.42632398 0.56666666 255 255 255 255
0.62828863 0.82564092 0.56666666 255 255 255 255
0.50804406 0.15009245 0.56666666 255 255 255 255
0.38654202 0.16889988 0.56666666 255 255 255 255
0.49047834 0.84987044 0.56666666 255 255 255 255
0.4770287 0.15075465 0.56666666 255 255 255 255
0.43738496 0.84435356 0.56666666 255 255 255 255
0.56693053 0.15645918 0.56666666 255 255 255 255
0.19714911 0.32455388 0.56666666 255 255 255 255
0.48208335 0.15045887 0.56666666 255 255 255 255
0.53867215 0.847857 0.56666666 255 255 255 255
0.83948261 0.58515614 0.56666666 255 255 255 255
0.75154525 0.74336183 0.56666666 255 255 255 255
0.45465896 0.15294929 0.56666666 255 255 255 255
0.84941578 0.52021408 0.56666666 255 255 255 255
0.84275019 0.57086825 0.56666666 255 255 255 255
0.27298528 0.76639128 0.56666666 255 255 255 255
0.240633 0.735008 0.56666666 255 255 255 255
0.61653256 0.83003056 0.56666666 255 255 255 255
0.57106477 0.84270948 0.56666666 255 255 255 255
0.39621946 0.83425975 0.56666666 255 255 255 255
0.73441893 0.24010046 0.56666666 255 255 255 255
0.15872669 0.42233071 0.56666666 255 255 255 255
0.69325572 0.20819145 0.56666666 255 255 255 255
0.6751793 0.19699469 0.56666666 255 255 255 255
0.17460099 0.37109891 0.56666666 255 255 255 255
0.25677735 0.75167984 0.56666666 255 255 255 255
0.73761427 0.24301858 0.56666666 255 255 255 255
0.1910048 0.33561638 0.56666666 255 255 255 255
0.83070922 0.61459231 0.56666666 255 255 255 255
0.54764807 0.8467415 0.56666666 255 255 255 255
0.76746833 0.72574472 0.56666666 255 255 255 255
0.51460081 0.84969532 0.56666666 255 255 255 255
0.847745 0.46033388 0.56666666 255 255 255 255
0.62685055 0.17379616 0.56666666 255 255 255 255
0.1500369 0.50508201 0.56666666 255 255 255 255
0.43759587 0.15560819 0.56666666 255 255 255 255
0.79824769 0.68316197 0.56666666 255 255 255 255
0.43806472 0.84447646 0.56666666 255 255 255 255
0.3813625 0.82927972 0.56666666 255 255 255 255
0.66765451 0.19276725 0.56666666 255 255 255 255
0.15078942 0.47650576 0.56666666 255 255 255 255
0.30481276 0.79052013 0.56666666 255 255 255 255
0.83411837 0.39576513 0.56666666 255 255 255 255
0.52194256 0.84931153 0.56666666 255 255 255 255
0.28835964 0.77876216 0.56666666 255 255 255 255
0.84830308 0.46557671 0.56666666 255 255 255 255
0.2199005 0.29013273 0.56666666 255 255 255 255
0.46966061 0.15131745 0.56666666 255 255 255 255
0.64842689 0.81696916 0.56666666 255 255 255 255
0.6486237 0.18312307 0.56666666 255 255 255 255
0.84199768 0.57441491 0.56666666 255 255 255 255
0.83478343 0.60207874 0.56666666 255 255 255 255
0.28476307 0.77599466 0.56666666 255 255 255 255
0.75087994 0.25595236 0.56666666 255 255 255 255
0.75593579 0.26125985 0.56666666 255 255 255 255
0.801754 0.32267395 0.56666666 255 255 255 255
0.50114924 0.84999812 0.56666666 255 255 255 255
0.49846342 0.15000337 0.56666666 255 255 255 255
0.1503142 0.51482713 0.56666666 255 255 255 255
0.38649416 0.83108371 0.56666666 255 255 255 255
0.84652901 0.45083019 0.56666666 255 255 255 255
0.22320841 0.28578883 0.56666666 255 255 255 255
0.16446945 0.40040457 0.56666666 255 255 255 255
0.83872384 0.41187418 0.56666666 255 255 255 255
0.20003521 0.68033612 0.56666666 255 255 255 255
0.83694136 0.59471291 0.56666666 255 255 255 255
0.35289273 0.18241623 0.56666666 255 255 255 255
0.15001562 0.49669346 0.56666666 255 255 255 255
0.34715733 0.81486362 0.56666666 255 255 255 255
0.8486467 0.46925133 0.56666666 255 255 255 255
0.32945037 0.80563509 0.56666666 255 255 255 255
0.67363364 0.19610634 0.56666666 255 255 255 255
0.33109063 0.80654466 0.56666666 255 255 255 255
0.42821172 0.84255868 0.56666666 255 255 255 255
0.81418151 0.65424001 0.56666666 255 255 255 255
0.35798562 0.18010642 0.56666666 255 255 255 255
0.46225128 0.84795839 0.56666666 255 255 255 255
0.34105092 0.18817441 0.56666666 255 255 255 255
0.19362091 0.66920948 0.56666666 255 255 255 255
0.16887139 0.61337477 0.56666666 255 255 255 255
0.15018876 0.51149309 0.56666666 255 255 255 255
0.16464953 0.60020012 0.56666666 255 255 255 255
0.15020138 0.51187086 0.56666666 255 255 255 255
0.70605803 0.2170864 0.56666666 255 255 255 255
0.3294884 0.80565631 0.56666666 255 255 255 255
0.53431672 0.15168642 0.46666667 255 255 255 255
0.1937855 0.33049282 0.46666667 255 255 255 255
0.74836832 0.74660325 0.46666667 255 255 255 255
0.4804697 0.8494547 0.46666667 255 255 255 255
0.75965184 0.26530674 0.46666667 255 255 255 255
0.78054935 0.70926559 0.46666667 255 255 255 255
0.72932267 0.23559292 0.46666667 255 255 255 255
0.18429853 0.65110451 0.46666667 255 255 255 255
0.82420129 0.63188457 0.46666667 255 255 255 255
0.43969548 0.84476566 0.46666667 255 255 255 255
0.15518737 0.56003535 0.46666667 255 255 255 255
0.48340589 0.15039359 0.46666667 255 255 255 255
0.56355888 0.15581943 0.46666667 255 255 255 255
0.59656912 0.16358596 0.46666667 255 255 255 255
0.45275605 0.15320322 0.46666667 255 255 255 255
0.76958197 0.72321635 0.46666667 255 255 255 255
0.25581005 0.24925855 0.46666667 255 255 255 255
0.82653904 0.62598515 0.46666667 255 255 255 255
0.22623566 0.71806669 0.46666667 255 255 255 255
0.39129829 0.16730803 0.46666667 255 255 255 255
0.48265308 0.15043014 0.46666667 255 255 255 255
0.31273189 0.20431325 0.46666667 255 255 255 255
0.25296035 0.74793428 0.46666667 255 255 255 255
0.68418634 0.79761618 0.46666667 255 255 255 255
0.77295214 0.71908247 0.46666667 255 255 255 255
0.73876488 0.24408722 0.46666667 255 255 255 255
0.23831953 0.26757079 0.46666667 255 255 255 255
0.21977429 0.29030126 0.46666667 255 255 255 255
0.43370911 0.15633518 0.46666667 255 255 255 255
0.83046573 0.38470736 0.46666667 255 255 255 255
0.84646988 0.45041546 0.46666667 255 255 255 255
0.15149137 0.53227586 0.46666667 255 255 255 255
0.15503904 0.44082281 0.46666667 255 255 255 255
0.78079957 0.70892966 0.46666667 255 255 255 255
0.48722133 0.15023336 0.46666667 255 255 255 255
0.20440497 0.68741286 0.46666667 255 255 255 255
0.60016096 0.8353622 0.46666667 255 255 255 255
0.22739659 0.28048372 0.46666667 255 255 255 255
0.68571675 0.2033364 0.46666667 255 255 255 255
0.46640927 0.84838438 0.46666667 255 255 255 255
0.76320249 0.26929578 0.46666667 255 255 255 255
0.36792234 0.82412261 0.46666667 255 255 255 255
0.84958518 0.51703554 0.46666667 255 255 255 255
0.32092851 0.19927852 0.46666667 255 255 255 255
0.7750994 0.71638 0.46666667 255 255 255 255
0.46969137 0.15131478 0.46666667 255 255 255 255
0.55386144 0.1541692 0.46666667 255 255 255 255
0.46308264 0.15195245 0.46666667 255 255 255 255
0.59723514 0.16377786 0.46666667 255 255 255 255
0.67333943 0.80406159 0.46666667 255 255 255 255
0.18062954 0.64318699 0.46666667 255 255 255 255
0.15937184 0.41954839 0.46666667 255 255 255 255
0.66413158 0.19087087 0.46666667 255 255 255 255
0.62398911 0.17269784 0.46666667 255 255 255 255
0.38915622 0.16801558 0.46666667 255 255 255 255
0.82149953 0.36165962 0.46666667 255 255 255 255
0.34526706 0.18606097 0.46666667 255 255 255 255
0.36240798 0.8218205 0.46666667 255 255 255 255
0.15970793 0.41813844 0.46666667 255 255 255 255
0.22105022 0.71139306 0.46666667 255 255 255 255
0.47609732 0.84918284 0.46666667 255 255 255 255
0.15154283 0.46717328 0.46666667 255 255 255 255
0.75826705 0.26378372 0.46666667 255 255 255 255
0.58259767 0.15988587 0.46666667 255 255 255 255
0.24003381 0.26565498 0.46666667 255 255 255 255
0.2545121 0.25052917 0.46666667 255 255 255 255
0.61236089 0.83147401 0.46666667 255 255 255 255
0.65014839 0.18384267 0.46666667 255 255 255 255
0.53473705 0.84827191 0.46666667 255 255 255 255
0.84058166 0.58064824 0.46666667 255 255 255 255
0.80028754 0.67979819 0.46666667 255 255 255 255
0.75568759 0.73900598 0.46666667 255 255 255 255
0.29679099 0.78496683 0.46666667 255 255 255 255
0.79118037 0.69420093 0.46666667 255 255 255 255
0.5745368 0.15802884 0.46666667 255 255 255 255
0.16410342 0.59835386 0.46666667 255 255 255 255
0.66825646 0.19309649 0.46666667 255 255 255 255
0.17357297 0.37372494 0.46666667 255 255 255 255
0.63323492 0.82364869 0.46666667 255 255 255 255
0.25192189 0.25310478 0.46666667 255 255 255 255
0.44803625 0.15387897 0.46666667 255 255 255 255
0.24601837 0.25918195 0.46666667 255 255 255 255
0.6846835 0.79730791 0.46666667 255 255 255 255
0.16992861 0.38358316 0.46666667 255 255 255 255
0.18482512 0.6521998 0.46666667 255 255 255 255
0.72351587 0.23066628 0.46666667 255 255 255 255
0.1507916 0.52352625 0.46666667 255 255 255 255
0.77585548 0.71541536 0.46666667 255 255 255 255
0.65978026 0.81140053 0.46666667 255 255 255 255
0.845025 0.55880272 0.46666667 255 255 255 255
0.15003678 0.49492544 0.46666667 255 255 255 255
0.17841458 0.63814056 0.46666667 255 255 255 255
0.16201104 0.40909642 0.46666667 255 255 255 255
0.23833504 0.73244667 0.46666667 255 255 255 255
0.55834675 0.84510237 0.46666667 255 255 255 255
0.69017971 0.79382253 0.46666667 255 255 255 255
0.84921211 0.52347106 0.46666667 255 255 255 255
0.19189548 0.66604698 0.46666667 255 255 255 255
0.8469981 0.45425791 0.46666667 255 255 255 255
0.51130366 0.8498174 0.46666667 255 255 255 255
0.16192532 0.59058428 0.46666667 255 255 255 255
0.82121009 0.63901109 0.46666667 255 255 255 255
0.26937646 0.76327324 0.46666667 255 255 255 255
0.62253225 0.17214964 0.46666667 255 255 255 255
0.69009703 0.79387605 0.46666667 255 255 255 255
0.70811957 0.7814005 0.46666667 255 255 255 255
0.47453472 0.84907234 0.46666667 255 255 255 255
0.84907609 0.47458595 0.46666667 255 255 255 255
0.40742275 0.16246563 0.46666667 255 255 255 255
0.16751522 0.60933375 0.46666667 255 255 255 255
0.23464942 0.27176967 0.46666667 255 255 255 255
0.17995115 0.64166415 0.46666667 255 255 255 255
0.81649876 0.64942729 0.46666667 255 255 255 255
0.55385351 0.15416797 0.46666667 255 255 255 255
0.84894592 0.47285667 0.46666667 255 255 255 255
0.15001348 0.50307232 0.46666667 255 255 255 255
0.26826549 0.23770416 0.46666667 255 255 255 255
0.15366781 0.55053729 0.46666667 255 255 255 255
0.22226422 0.28701448 0.46666667 255 255 255 255
0.6275785 0.17408018 0.46666667 255 255 255 255
0.15010004 0.49163249 0.46666667 255 255 255 255
0.77461851 0.71699005 0.46666667 255 255 255 255
0.5114153 0.84981382 0.46666667 255 255 255 255
0.83571911 0.59895796 0.46666667 255 255 255 255
0.150581 0.52015847 0.46666667 255 255 255 255
0.15698418 0.5695712 0.46666667 255 255 255 255
0.59934533 0.83560467 0.46666667 255 255 255 255
0.15001573 0.496681 0.46666667 255 255 255 255
0.76895022 0.27602279 0.46666667 255 255 255 255
0.64235395 0.81974268 0.46666667 255 255 255 255
0.4920142 0.15009113 0.46666667 255 255 255 255
0.29818144 0.78595328 0.46666667 255 255 255 255
0.50365061 0.84998095 0.46666667 255 255 255 255
0.76846671 0.72455651 0.46666667 255 255 255 255
0.69720161 0.78915656 0.46666667 255 255 255 255
0.20812272 0.69315189 0.46666667 255 255 255 255
0.47909394 0.84937507 0.46666667 255 255 255 255
0.19726181 0.67564046 0.46666667 255 255 255 255
0.2229182 0.7138356 0.46666667 255 255 255 255
0.84246153 0.4277496 0.46666667 255 255 255 255
0.73272121 0.23857917 0.46666667 255 255 255 255
0.84950739 0.51856291 0.46666667 255 255 255 255
0.21608821 0.70468044 0.46666667 255 255 255 255
0.82205534 0.36295858 0.46666667 255 255 255 255
0.57211983 0.15751098 0.46666667 255 255 255 255
0.23281667 0.72608197 0.46666667 255 255 255 255
0.17915998 0.63986307 0.46666667 255 255 255 255
0.19558261 0.67271376 0.46666667 255 255 255 255
0.73173881 0.23770791 0.46666667 255 255 255 255
0.83970731 0.5842551 0.46666667 255 255 255 255
0.54986769 0.84642923 0.46666667 255 255 255 255
0.26205674 0.75667685 0.46666667 255 255 255 255
0.71430683 0.77671748 0.46666667 255 255 255 255
0.15538153 0.56114 0.46666667 255 255 255 255
0.19919339 0.67892843 0.46666667 255 255 255 255
0.27011117 0.236085 0.46666667 255 255 255 255
0.82558852 0.37157828 0.46666667 255 255 255 255
0.24304873 0.26235309 0.46666667 255 255 255 255
0.72737586 0.76608306 0.46666667 255 255 255 255
0.66801053 0.19296181 0.46666667 255 255 255 255
0.61259383 0.16860503 0.46666667 255 255 255 255
