ply
format ascii 1.0
comment VCGLIB generated
element vertex 1105
property float x
property float y
property float z
property uchar red
property uchar green
property uchar blue
property uchar alpha
element face 0
property list uchar int vertex_indices
end_header
0.19 0.5 0.365487 255 255 255 255 
0.422075 0.5 0.210958 255 255 255 255 
0.341724 0.5 0.384965 255 255 255 255 
0.0989948 0.5 0.189847 255 255 255 255 
0.455176 0.5 0.488608 255 255 255 255 
0.0430553 0.5 0.473605 255 255 255 255 
0.142381 0.5 0.377607 255 255 255 255 
0.333839 0.5 0.176299 255 255 255 255 
0.311023 0.5 0.018379 255 255 255 255 
0.121864 0.5 0.298262 255 255 255 255 
0.234742 0.5 0.434375 255 255 255 255 
0.275852 0.5 0.197575 255 255 255 255 
0.173091 0.5 0.0916165 255 255 255 255 
0.292039 0.5 0.0957086 255 255 255 255 
0.175091 0.5 0.431036 255 255 255 255 
0.216787 0.5 0.365091 255 255 255 255 
0.296524 0.5 0.138863 255 255 255 255 
0.076049 0.5 0.138248 255 255 255 255 
0.023828 0.5 0.175044 255 255 255 255 
0.328095 0.5 0.479004 255 255 255 255 
0.163651 0.5 0.37115 255 255 255 255 
0.452608 0.5 0.306033 255 255 255 255 
0.248757 0.5 0.286448 255 255 255 255 
0.482332 0.5 0.05978 255 255 255 255 
0.304827 0.5 0.104196 255 255 255 255 
0.358042 0.5 0.039569 255 255 255 255 
0.0385707 0.5 0.133893 255 255 255 255 
0.237144 0.5 0.211662 255 255 255 255 
0.22551 0.5 0.0291834 255 255 255 255 
0.30737 0.5 0.400601 255 255 255 255 
0.46022 0.5 0.0241577 255 255 255 255 
0.265692 0.5 0.256744 255 255 255 255 
0.16302 0.5 0.341741 255 255 255 255 
0.394991 0.5 0.186848 255 255 255 255 
0.0167844 0.5 0.223086 255 255 255 255 
0.165852 0.5 0.180436 255 255 255 255 
0.0942365 0.5 0.118461 255 255 255 255 
0.486469 0.5 0.342994 255 255 255 255 
0.404909 0.5 0.468801 255 255 255 255 
0.402774 0.5 0.209735 255 255 255 255 
0.0729966 0.5 0.260815 255 255 255 255 
0.249304 0.5 0.111567 255 255 255 255 
0.394709 0.5 0.486449 255 255 255 255 
0.323229 0.5 0.120219 255 255 255 255 
0.0156321 0.5 0.130599 255 255 255 255 
0.0208191 0.5 0.475852 255 255 255 255 
0.154757 0.5 0.286511 255 255 255 255 
0.232596 0.5 0.317777 255 255 255 255 
0.128252 0.5 0.127587 255 255 255 255 
0.00462585 0.5 0.145036 255 255 255 255 
0.350673 0.5 0.170478 255 255 255 255 
0.325472 0.5 0.44491 255 255 255 255 
0.288939 0.5 0.31194 255 255 255 255 
0.287903 0.5 0.193847 255 255 255 255 
0.280741 0.5 0.190677 255 255 255 255 
0.403583 0.5 0.353738 255 255 255 255 
0.451492 0.5 0.152887 255 255 255 255 
0.465305 0.5 0.346201 255 255 255 255 
0.139336 0.5 0.288534 255 255 255 255 
0.46642 0.5 0.154968 255 255 255 255 
0.419133 0.5 0.487239 255 255 255 255 
0.13082 0.5 0.0738901 255 255 255 255 
0.27375 0.5 0.363416 255 255 255 255 
0.391667 0.5 0.402001 255 255 255 255 
0.491003 0.5 0.396293 255 255 255 255 
0.0470371 0.5 0.341676 255 255 255 255 
0.0667715 0.5 0.372509 255 255 255 255 
0.286585 0.5 0.35571 255 255 255 255 
0.184449 0.5 0.0744887 255 255 255 255 
0.049558 0.5 0.465191 255 255 255 255 
0.265166 0.5 0.453141 255 255 255 255 
0.318928 0.5 0.216658 255 255 255 255 
0.106028 0.5 0.284233 255 255 255 255 
0.0628594 0.5 0.245364 255 255 255 255 
0.0727674 0.5 0.0292791 255 255 255 255 
0.400332 0.5 0.491901 255 255 255 255 
0.0165179 0.5 0.0311525 255 255 255 255 
0.0657908 0.5 0.290268 255 255 255 255 
0.394568 0.5 0.457458 255 255 255 255 
0.192269 0.5 0.385571 255 255 255 255 
0.353752 0.5 0.239306 255 255 255 255 
0.227247 0.5 0.420523 255 255 255 255 
0.111815 0.5 0.013832 255 255 255 255 
0.276234 0.5 0.296264 255 255 255 255 
0.0883207 0.5 0.325791 255 255 255 255 
0.261455 0.5 0.353486 255 255 255 255 
0.278932 0.5 0.0803831 255 255 255 255 
0.0701447 0.5 0.384961 255 255 255 255 
0.364617 0.5 0.133004 255 255 255 255 
0.130325 0.5 0.437384 255 255 255 255 
0.162283 0.5 0.030657 255 255 255 255 
0.429285 0.5 0.178801 255 255 255 255 
0.0618096 0.5 0.495075 255 255 255 255 
0.469069 0.5 0.456378 255 255 255 255 
0.452534 0.5 0.161337 255 255 255 255 
0.341949 0.5 0.306285 255 255 255 255 
0.400643 0.5 0.0691954 255 255 255 255 
0.226808 0.5 0.0124577 255 255 255 255 
0.0830273 0.5 0.00304173 255 255 255 255 
0.308722 0.5 0.171348 255 255 255 255 
0.328833 0.5 0.0701765 255 255 255 255 
0.0248344 0.5 0.107766 255 255 255 255 
0.15056 0.5 0.0949792 255 255 255 255 
0.492726 0.5 0.0151762 255 255 255 255 
0.227983 0.5 0.123051 255 255 255 255 
0.45256 0.5 0.390267 255 255 255 255 
0.153708 0.5 0.381845 255 255 255 255 
0.0690676 0.5 0.215517 255 255 255 255 
0.37692 0.5 0.0381363 255 255 255 255 
0.171895 0.5 0.329454 255 255 255 255 
0.199474 0.5 0.0138439 255 255 255 255 
0.135739 0.5 0.100117 255 255 255 255 
0.0830393 0.5 0.362547 255 255 255 255 
0.112574 0.5 0.166067 255 255 255 255 
0.365589 0.5 0.421296 255 255 255 255 
0.337415 0.5 0.194422 255 255 255 255 
0.491473 0.5 0.362249 255 255 255 255 
0.302188 0.5 0.142032 255 255 255 255 
0.457228 0.5 0.294914 255 255 255 255 
0.157208 0.5 0.185211 255 255 255 255 
0.417964 0.5 0.109769 255 255 255 255 
0.075478 0.5 0.0716721 255 255 255 255 
0.491613 0.5 0.144546 255 255 255 255 
0.287189 0.5 0.368533 255 255 255 255 
0.182682 0.5 0.459085 255 255 255 255 
0.197987 0.5 0.382155 255 255 255 255 
0.472928 0.5 0.333726 255 255 255 255 
0.482272 0.5 0.0559677 255 255 255 255 
0.196273 0.5 0.0948463 255 255 255 255 
0.222034 0.5 0.0618616 255 255 255 255 
0.0161424 0.5 0.0594489 255 255 255 255 
0.256284 0.5 0.00761506 255 255 255 255 
0.421698 0.5 0.058471 255 255 255 255 
0.149647 0.5 0.378926 255 255 255 255 
0.353385 0.5 0.306856 255 255 255 255 
0.0641376 0.5 0.271349 255 255 255 255 
0.416624 0.5 0.139616 255 255 255 255 
0.343021 0.5 0.408238 255 255 255 255 
0.284161 0.5 0.13021 255 255 255 255 
0.276771 0.5 0.466843 255 255 255 255 
0.0892949 0.5 0.474758 255 255 255 255 
0.348998 0.5 0.0622233 255 255 255 255 
0.308484 0.5 0.33127 255 255 255 255 
0.118191 0.5 0.00475683 255 255 255 255 
0.426117 0.5 0.340225 255 255 255 255 
0.0666184 0.5 0.442259 255 255 255 255 
0.399674 0.5 0.322902 255 255 255 255 
0.449874 0.5 0.321372 255 255 255 255 
0.381373 0.5 0.0995216 255 255 255 255 
0.200298 0.5 0.234758 255 255 255 255 
0.406377 0.5 0.264436 255 255 255 255 
0.00610644 0.5 0.323002 255 255 255 255 
0.404051 0.5 0.349127 255 255 255 255 
0.231239 0.5 0.188212 255 255 255 255 
0.479338 0.5 0.00801024 255 255 255 255 
0.155055 0.5 0.0686326 255 255 255 255 
0.482768 0.5 0.00405393 255 255 255 255 
0.130856 0.5 0.291252 255 255 255 255 
0.335324 0.5 0.249047 255 255 255 255 
0.296009 0.5 0.261441 255 255 255 255 
0.0892723 0.5 0.362628 255 255 255 255 
0.2037 0.5 0.488947 255 255 255 255 
0.185529 0.5 0.153575 255 255 255 255 
0.310319 0.5 0.0669025 255 255 255 255 
0.253096 0.5 0.010617 255 255 255 255 
0.30166 0.5 0.159474 255 255 255 255 
0.275053 0.5 0.307766 255 255 255 255 
0.482475 0.5 0.179104 255 255 255 255 
0.156894 0.5 0.213715 255 255 255 255 
0.367317 0.5 0.136232 255 255 255 255 
0.221725 0.5 0.0223722 255 255 255 255 
0.204864 0.5 0.204493 255 255 255 255 
0.0264261 0.5 0.33572 255 255 255 255 
0.495745 0.5 0.361751 255 255 255 255 
0.0847671 0.5 0.291754 255 255 255 255 
0.123192 0.5 0.174039 255 255 255 255 
0.154382 0.5 0.326892 255 255 255 255 
0.162986 0.5 0.339911 255 255 255 255 
0.480467 0.5 0.473305 255 255 255 255 
0.406814 0.5 0.233563 255 255 255 255 
0.483922 0.5 0.208474 255 255 255 255 
0.393037 0.5 0.258974 255 255 255 255 
0.0162404 0.5 0.375512 255 255 255 255 
0.438079 0.5 0.173134 255 255 255 255 
0.0892267 0.5 0.305395 255 255 255 255 
0.309366 0.5 0.310951 255 255 255 255 
0.327768 0.5 0.0142301 255 255 255 255 
0.0154445 0.5 0.354194 255 255 255 255 
0.34995 0.5 0.0111898 255 255 255 255 
0.215944 0.5 0.434717 255 255 255 255 
0.302944 0.5 0.339136 255 255 255 255 
0.108757 0.5 0.457326 255 255 255 255 
0.166028 0.5 0.271743 255 255 255 255 
0.297238 0.5 0.146495 255 255 255 255 
0.245047 0.5 0.204052 255 255 255 255 
0.380058 0.5 0.228969 255 255 255 255 
0.412526 0.5 0.273095 255 255 255 255 
0.487943 0.5 0.428766 255 255 255 255 
0.148607 0.5 0.426022 255 255 255 255 
0.1019 0.5 0.237834 255 255 255 255 
0.231417 0.5 0.411266 255 255 255 255 
0.0487853 0.5 0.0591851 255 255 255 255 
0.425496 0.5 0.0642297 255 255 255 255 
0.413379 0.5 0.275447 255 255 255 255 
0.0754196 0.5 0.129323 255 255 255 255 
0.210164 0.5 0.378364 255 255 255 255 
0.468459 0.5 0.318921 255 255 255 255 
0.33569 0.5 0.134487 255 255 255 255 
0.0906632 0.5 0.132928 255 255 255 255 
0.280982 0.5 0.33571 255 255 255 255 
0.33698 0.5 0.16104 255 255 255 255 
0.0646794 0.5 0.249505 255 255 255 255 
0.434135 0.5 0.0526228 255 255 255 255 
0.178272 0.5 0.0827426 255 255 255 255 
0.478645 0.5 0.280172 255 255 255 255 
0.320576 0.5 0.210062 255 255 255 255 
0.191439 0.5 0.369362 255 255 255 255 
0.269247 0.5 0.116935 255 255 255 255 
0.433591 0.5 0.182626 255 255 255 255 
0.392382 0.5 0.00901102 255 255 255 255 
0.311949 0.5 0.102546 255 255 255 255 
0.387375 0.5 0.280408 255 255 255 255 
0.421466 0.5 0.223065 255 255 255 255 
0.414895 0.5 0.0121294 255 255 255 255 
0.355993 0.5 0.195877 255 255 255 255 
0.34784 0.5 0.192973 255 255 255 255 
0.356918 0.5 0.412519 255 255 255 255 
0.442478 0.5 0.291053 255 255 255 255 
0.465142 0.5 0.12075 255 255 255 255 
0.373796 0.5 0.443787 255 255 255 255 
0.400922 0.5 0.194372 255 255 255 255 
0.153849 0.5 0.0923607 255 255 255 255 
0.0637337 0.5 0.423097 255 255 255 255 
0.209296 0.5 0.497325 255 255 255 255 
0.105723 0.5 0.101677 255 255 255 255 
0.00633618 0.5 0.417672 255 255 255 255 
0.204223 0.5 0.393711 255 255 255 255 
0.19808 0.5 0.125689 255 255 255 255 
0.116776 0.5 0.112976 255 255 255 255 
0.137819 0.5 0.472769 255 255 255 255 
0.308853 0.5 0.485658 255 255 255 255 
0.165742 0.5 0.165771 255 255 255 255 
0.398178 0.5 0.10822 255 255 255 255 
0.456824 0.5 0.36332 255 255 255 255 
0.22897 0.5 0.330619 255 255 255 255 
0.307107 0.5 0.129892 255 255 255 255 
0.0249912 0.5 0.460956 255 255 255 255 
0.222253 0.5 0.0887249 255 255 255 255 
0.384053 0.5 0.431549 255 255 255 255 
0.0860501 0.5 0.489776 255 255 255 255 
0.0332261 0.5 0.0923863 255 255 255 255 
0.407448 0.5 0.237449 255 255 255 255 
0.486097 0.5 0.105528 255 255 255 255 
0.363138 0.5 0.102874 255 255 255 255 
0.218504 0.5 0.000956684 255 255 255 255 
0.0756428 0.5 0.0273568 255 255 255 255 
0.486615 0.5 0.241385 255 255 255 255 
0.193127 0.5 0.384793 255 255 255 255 
0.349605 0.5 0.149951 255 255 255 255 
0.248113 0.5 0.0785756 255 255 255 255 
0.48057 0.5 0.0552194 255 255 255 255 
0.208468 0.5 0.00556127 255 255 255 255 
0.0161755 0.5 0.430721 255 255 255 255 
0.0942862 0.5 0.400228 255 255 255 255 
0.36227 0.5 0.180336 255 255 255 255 
0.390004 0.5 0.395496 255 255 255 255 
0.272723 0.5 0.297452 255 255 255 255 
0.132945 0.5 0.25882 255 255 255 255 
0.402981 0.5 0.496083 255 255 255 255 
0.361693 0.5 0.121485 255 255 255 255 
0.49704 0.5 0.437336 255 255 255 255 
0.148841 0.5 0.483655 255 255 255 255 
0.178721 0.5 0.341969 255 255 255 255 
0.368448 0.5 0.0283264 255 255 255 255 
0.491919 0.5 0.11656 255 255 255 255 
0.106902 0.5 0.47249 255 255 255 255 
0.17178 0.5 0.31537 255 255 255 255 
0.478051 0.5 0.187955 255 255 255 255 
0.246091 0.5 0.072337 255 255 255 255 
0.0881838 0.5 0.108361 255 255 255 255 
0.252673 0.5 0.478188 255 255 255 255 
0.0038573 0.5 0.0253959 255 255 255 255 
0.275641 0.5 0.136802 255 255 255 255 
0.284216 0.5 0.178621 255 255 255 255 
0.132886 0.5 0.145909 255 255 255 255 
0.234536 0.499521 0.300106 255 255 255 255 
0.375239 0.466368 0.300106 255 255 255 255 
0.450292 0.100391 0.300106 255 255 255 255 
0.285752 0.49743 0.300106 255 255 255 255 
0.00282139 0.212547 0.300106 255 255 255 255 
0.0323237 0.127049 0.300106 255 255 255 255 
0.493652 0.19402 0.300106 255 255 255 255 
0.0313684 0.128755 0.300106 255 255 255 255 
0.0209816 0.149747 0.300106 255 255 255 255 
0.331458 0.486357 0.300106 255 255 255 255 
0.318827 0.00966105 0.300106 255 255 255 255 
0.000559449 0.233284 0.300106 255 255 255 255 
0.00814497 0.186706 0.300106 255 255 255 255 
0.0271556 0.363315 0.300106 255 255 255 255 
0.00543554 0.301848 0.300106 255 255 255 255 
0.466492 0.124975 0.300106 255 255 255 255 
0.467012 0.12588 0.300106 255 255 255 255 
0.0588063 0.0889255 0.300106 255 255 255 255 
0.458506 0.387933 0.300106 255 255 255 255 
0.416462 0.436522 0.300106 255 255 255 255 
0.435676 0.417405 0.300106 255 255 255 255 
0.488057 0.326346 0.300106 255 255 255 255 
0.407229 0.444369 0.300106 255 255 255 255 
0.373778 0.467207 0.300106 255 255 255 255 
0.0483693 0.102199 0.300106 255 255 255 255 
0.0345315 0.376781 0.300106 255 255 255 255 
0.22803 0.000967249 0.300106 255 255 255 255 
0.491311 0.184662 0.300106 255 255 255 255 
0.145158 0.0230459 0.300106 255 255 255 255 
0.496192 0.293468 0.300106 255 255 255 255 
0.0164892 0.16071 0.300106 255 255 255 255 
0.483005 0.159398 0.300106 255 255 255 255 
0.33571 0.484848 0.300106 255 255 255 255 
0.0094838 0.318205 0.300106 255 255 255 255 
0.372992 0.467653 0.300106 255 255 255 255 
0.20044 0.00496161 0.300106 255 255 255 255 
0.492962 0.308901 0.300106 255 255 255 255 
0.418606 0.434586 0.300106 255 255 255 255 
0.174503 0.488328 0.300106 255 255 255 255 
0.0510483 0.0986124 0.300106 255 255 255 255 
0.130425 0.469549 0.300106 255 255 255 255 
0.458333 0.388193 0.300106 255 255 255 255 
0.438384 0.414351 0.300106 255 255 255 255 
0.421264 0.0678777 0.300106 255 255 255 255 
0.00165901 0.221247 0.300106 255 255 255 255 
0.0316263 0.128292 0.300106 255 255 255 255 
0.30723 0.00663874 0.300106 255 255 255 255 
0.0201527 0.348337 0.300106 255 255 255 255 
0.33859 0.483777 0.300106 255 255 255 255 
0.432001 0.0786068 0.300106 255 255 255 255 
0.0235885 0.143991 0.300106 255 255 255 255 
0.159254 0.482949 0.300106 255 255 255 255 
0.475648 0.142375 0.300106 255 255 255 255 
0.190025 0.00730051 0.300106 255 255 255 255 
0.00267777 0.286493 0.300106 255 255 255 255 
0.00438175 0.203399 0.300106 255 255 255 255 
0.424769 0.428762 0.300106 255 255 255 255 
0.308086 0.493158 0.300106 255 255 255 255 
0.000739232 0.269211 0.300106 255 255 255 255 
0.338991 0.0163749 0.300106 255 255 255 255 
0.264923 0.499554 0.300106 255 255 255 255 
0.489682 0.321082 0.300106 255 255 255 255 
0.248273 5.96046e-06 0.300106 255 255 255 255 
0.0206866 0.349576 0.300106 255 255 255 255 
1.7941e-05 0.247005 0.300106 255 255 255 255 
0.466798 0.125507 0.300106 255 255 255 255 
0.393059 0.455023 0.300106 255 255 255 255 
0.00776067 0.188193 0.300106 255 255 255 255 
0.488133 0.32611 0.300106 255 255 255 255 
0.0113477 0.324465 0.300106 255 255 255 255 
0.405349 0.445875 0.300106 255 255 255 255 
0.069261 0.422724 0.300106 255 255 255 255 
0.00996107 0.180134 0.300106 255 255 255 255 
0.238292 0.499726 0.300106 255 255 255 255 
0.252011 0.499992 0.300106 255 255 255 255 
0.48041 0.34701 0.300106 255 255 255 255 
0.381802 0.0375659 0.300106 255 255 255 255 
0.493814 0.305271 0.300106 255 255 255 255 
4.15742e-06 0.251442 0.300106 255 255 255 255 
0.495354 0.297971 0.300106 255 255 255 255 
0.46539 0.123086 0.300106 255 255 255 255 
0.477019 0.354701 0.300106 255 255 255 255 
0.116241 0.461207 0.300106 255 255 255 255 
0.389772 0.0427227 0.300106 255 255 255 255 
0.297182 0.00449273 0.300106 255 255 255 255 
0.351496 0.02153 0.300106 255 255 255 255 
0.0740406 0.42759 0.300106 255 255 255 255 
0.458534 0.11211 0.300106 255 255 255 255 
0.4958 0.295635 0.300106 255 255 255 255 
0.411792 0.0594134 0.300106 255 255 255 255 
0.195371 0.00604159 0.300106 255 255 255 255 
0.219119 0.498085 0.300106 255 255 255 255 
0.459304 0.113281 0.300106 255 255 255 255 
0.00642477 0.306313 0.300106 255 255 255 255 
0.179513 0.0101427 0.300106 255 255 255 255 
0.0390736 0.384201 0.300106 255 255 255 255 
0.0668152 0.420127 0.300106 255 255 255 255 
0.406369 0.0549394 0.300106 255 255 255 255 
0.487557 0.172111 0.300106 255 255 255 255 
0.023717 0.356283 0.300106 255 255 255 255 
0.158829 0.482783 0.300106 255 255 255 255 
0.458642 0.387726 0.300106 255 255 255 255 
0.340162 0.0168246 0.300106 255 255 255 255 
0.402593 0.0519712 0.300106 255 255 255 255 
0.102654 0.451963 0.300106 255 255 255 255 
0.483893 0.338284 0.300106 255 255 255 255 
0.467479 0.126701 0.300106 255 255 255 255 
0.343933 0.481682 0.300106 255 255 255 255 
0.458587 0.38781 0.300106 255 255 255 255 
0.0332353 0.374551 0.300106 255 255 255 255 
0.297732 0.495401 0.300106 255 255 255 255 
0.49967 0.262841 0.300106 255 255 255 255 
0.000998348 0.27232 0.300106 255 255 255 255 
0.0171396 0.159027 0.300106 255 255 255 255 
0.400234 0.0501753 0.300106 255 255 255 255 
0.224925 0.498739 0.300106 255 255 255 255 
0.0723241 0.425873 0.300106 255 255 255 255 
0.286208 0.497364 0.300106 255 255 255 255 
0.366279 0.471312 0.300106 255 255 255 255 
0.0432057 0.390485 0.300106 255 255 255 255 
0.46201 0.382484 0.300106 255 255 255 255 
0.440556 0.0881712 0.300106 255 255 255 255 
0.136135 0.0274359 0.300106 255 255 255 255 
0.499949 0.244975 0.300106 255 255 255 255 
0.100794 0.450593 0.300106 255 255 255 255 
0.0685697 0.421997 0.300106 255 255 255 255 
0.0418139 0.388414 0.300106 255 255 255 255 
0.222824 0.00148146 0.300106 255 255 255 255 
0.270719 0.49914 0.300106 255 255 255 255 
0.0952993 0.446387 0.300106 255 255 255 255 
0.380251 0.463389 0.300106 255 255 255 255 
0.0104619 0.178435 0.300106 255 255 255 255 
0.0127015 0.328673 0.300106 255 255 255 255 
0.496003 0.205474 0.300106 255 255 255 255 
0.0471053 0.396061 0.300106 255 255 255 255 
0.326304 0.0119292 0.300106 255 255 255 255 
0.495877 0.295215 0.300106 255 255 255 255 
0.145535 0.477128 0.300106 255 255 255 255 
0.499297 0.231262 0.300106 255 255 255 255 
0.430223 0.423262 0.300106 255 255 255 255 
0.227421 0.00102173 0.300106 255 255 255 255 
0.315991 0.491133 0.300106 255 255 255 255 
0.421086 0.43229 0.300106 255 255 255 255 
0.294718 0.495968 0.300106 255 255 255 255 
0.276279 0.00138503 0.300106 255 255 255 255 
0.498515 0.222796 0.300106 255 255 255 255 
0.00078699 0.269821 0.300106 255 255 255 255 
0.406222 0.445179 0.300106 255 255 255 255 
0.31291 0.491955 0.300106 255 255 255 255 
0.116541 0.0386033 0.300106 255 255 255 255 
0.011098 0.17634 0.300106 255 255 255 255 
0.17513 0.488526 0.300106 255 255 255 255 
0.0114338 0.175259 0.300106 255 255 255 255 
0.293234 0.496233 0.300106 255 255 255 255 
0.179939 0.489982 0.300106 255 255 255 255 
0.452352 0.103189 0.300106 255 255 255 255 
0.0492185 0.101048 0.300106 255 255 255 255 
0.175475 0.0113665 0.300106 255 255 255 255 
0.0820623 0.0648057 0.300106 255 255 255 255 
0.3818 0.0375646 0.300106 255 255 255 255 
0.483574 0.339124 0.300106 255 255 255 255 
0.320578 0.0101692 0.300106 255 255 255 255 
0.0629042 0.415817 0.300106 255 255 255 255 
0.000246197 0.238908 0.300106 255 255 255 255 
0.276734 0.00143352 0.300106 255 255 255 255 
0.304966 0.00611733 0.300106 255 255 255 255 
0.163208 0.484451 0.300106 255 255 255 255 
0.321249 0.0103678 0.300106 255 255 255 255 
0.448602 0.401846 0.300106 255 255 255 255 
0.181025 0.490297 0.300106 255 255 255 255 
0.46744 0.12663 0.300106 255 255 255 255 
0.383288 0.0384952 0.300106 255 255 255 255 
1.92076e-05 0.246901 0.300106 255 255 255 255 
0.488759 0.324121 0.300106 255 255 255 255 
0.481935 0.343307 0.300106 255 255 255 255 
0.220641 0.49827 0.300106 255 255 255 255 
0.495407 0.2977 0.300106 255 255 255 255 
0.0113973 0.175376 0.300106 255 255 255 255 
0.0378258 0.38222 0.300106 255 255 255 255 
0.265589 0.499514 0.300106 255 255 255 255 
0.314274 0.491596 0.300106 255 255 255 255 
0.491713 0.186165 0.300106 255 255 255 255 
0.00727005 0.190149 0.300106 255 255 255 255 
0.260894 0.00023748 0.300106 255 255 255 255 
0.354674 0.477032 0.300106 255 255 255 255 
0.375476 0.0337692 0.300106 255 255 255 255 
0.112146 0.0414424 0.300106 255 255 255 255 
0.301201 0.00529923 0.300106 255 255 255 255 
0.00619571 0.194688 0.300106 255 255 255 255 
0.188109 0.492218 0.300106 255 255 255 255 
0.0690606 0.0774864 0.300106 255 255 255 255 
0.041933 0.111407 0.300106 255 255 255 255 
0.464893 0.377754 0.300106 255 255 255 255 
0.499834 0.259095 0.300106 255 255 255 255 
0.451713 0.397689 0.300106 255 255 255 255 
0.400001 0.050001 0.300106 255 255 255 255 
0.313802 0.00827849 0.300106 255 255 255 255 
0.0414691 0.387894 0.300106 255 255 255 255 
0.101045 0.0492206 0.300106 255 255 255 255 
0.447503 0.0967266 0.300106 255 255 255 255 
0.174991 0.011518 0.300106 255 255 255 255 
0.0213648 0.148877 0.300106 255 255 255 255 
0.225627 0.00119095 0.300106 255 255 255 255 
0.322047 0.489393 0.300106 255 255 255 255 
0.0616263 0.0856366 0.300106 255 255 255 255 
0.32025 0.0100731 0.300106 255 255 255 255 
0.00380217 0.293435 0.300106 255 255 255 255 
0.0964475 0.0527144 0.300106 255 255 255 255 
0.111335 0.458019 0.300106 255 255 255 255 
0.435975 0.0829276 0.300106 255 255 255 255 
0.437327 0.0844443 0.300106 255 255 255 255 
0.0133229 0.169477 0.300106 255 255 255 255 
0.38715 0.0409788 0.300106 255 255 255 255 
0.0284859 0.365894 0.300106 255 255 255 255 
0.15924 0.482943 0.300106 255 255 255 255 
0.497242 0.287033 0.300106 255 255 255 255 
0.239061 0.499761 0.300106 255 255 255 255 
0.494375 0.197266 0.300106 255 255 255 255 
0.336884 0.0155834 0.300106 255 255 255 255 
0.315928 0.00884952 0.300106 255 255 255 255 
0.240594 0.499823 0.300106 255 255 255 255 
0.0253567 0.359706 0.300106 255 255 255 255 
0.061443 0.414153 0.300106 255 255 255 255 
0.114251 0.459934 0.300106 255 255 255 255 
0.0215142 0.35146 0.300106 255 255 255 255 
0.000888333 0.271057 0.300106 255 255 255 255 
0.336496 0.48456 0.300106 255 255 255 255 
0.289789 0.496813 0.300106 255 255 255 255 
0.446176 0.0950318 0.300106 255 255 255 255 
0.386843 0.0407779 0.300106 255 255 255 255 
0.432753 0.420591 0.300106 255 255 255 255 
0.043312 0.109358 0.300106 255 255 255 255 
0.0402222 0.38599 0.300106 255 255 255 255 
0.401961 0.0514858 0.300106 255 255 255 255 
0.32511 0.0115497 0.300106 255 255 255 255 
0.497474 0.285452 0.300106 255 255 255 255 
0.102186 0.0483793 0.300106 255 255 255 255 
0.217461 0.497873 0.300106 255 255 255 255 
0.125976 0.0329333 0.300106 255 255 255 255 
0.499751 0.238838 0.300106 255 255 255 255 
0.391446 0.456139 0.300106 255 255 255 255 
0.0133211 0.169482 0.300106 255 255 255 255 
0.00996375 0.180124 0.300106 255 255 255 255 
0.499946 0.244827 0.300106 255 255 255 255 
0.497037 0.211624 0.300106 255 255 255 255 
0.402251 0.0517083 0.300106 255 255 255 255 
0.497955 0.28191 0.300106 255 255 255 255 
0.277529 0.49848 0.300106 255 255 255 255 
0.356999 0.0240547 0.300106 255 255 255 255 
0.366094 0.0285905 0.300106 255 255 255 255 
0.496944 0.288972 0.300106 255 255 255 255 
0.471759 0.365424 0.300106 255 255 255 255 
0.242841 0.499897 0.300106 255 255 255 255 
0.0381587 0.382753 0.300106 255 255 255 255 
0.0326596 0.373544 0.300106 255 255 255 255 
0.155125 0.0187023 0.300106 255 255 255 255 
0.449907 0.0998765 0.300106 255 255 255 255 
0.0588897 0.0888267 0.300106 255 255 255 255 
0.463249 0.119521 0.300106 255 255 255 255 
0.31381 0.00828065 0.300106 255 255 255 255 
0.0105072 0.321716 0.300106 255 255 255 255 
0.494922 0.300132 0.300106 255 255 255 255 
0.0612615 0.413944 0.300106 255 255 255 255 
0.411951 0.0595478 0.300106 255 255 255 255 
0.438682 0.0859903 0.300106 255 255 255 255 
0.349666 0.479274 0.300106 255 255 255 255 
0.437321 0.084438 0.300106 255 255 255 255 
0.00616945 0.194803 0.300106 255 255 255 255 
0.00970404 0.318977 0.300106 255 255 255 255 
0.0133184 0.16949 0.300106 255 255 255 255 
0.00394818 0.205745 0.300106 255 255 255 255 
0.0571694 0.0908888 0.300106 255 255 255 255 
0.44814 0.402448 0.300106 255 255 255 255 
0.473876 0.361263 0.300106 255 255 255 255 
0.0539184 0.0949129 0.300106 255 255 255 255 
0.469193 0.370226 0.300106 255 255 255 255 
0.474592 0.140189 0.300106 255 255 255 255 
0.0753172 0.0711539 0.300106 255 255 255 255 
0.154642 0.481099 0.300106 255 255 255 255 
0.246879 1.94907e-05 0.300106 255 255 255 255 
0.0104885 0.321654 0.300106 255 255 255 255 
0.119782 0.463409 0.300106 255 255 255 255 
0.362647 0.0268168 0.300106 255 255 255 255 
0.185235 0.0085348 0.300106 255 255 255 255 
0.24702 1.77622e-05 0.300106 255 255 255 255 
0.262361 0.499694 0.300106 255 255 255 255 
0.0511772 0.401557 0.300106 255 255 255 255 
0.0975043 0.0518963 0.300106 255 255 255 255 
0.401527 0.0511543 0.300106 255 255 255 255 
0.159504 0.483046 0.300106 255 255 255 255 
0.0195349 0.34688 0.300106 255 255 255 255 
0.161883 0.483956 0.300106 255 255 255 255 
0.114611 0.460166 0.300106 255 255 255 255 
0.360459 0.0257259 0.300106 255 255 255 255 
0.371148 0.468685 0.300106 255 255 255 255 
0.285695 0.497439 0.300106 255 255 255 255 
0.499717 0.261891 0.300106 255 255 255 255 
0.485598 0.333628 0.300106 255 255 255 255 
0.269817 0.000786662 0.300106 255 255 255 255 
0.00669515 0.30747 0.300106 255 255 255 255 
0.0538847 0.0949556 0.300106 255 255 255 255 
0.18638 0.49177 0.300106 255 255 255 255 
0.474243 0.360522 0.300106 255 255 255 255 
0.189112 0.00752816 0.300106 255 255 255 255 
0.085428 0.438192 0.300106 255 255 255 255 
0.142683 0.0242057 0.300106 255 255 255 255 
0.313221 0.00812574 0.300106 255 255 255 255 
0.184816 0.491353 0.300106 255 255 255 255 
0.163456 0.484542 0.300106 255 255 255 255 
0.449473 0.4007 0.300106 255 255 255 255 
0.492148 0.312165 0.300106 255 255 255 255 
0.26569 0.000492811 0.300106 255 255 255 255 
0.0174574 0.341782 0.300106 255 255 255 255 
0.414605 0.0618377 0.300106 255 255 255 255 
0.0049462 0.299484 0.300106 255 255 255 255 
0.344547 0.481432 0.300106 255 255 255 255 
0.446071 0.4051 0.300106 255 255 255 255 
0.414891 0.0620877 0.300106 255 255 255 255 
0.375718 0.0339097 0.300106 255 255 255 255 
0.492204 0.188056 0.300106 255 255 255 255 
0.365482 0.47173 0.300106 255 255 255 255 
0.217845 0.497924 0.300106 255 255 255 255 
0.2226 0.498494 0.300106 255 255 255 255 
0.00106008 0.227002 0.300106 255 255 255 255 
0.458204 0.388387 0.300106 255 255 255 255 
0.0193542 0.34645 0.300106 255 255 255 255 
0.237219 0.000326931 0.300106 255 255 255 255 
0.451386 0.398133 0.300106 255 255 255 255 
0.000377849 0.26374 0.300106 255 255 255 255 
9.94354e-05 0.24295 0.300106 255 255 255 255 
0.0199542 0.152128 0.300106 255 255 255 255 
0.45434 0.394032 0.300106 255 255 255 255 
0.320412 0.0101206 0.300106 255 255 255 255 
0.0869238 0.0605108 0.300106 255 255 255 255 
0.339927 0.0167337 0.300106 255 255 255 255 
0.384221 0.460914 0.300106 255 255 255 255 
0.148861 0.478628 0.300106 255 255 255 255 
0.0470565 0.104007 0.300106 255 255 255 255 
0.0113854 0.324586 0.300106 255 255 255 255 
0.0705196 0.075969 0.300106 255 255 255 255 
0.176077 0.0111791 0.300106 255 255 255 255 
0.000333518 0.262909 0.300106 255 255 255 255 
0.0650481 0.418205 0.300106 255 255 255 255 
0.406439 0.445005 0.300106 255 255 255 255 
0.0953301 0.446411 0.300106 255 255 255 255 
0.397999 0.0485148 0.300106 255 255 255 255 
0.128642 0.468569 0.300106 255 255 255 255 
0.00684121 0.308084 0.300106 255 255 255 255 
0.196169 0.00586443 0.300106 255 255 255 255 
0.377895 0.464809 0.300106 255 255 255 255 
0.0288155 0.366522 0.300106 255 255 255 255 
0.441662 0.0894833 0.300106 255 255 255 255 
0.0205254 0.349204 0.300106 255 255 255 255 
0.158422 0.017377 0.300106 255 255 255 255 
0.0443841 0.392204 0.300106 255 255 255 255 
0.00397548 0.205594 0.300106 255 255 255 255 
0.424234 0.429283 0.300106 255 255 255 255 
0.40253 0.448077 0.300106 255 255 255 255 
0.0781283 0.0684508 0.300106 255 255 255 255 
0.0661762 0.0805633 0.300106 255 255 255 255 
0.337079 0.484344 0.325025 255 255 255 255 
0.197367 0.00560328 0.325025 255 255 255 255 
0.0145203 0.33396 0.325025 255 255 255 255 
0.370821 0.0311338 0.325025 255 255 255 255 
0.00302942 0.211199 0.325025 255 255 255 255 
0.052741 0.0964133 0.325025 255 255 255 255 
0.401277 0.449036 0.325025 255 255 255 255 
0.427825 0.425722 0.325025 255 255 255 255 
0.484097 0.337741 0.325025 255 255 255 255 
0.279948 0.00180028 0.325025 255 255 255 255 
0.365282 0.0281668 0.325025 255 255 255 255 
0.0116844 0.174464 0.325025 255 255 255 255 
0.394837 0.45377 0.325025 255 255 255 255 
0.495173 0.201109 0.325025 255 255 255 255 
0.456785 0.109501 0.325025 255 255 255 255 
0.49997 0.253901 0.325025 255 255 255 255 
0.173729 0.488081 0.325025 255 255 255 255 
0.0815164 0.434698 0.325025 255 255 255 255 
0.199984 0.00505424 0.325025 255 255 255 255 
0.00641312 0.306262 0.325025 255 255 255 255 
0.312978 0.00806254 0.325025 255 255 255 255 
0.054384 0.0943261 0.325025 255 255 255 255 
0.451262 0.101698 0.325025 255 255 255 255 
0.0018094 0.280024 0.325025 255 255 255 255 
0.499437 0.266766 0.325025 255 255 255 255 
0.0255959 0.360194 0.325025 255 255 255 255 
0.0554961 0.0929388 0.325025 255 255 255 255 
0.388903 0.45786 0.325025 255 255 255 255 
0.484298 0.337205 0.325025 255 255 255 255 
0.28657 0.497311 0.325025 255 255 255 255 
0.33659 0.0154745 0.325025 255 255 255 255 
0.249866 0.5 0.325025 255 255 255 255 
0.484069 0.162183 0.325025 255 255 255 255 
0.247203 0.499984 0.325025 255 255 255 255 
0.468801 0.370938 0.325025 255 255 255 255 
0.00513808 0.300425 0.325025 255 255 255 255 
0.405784 0.054472 0.325025 255 255 255 255 
0.286115 0.497378 0.325025 255 255 255 255 
0.0403864 0.113757 0.325025 255 255 255 255 
0.464498 0.121584 0.325025 255 255 255 255 
0.499923 0.243779 0.325025 255 255 255 255 
0.0324481 0.373171 0.325025 255 255 255 255 
0.00672702 0.307604 0.325025 255 255 255 255 
0.399863 0.450103 0.325025 255 255 255 255 
0.0607363 0.413338 0.325025 255 255 255 255 
0.0811522 0.434365 0.325025 255 255 255 255 
0.396723 0.452416 0.325025 255 255 255 255 
0.152191 0.0199275 0.325025 255 255 255 255 
0.227585 0.00100687 0.325025 255 255 255 255 
0.41897 0.0657475 0.325025 255 255 255 255 
0.397078 0.452159 0.325025 255 255 255 255 
0.00339037 0.208967 0.325025 255 255 255 255 
0.00305346 0.288954 0.325025 255 255 255 255 
0.488327 0.3255 0.325025 255 255 255 255 
0.499753 0.261119 0.325025 255 255 255 255 
0.000996992 0.272305 0.325025 255 255 255 255 
0.00279503 0.287279 0.325025 255 255 255 255 
0.0626742 0.0844433 0.325025 255 255 255 255 
0.0931057 0.0553614 0.325025 255 255 255 255 
0.00531837 0.198708 0.325025 255 255 255 255 
0.386374 0.0404714 0.325025 255 255 255 255 
0.0130674 0.329768 0.325025 255 255 255 255 
0.301423 0.00534584 0.325025 255 255 255 255 
0.304082 0.00591987 0.325025 255 255 255 255 
0.172888 0.0121896 0.325025 255 255 255 255 
0.413358 0.0607533 0.325025 255 255 255 255 
0.24626 0.499972 0.325025 255 255 255 255 
0.0159544 0.162121 0.325025 255 255 255 255 
0.46086 0.384305 0.325025 255 255 255 255 
0.389364 0.0424481 0.325025 255 255 255 255 
0.00405072 0.294821 0.325025 255 255 255 255 
0.464137 0.379017 0.325025 255 255 255 255 
0.230982 0.499276 0.325025 255 255 255 255 
0.479004 0.149714 0.325025 255 255 255 255 
0.275098 0.498737 0.325025 255 255 255 255 
0.101533 0.0488594 0.325025 255 255 255 255 
0.16929 0.486613 0.325025 255 255 255 255 
0.0633363 0.416303 0.325025 255 255 255 255 
0.122978 0.465326 0.325025 255 255 255 255 
0.492897 0.30917 0.325025 255 255 255 255 
0.246404 0.499974 0.325025 255 255 255 255 
0.00115123 0.273964 0.325025 255 255 255 255 
0.0201089 0.151765 0.325025 255 255 255 255 
0.214602 0.00251877 0.325025 255 255 255 255 
0.00553331 0.197693 0.325025 255 255 255 255 
0.0247056 0.141637 0.325025 255 255 255 255 
0.307337 0.493336 0.325025 255 255 255 255 
0.499533 0.265269 0.325025 255 255 255 255 
0.347053 0.480392 0.325025 255 255 255 255 
0.403467 0.0526478 0.325025 255 255 255 255 
0.00890781 0.18386 0.325025 255 255 255 255 
0.496037 0.294336 0.325025 255 255 255 255 
0.167524 0.486004 0.325025 255 255 255 255 
0.135683 0.472332 0.325025 255 255 255 255 
0.346511 0.0193801 0.325025 255 255 255 255 
0.499936 0.25566 0.325025 255 255 255 255 
0.343604 0.481815 0.325025 255 255 255 255 
0.47915 0.349951 0.325025 255 255 255 255 
0.0180038 0.156845 0.325025 255 255 255 255 
0.204413 0.495809 0.325025 255 255 255 255 
0.460721 0.115476 0.325025 255 255 255 255 
0.494938 0.300052 0.325025 255 255 255 255 
0.0840991 0.437021 0.325025 255 255 255 255 
0.368105 0.470343 0.325025 255 255 255 255 
0.494445 0.197592 0.325025 255 255 255 255 
0.0472683 0.103713 0.325025 255 255 255 255 
0.357141 0.0241223 0.325025 255 255 255 255 
0.220685 0.498275 0.325025 255 255 255 255 
0.498682 0.224366 0.325025 255 255 255 255 
0.390112 0.457047 0.325025 255 255 255 255 
0.162755 0.484283 0.325025 255 255 255 255 
0.272054 0.499025 0.325025 255 255 255 255 
0.0906858 0.0573372 0.325025 255 255 255 255 
0.422286 0.0688439 0.325025 255 255 255 255 
0.493394 0.192908 0.325025 255 255 255 255 
0.365477 0.471732 0.325025 255 255 255 255 
0.0162176 0.338576 0.325025 255 255 255 255 
0.361392 0.473812 0.325025 255 255 255 255 
0.35172 0.478371 0.325025 255 255 255 255 
0.0776134 0.0689397 0.325025 255 255 255 255 
0.495059 0.299457 0.325025 255 255 255 255 
0.212323 0.00285545 0.325025 255 255 255 255 
0.112456 0.0412377 0.325025 255 255 255 255 
0.122466 0.465024 0.325025 255 255 255 255 
0.487021 0.329504 0.325025 255 255 255 255 
0.00432284 0.29629 0.325025 255 255 255 255 
0.117631 0.462081 0.325025 255 255 255 255 
0.265024 0.499548 0.325025 255 255 255 255 
0.00630528 0.194207 0.325025 255 255 255 255 
0.451862 0.102515 0.325025 255 255 255 255 
0.00189611 0.219268 0.325025 255 255 255 255 
0.0145718 0.334104 0.325025 255 255 255 255 
0.477302 0.145915 0.325025 255 255 255 255 
0.437633 0.0847913 0.325025 255 255 255 255 
0.0646518 0.0822322 0.325025 255 255 255 255 
0.450432 0.100578 0.325025 255 255 255 255 
0.00117201 0.274179 0.325025 255 255 255 255 
0.0189862 0.345565 0.325025 255 255 255 255 
0.374888 0.466571 0.325025 255 255 255 255 
0.00496265 0.299565 0.325025 255 255 255 255 
0.0413828 0.112236 0.325025 255 255 255 255 
0.00346145 0.291458 0.325025 255 255 255 255 
0.179012 0.0102905 0.325025 255 255 255 255 
0.276775 0.498562 0.325025 255 255 255 255 
0.110141 0.457218 0.325025 255 255 255 255 
0.126145 0.0328364 0.325025 255 255 255 255 
0.0419112 0.388561 0.325025 255 255 255 255 
0.307368 0.00667118 0.325025 255 255 255 255 
0.389229 0.0423578 0.325025 255 255 255 255 
0.0387604 0.116292 0.325025 255 255 255 255 
0.0342133 0.376238 0.325025 255 255 255 255 
0.427555 0.0740046 0.325025 255 255 255 255 
0.149655 0.478978 0.325025 255 255 255 255 
0.474136 0.360739 0.325025 255 255 255 255 
0.310796 0.492495 0.325025 255 255 255 255 
0.0820456 0.435179 0.325025 255 255 255 255 
0.00923559 0.182676 0.325025 255 255 255 255 
0.0120953 0.17318 0.325025 255 255 255 255 
0.0550622 0.0934776 0.325025 255 255 255 255 
0.469667 0.369358 0.325025 255 255 255 255 
0.0125852 0.328321 0.325025 255 255 255 255 
0.424218 0.429299 0.325025 255 255 255 255 
0.00298245 0.211499 0.325025 255 255 255 255 
0.0667485 0.420056 0.325025 255 255 255 255 
0.499243 0.26944 0.325025 255 255 255 255 
0.4073 0.444311 0.325025 255 255 255 255 
0.204722 0.495866 0.325025 255 255 255 255 
4.52697e-05 0.254757 0.325025 255 255 255 255 
0.030369 0.130575 0.325025 255 255 255 255 
0.0143918 0.333599 0.325025 255 255 255 255 
0.49405 0.195781 0.325025 255 255 255 255 
0.367466 0.470685 0.325025 255 255 255 255 
0.468483 0.128488 0.325025 255 255 255 255 
0.128714 0.0313913 0.325025 255 255 255 255 
0.0431649 0.390425 0.325025 255 255 255 255 
0.228491 0.499073 0.325025 255 255 255 255 
0.120192 0.463658 0.325025 255 255 255 255 
0.34433 0.0184795 0.325025 255 255 255 255 
0.487491 0.32809 0.325025 255 255 255 255 
0.355166 0.476804 0.325025 255 255 255 255 
0.04647 0.395174 0.325025 255 255 255 255 
0.00557853 0.302518 0.325025 255 255 255 255 
0.484357 0.337046 0.325025 255 255 255 255 
0.198726 0.00531445 0.325025 255 255 255 255 
0.00760245 0.188816 0.325025 255 255 255 255 
0.222559 0.498489 0.325025 255 255 255 255 
0.465689 0.376405 0.325025 255 255 255 255 
0.466966 0.3742 0.325025 255 255 255 255 
0.35247 0.021965 0.325025 255 255 255 255 
0.160957 0.016395 0.325025 255 255 255 255 
0.381345 0.462717 0.325025 255 255 255 255 
0.224129 0.498658 0.325025 255 255 255 255 
0.355489 0.0233457 0.325025 255 255 255 255 
0.152982 0.0195929 0.325025 255 255 255 255 
0.0998213 0.0501341 0.325025 255 255 255 255 
0.372794 0.0322347 0.325025 255 255 255 255 
0.368038 0.029621 0.325025 255 255 255 255 
0.47376 0.138503 0.325025 255 255 255 255 
0.131372 0.470062 0.325025 255 255 255 255 
0.0410257 0.387222 0.325025 255 255 255 255 
0.0764053 0.429902 0.325025 255 255 255 255 
0.181922 0.490552 0.325025 255 255 255 255 
0.03068 0.130005 0.325025 255 255 255 255 
0.185732 0.491598 0.325025 255 255 255 255 
0.493375 0.192828 0.325025 255 255 255 255 
0.498853 0.226084 0.325025 255 255 255 255 
0.0148273 0.165184 0.325025 255 255 255 255 
0.172493 0.487682 0.325025 255 255 255 255 
0.32175 0.0105173 0.325025 255 255 255 255 
0.0530879 0.0959687 0.325025 255 255 255 255 
0.0017667 0.279669 0.325025 255 255 255 255 
0.330654 0.486633 0.325025 255 255 255 255 
0.474876 0.359228 0.325025 255 255 255 255 
0.00696944 0.191381 0.325025 255 255 255 255 
0.465061 0.122529 0.325025 255 255 255 255 
0.0586946 0.0890582 0.325025 255 255 255 255 
0.33494 0.0148721 0.325025 255 255 255 255 
0.499997 0.248762 0.325025 255 255 255 255 
0.163929 0.0152838 0.325025 255 255 255 255 
0.0703457 0.0761485 0.325025 255 255 255 255 
0.159801 0.0168387 0.325025 255 255 255 255 
0.404493 0.0534496 0.325025 255 255 255 255 
0.44151 0.0893013 0.325025 255 255 255 255 
0.000552252 0.233392 0.325025 255 255 255 255 
0.00889917 0.183891 0.325025 255 255 255 255 
0.00648464 0.193429 0.325025 255 255 255 255 
0.113011 0.459127 0.325025 255 255 255 255 
0.0778873 0.431321 0.325025 255 255 255 255 
0.00681427 0.307972 0.325025 255 255 255 255 
0.130919 0.0301827 0.325025 255 255 255 255 
0.294344 0.00396423 0.325025 255 255 255 255 
0.377146 0.034747 0.325025 255 255 255 255 
0.493938 0.195278 0.325025 255 255 255 255 
0.0930059 0.444558 0.325025 255 255 255 255 
0.425333 0.428209 0.325025 255 255 255 255 
0.474959 0.140942 0.325025 255 255 255 255 
0.112338 0.458684 0.325025 255 255 255 255 
0.145526 0.0228763 0.325025 255 255 255 255 
0.283941 0.497685 0.325025 255 255 255 255 
0.410396 0.441763 0.325025 255 255 255 255 
0.192352 0.493263 0.325025 255 255 255 255 
0.186905 0.00809297 0.325025 255 255 255 255 
0.120237 0.463686 0.325025 255 255 255 255 
0.0918606 0.443628 0.325025 255 255 255 255 
0.254615 0.499957 0.325025 255 255 255 255 
0.247327 0.499986 0.325025 255 255 255 255 
0.495663 0.203636 0.325025 255 255 255 255 
0.486656 0.330585 0.325025 255 255 255 255 
0.248565 0.499996 0.325025 255 255 255 255 
0.121892 0.0353179 0.325025 255 255 255 255 
0.135975 0.0275181 0.325025 255 255 255 255 
0.483675 0.161141 0.325025 255 255 255 255 
0.00204986 0.218051 0.325025 255 255 255 255 
0.0196419 0.152865 0.325025 255 255 255 255 
0.010938 0.323139 0.325025 255 255 255 255 
0.480676 0.346378 0.325025 255 255 255 255 
0.452403 0.396742 0.325025 255 255 255 255 
0.319814 0.00994569 0.325025 255 255 255 255 
0.0212896 0.350953 0.325025 255 255 255 255 
0.0190867 0.154193 0.325025 255 255 255 255 
0.00567366 0.302959 0.325025 255 255 255 255 
0.308785 0.49299 0.325025 255 255 255 255 
0.0500697 0.400093 0.325025 255 255 255 255 
0.0231906 0.355155 0.325025 255 255 255 255 
0.0239816 0.143156 0.325025 255 255 255 255 
0.00279106 0.212748 0.325025 255 255 255 255 
0.0917807 0.443563 0.325025 255 255 255 255 
0.463643 0.120167 0.325025 255 255 255 255 
0.319464 0.490156 0.325025 255 255 255 255 
0.0367486 0.119524 0.325025 255 255 255 255 
0.486659 0.330577 0.325025 255 255 255 255 
0.000298545 0.262214 0.325025 255 255 255 255 
0.177569 0.489277 0.325025 255 255 255 255 
0.0582892 0.410459 0.325025 255 255 255 255 
0.398491 0.0488768 0.325025 255 255 255 255 
0.00942621 0.181998 0.325025 255 255 255 255 
0.0916 0.0565848 0.325025 255 255 255 255 
0.358615 0.0248274 0.325025 255 255 255 255 
0.044187 0.108081 0.325025 255 255 255 255 
0.444321 0.0927127 0.325025 255 255 255 255 
0.00097999 0.272114 0.325025 255 255 255 255 
0.217574 0.497888 0.325025 255 255 255 255 
0.375726 0.0339147 0.325025 255 255 255 255 
0.499804 0.259891 0.325025 255 255 255 255 
0.376193 0.0341866 0.325025 255 255 255 255 
0.192992 0.493413 0.325025 255 255 255 255 
0.476682 0.355429 0.325025 255 255 255 255 
0.478842 0.149346 0.325025 255 255 255 255 
0.46781 0.372714 0.325025 255 255 255 255 
4.82947e-05 0.245086 0.325025 255 255 255 255 
5.55664e-05 0.255271 0.325025 255 255 255 255 
0.0111379 0.17621 0.325025 255 255 255 255 
0.196003 0.00590105 0.325025 255 255 255 255 
0.446722 0.0957255 0.325025 255 255 255 255 
0.497742 0.216475 0.325025 255 255 255 255 
0.194495 0.493761 0.325025 255 255 255 255 
0.0324862 0.373239 0.325025 255 255 255 255 
0.119167 0.463032 0.325025 255 255 255 255 
0.329159 0.487137 0.325025 255 255 255 255 
0.0711767 0.0752938 0.325025 255 255 255 255 
0.472783 0.136565 0.325025 255 255 255 255 
0.248504 0.499996 0.325025 255 255 255 255 
0.437145 0.415761 0.325025 255 255 255 255 
0.294024 0.496093 0.325025 255 255 255 255 
0.0906914 0.0573325 0.325025 255 255 255 255 
0.494511 0.197899 0.325025 255 255 255 255 
0.274575 0.00121079 0.325025 255 255 255 255 
0.201879 0.495325 0.325025 255 255 255 255 
0.309304 0.00713566 0.325025 255 255 255 255 
0.0885368 0.440866 0.325025 255 255 255 255 
0.366942 0.470963 0.325025 255 255 255 255 
0.212412 0.497158 0.325025 255 255 255 255 
0.0816891 0.0651448 0.325025 255 255 255 255 
0.499798 0.260045 0.325025 255 255 255 255 
0.202663 0.495477 0.325025 255 255 255 255 
0.00546472 0.301986 0.325025 255 255 255 255 
0.183257 0.490926 0.325025 255 255 255 255 
0.103556 0.452618 0.325025 255 255 255 255 
0.0470904 0.39604 0.325025 255 255 255 255 
0.0735906 0.427143 0.325025 255 255 255 255 
0.400398 0.050299 0.325025 255 255 255 255 
0.449786 0.0997146 0.325025 255 255 255 255 
0.470835 0.132817 0.325025 255 255 255 255 
0.0225285 0.146285 0.325025 255 255 255 255 
0.314468 0.00845516 0.325025 255 255 255 255 
0.453126 0.104262 0.325025 255 255 255 255 
0.401629 0.0512323 0.325025 255 255 255 255 
0.31298 0.491937 0.325025 255 255 255 255 
0.267885 0.499359 0.325025 255 255 255 255 
0.486552 0.33089 0.325025 255 255 255 255 
0.374022 0.0329321 0.325025 255 255 255 255 
0.379082 0.464097 0.325025 255 255 255 255 
0.167696 0.486064 0.325025 255 255 255 255 
0.486766 0.169739 0.325025 255 255 255 255 
0.0619791 0.414767 0.325025 255 255 255 255 
0.484374 0.163001 0.325025 255 255 255 255 
0.464841 0.122159 0.325025 255 255 255 255 
0.395486 0.453307 0.325025 255 255 255 255 
0.290258 0.496737 0.325025 255 255 255 255 
0.176771 0.0109655 0.325025 255 255 255 255 
0.000820085 0.229767 0.325025 255 255 255 255 
0.0507525 0.400998 0.325025 255 255 255 255 
0.497327 0.213543 0.325025 255 255 255 255 
0.402798 0.44787 0.325025 255 255 255 255 
0.0448461 0.39287 0.325025 255 255 255 255 
0.238967 0.499756 0.325025 255 255 255 255 
0.0593962 0.0882279 0.325025 255 255 255 255 
0.167086 0.01415 0.325025 255 255 255 255 
0.0540419 0.0947569 0.325025 255 255 255 255 
0.499202 0.269957 0.325025 255 255 255 255 
0.475624 0.357674 0.325025 255 255 255 255 
0.00810447 0.313139 0.325025 255 255 255 255 
0.461145 0.116143 0.325025 255 255 255 255 
0.499773 0.239356 0.325025 255 255 255 255 
0.496291 0.292903 0.325025 255 255 255 255 
0.175119 0.0114779 0.325025 255 255 255 255 
0.446737 0.0957454 0.325025 255 255 255 255 
0.433491 0.0802026 0.325025 255 255 255 255 
0.461965 0.117445 0.325025 255 255 255 255 
0.417934 0.435198 0.325025 255 255 255 255 
0.24006 0.000197694 0.466803 255 255 255 255 
0.178108 0.48944 0.466803 255 255 255 255 
0.270401 0.499166 0.466803 255 255 255 255 
0.160389 0.0166122 0.466803 255 255 255 255 
0.146262 0.0225392 0.466803 255 255 255 255 
0.355835 0.476493 0.466803 255 255 255 255 
0.0536451 0.0952591 0.466803 255 255 255 255 
0.374608 0.0332676 0.466803 255 255 255 255 
0.0435059 0.390926 0.466803 255 255 255 255 
0.159562 0.483069 0.466803 255 255 255 255 
0.108261 0.455937 0.466803 255 255 255 255 
0.329455 0.0129623 0.466803 255 255 255 255 
0.194517 0.493766 0.466803 255 255 255 255 
0.00037472 0.263683 0.466803 255 255 255 255 
0.32026 0.489924 0.466803 255 255 255 255 
0.00892058 0.183813 0.466803 255 255 255 255 
0.449172 0.401098 0.466803 255 255 255 255 
0.453042 0.104144 0.466803 255 255 255 255 
0.397866 0.451583 0.466803 255 255 255 255 
0.436474 0.416515 0.466803 255 255 255 255 
0.496064 0.205815 0.466803 255 255 255 255 
0.0560168 0.0922961 0.466803 255 255 255 255 
0.49665 0.290792 0.466803 255 255 255 255 
0.49396 0.195378 0.466803 255 255 255 255 
0.0859585 0.0613458 0.466803 255 255 255 255 
0.215041 0.00245632 0.466803 255 255 255 255 
0.408281 0.0564876 0.466803 255 255 255 255 
0.00146769 0.22295 0.466803 255 255 255 255 
0.0891072 0.0586534 0.466803 255 255 255 255 
0.499675 0.237264 0.466803 255 255 255 255 
0.0118221 0.325969 0.466803 255 255 255 255 
0.0652018 0.418373 0.466803 255 255 255 255 
0.190399 0.492791 0.466803 255 255 255 255 
0.154848 0.0188159 0.466803 255 255 255 255 
0.473425 0.362166 0.466803 255 255 255 255 
0.495634 0.203481 0.466803 255 255 255 255 
0.419165 0.0659259 0.466803 255 255 255 255 
0.143944 0.0236106 0.466803 255 255 255 255 
0.332103 0.0138663 0.466803 255 255 255 255 
0.214037 0.4974 0.466803 255 255 255 255 
0.499423 0.233024 0.466803 255 255 255 255 
0.397966 0.45151 0.466803 255 255 255 255 
0.473143 0.362727 0.466803 255 255 255 255 
0.211198 0.49697 0.466803 255 255 255 255 
0.0912272 0.0568907 0.466803 255 255 255 255 
0.204528 0.49583 0.466803 255 255 255 255 
0.352802 0.0221148 0.466803 255 255 255 255 
0.240221 0.000191346 0.466803 255 255 255 255 
0.356492 0.476184 0.466803 255 255 255 255 
0.494555 0.198108 0.466803 255 255 255 255 
0.409093 0.0571547 0.466803 255 255 255 255 
0.394792 0.453802 0.466803 255 255 255 255 
0.0275071 0.135996 0.466803 255 255 255 255 
0.438427 0.085698 0.466803 255 255 255 255 
0.435822 0.417243 0.466803 255 255 255 255 
0.309963 0.492702 0.466803 255 255 255 255 
0.0609635 0.0863993 0.466803 255 255 255 255 
0.497103 0.212051 0.466803 255 255 255 255 
0.216649 0.00223453 0.466803 255 255 255 255 
0.246441 0.499975 0.466803 255 255 255 255 
0.494849 0.199512 0.466803 255 255 255 255 
0.357064 0.475915 0.466803 255 255 255 255 
0.0842746 0.0628234 0.466803 255 255 255 255 
0.240659 0.499825 0.466803 255 255 255 255 
0.418162 0.0650095 0.466803 255 255 255 255 
0.185871 0.00836511 0.466803 255 255 255 255 
0.287309 0.4972 0.466803 255 255 255 255 
0.227581 0.00100729 0.466803 255 255 255 255 
0.0583908 0.41058 0.466803 255 255 255 255 
0.495742 0.295944 0.466803 255 255 255 255 
0.499628 0.263632 0.466803 255 255 255 255 
0.0697372 0.42322 0.466803 255 255 255 255 
0.358413 0.47527 0.466803 255 255 255 255 
0.466664 0.374726 0.466803 255 255 255 255 
0.106857 0.0450364 0.466803 255 255 255 255 
0.355155 0.0231907 0.466803 255 255 255 255 
0.0879457 0.440364 0.466803 255 255 255 255 
0.00430553 0.296198 0.466803 255 255 255 255 
0.019251 0.153798 0.466803 255 255 255 255 
0.00874057 0.184472 0.466803 255 255 255 255 
0.019246 0.34619 0.466803 255 255 255 255 
0.0289487 0.366775 0.466803 255 255 255 255 
0.163689 0.0153717 0.466803 255 255 255 255 
0.499229 0.269621 0.466803 255 255 255 255 
0.160137 0.483291 0.466803 255 255 255 255 
0.342806 0.0178642 0.466803 255 255 255 255 
0.29073 0.49666 0.466803 255 255 255 255 
0.470616 0.132405 0.466803 255 255 255 255 
0.306493 0.00646654 0.466803 255 255 255 255 
0.489022 0.176729 0.466803 255 255 255 255 
0.364442 0.472268 0.466803 255 255 255 255 
0.256147 7.55787e-05 0.466803 255 255 255 255 
0.418574 0.434615 0.466803 255 255 255 255 
0.340549 0.0169747 0.466803 255 255 255 255 
0.49952 0.26548 0.466803 255 255 255 255 
0.499999 0.249443 0.466803 255 255 255 255 
0.00154428 0.222256 0.466803 255 255 255 255 
0.27193 0.499036 0.466803 255 255 255 255 
0.227026 0.00105785 0.466803 255 255 255 255 
0.458246 0.111676 0.466803 255 255 255 255 
