ply
format ascii 1.0
comment VCGLIB generated
element vertex 1291
property float x
property float y
property float z
property uchar red
property uchar green
property uchar blue
property uchar alpha
element face 0
property list uchar int vertex_indices
end_header
0 0.576499 0.0765257 255 255 255 255 
0 0.447083 0.94559 255 255 255 255 
0 0.275337 0.470389 255 255 255 255 
0 0.249487 0.278154 255 255 255 255 
0 0.415667 0.973853 255 255 255 255 
0 0.921972 0.678861 255 255 255 255 
0 0.474118 0.743 255 255 255 255 
0 0.059163 0.0522025 255 255 255 255 
0 0.465054 0.435377 255 255 255 255 
0 0.130092 0.221584 255 255 255 255 
0 0.717555 0.676571 255 255 255 255 
0 0.944938 0.536721 255 255 255 255 
0 0.158959 0.941644 255 255 255 255 
0 0.0962765 0.579225 255 255 255 255 
0 0.592113 0.859045 255 255 255 255 
0 0.955351 0.168612 255 255 255 255 
0 0.935571 0.402434 255 255 255 255 
0 0.114202 0.210908 255 255 255 255 
0 0.872823 0.36369 255 255 255 255 
0 0.489062 0.28849 255 255 255 255 
0 0.337543 0.411034 255 255 255 255 
0 0.967351 0.811661 255 255 255 255 
0 0.154034 0.0265142 255 255 255 255 
0 0.863863 0.619088 255 255 255 255 
0 0.461892 0.993955 255 255 255 255 
0 0.840671 0.179447 255 255 255 255 
0 0.670526 0.785609 255 255 255 255 
0 0.716168 0.829486 255 255 255 255 
0 0.727253 0.812444 255 255 255 255 
0 0.40871 0.319366 255 255 255 255 
0 0.67149 0.364061 255 255 255 255 
0 0.487978 0.607061 255 255 255 255 
0 0.766495 0.602181 255 255 255 255 
0 0.817968 0.639318 255 255 255 255 
0 0.96587 0.307031 255 255 255 255 
0 0.927808 0.303413 255 255 255 255 
0 0.718065 0.89516 255 255 255 255 
0 0.115073 0.872099 255 255 255 255 
0 0.921674 0.978937 255 255 255 255 
0 0.491187 0.383565 255 255 255 255 
0 0.972892 0.331858 255 255 255 255 
0 0.563012 0.643418 255 255 255 255 
0 0.117467 0.27918 255 255 255 255 
0 0.472904 0.844721 255 255 255 255 
0 0.0916243 0.881614 255 255 255 255 
0 0.164087 0.763114 255 255 255 255 
0 0.245675 0.652065 255 255 255 255 
0 0.370175 0.0121702 255 255 255 255 
0 0.254246 0.188143 255 255 255 255 
0 0.651489 0.220116 255 255 255 255 
0 0.495174 0.579297 255 255 255 255 
0 0.523529 0.213239 255 255 255 255 
0 0.474457 0.638602 255 255 255 255 
0 0.0853381 0.396131 255 255 255 255 
0 0.617539 0.576525 255 255 255 255 
0 0.779696 0.590431 255 255 255 255 
0 0.908383 0.342709 255 255 255 255 
0 0.233849 0.0258503 255 255 255 255 
0 0.621889 0.706753 255 255 255 255 
0 0.870571 0.713513 255 255 255 255 
0 0.588367 0.0346578 255 255 255 255 
0 0.476627 0.834043 255 255 255 255 
0 0.686723 0.846802 255 255 255 255 
0 0.846213 0.940969 255 255 255 255 
0 0.034945 0.497702 255 255 255 255 
0 0.161085 0.530119 255 255 255 255 
0 0.0769987 0.684614 255 255 255 255 
0 0.743358 0.551456 255 255 255 255 
0 0.323216 0.828696 255 255 255 255 
0 0.947586 0.940755 255 255 255 255 
0 0.405221 0.727283 255 255 255 255 
0 0.531186 0.313604 255 255 255 255 
0 0.0699914 0.765035 255 255 255 255 
0 0.339454 0.69188 255 255 255 255 
0 0.471788 0.210025 255 255 255 255 
0 0.405393 0.0601556 255 255 255 255 
0 0.244683 0.88202 255 255 255 255 
0 0.894198 0.931406 255 255 255 255 
0 0.728822 0.740411 255 255 255 255 
0 0.872375 0.763767 255 255 255 255 
0 0.238113 0.0334594 255 255 255 255 
0 0.293886 0.315111 255 255 255 255 
0 0.718073 0.0372439 255 255 255 255 
0 0.866567 0.0412889 255 255 255 255 
0 0.86594 0.814153 255 255 255 255 
0 0.982044 0.271161 255 255 255 255 
0 0.541436 0.513229 255 255 255 255 
0 0.584765 0.611428 255 255 255 255 
0 0.278264 0.924219 255 255 255 255 
0 0.303308 0.750052 255 255 255 255 
0 0.134244 0.708701 255 255 255 255 
0 0.810208 0.378928 255 255 255 255 
0 0.590721 0.704406 255 255 255 255 
0 0.310334 0.319543 255 255 255 255 
0 0.444817 0.182708 255 255 255 255 
0 0.0833104 0.68293 255 255 255 255 
0 0.216168 0.377196 255 255 255 255 
0 0.998041 0.934241 255 255 255 255 
0 0.41444 0.864608 255 255 255 255 
0 0.97553 0.28038 255 255 255 255 
0 0.678761 0.957573 255 255 255 255 
0 0.551541 0.220198 255 255 255 255 
0 0.470803 0.136306 255 255 255 255 
0 0.831625 0.749067 255 255 255 255 
0 0.0605254 0.134933 255 255 255 255 
0 0.499119 0.19477 255 255 255 255 
0 0.843634 0.309327 255 255 255 255 
0 0.573697 0.434356 255 255 255 255 
0 0.013733 0.884031 255 255 255 255 
0 0.753899 0.45855 255 255 255 255 
0 0.0667394 0.83721 255 255 255 255 
0 0.14148 0.282907 255 255 255 255 
0 0.214406 0.139521 255 255 255 255 
0 0.217148 0.628846 255 255 255 255 
0 0.00412863 0.192678 255 255 255 255 
0 0.909227 0.68289 255 255 255 255 
0 0.150251 0.460768 255 255 255 255 
0 0.903088 0.621054 255 255 255 255 
0 0.597074 0.734713 255 255 255 255 
0 0.370121 0.657599 255 255 255 255 
0 0.869646 0.86924 255 255 255 255 
0 0.852369 0.713281 255 255 255 255 
0 0.178567 0.426067 255 255 255 255 
0 0.147637 0.1923 255 255 255 255 
0 0.310098 0.901536 255 255 255 255 
0 0.65085 0.376837 255 255 255 255 
0 0.738745 0.792329 255 255 255 255 
0 0.659744 0.953151 255 255 255 255 
0 0.93185 0.876892 255 255 255 255 
0 0.581998 0.935979 255 255 255 255 
0 0.0695697 0.491224 255 255 255 255 
0 0.618869 0.219821 255 255 255 255 
0 0.951992 0.521956 255 255 255 255 
0 0.840874 0.549066 255 255 255 255 
0 0.25667 0.210995 255 255 255 255 
0 0.206665 0.126316 255 255 255 255 
0 0.0802347 0.0590345 255 255 255 255 
0 0.839597 0.258801 255 255 255 255 
0 0.485101 0.987234 255 255 255 255 
0 0.451101 0.795199 255 255 255 255 
0 0.88877 0.101951 255 255 255 255 
0 0.172036 0.627515 255 255 255 255 
0 0.89428 0.83178 255 255 255 255 
0 0.580666 0.82613 255 255 255 255 
0 0.708672 0.162664 255 255 255 255 
0 0.762109 0.778242 255 255 255 255 
0 0.653888 0.380977 255 255 255 255 
0 0.998062 0.60588 255 255 255 255 
0 0.902934 0.838937 255 255 255 255 
0 0.154946 0.159603 255 255 255 255 
0 0.0499318 0.361611 255 255 255 255 
0 0.285919 0.130167 255 255 255 255 
0 0.420645 0.125516 255 255 255 255 
0 0.388968 0.905747 255 255 255 255 
0 0.11275 0.840069 255 255 255 255 
0 0.700945 0.00151954 255 255 255 255 
0 0.942019 0.872981 255 255 255 255 
0 0.629034 0.836299 255 255 255 255 
0 0.704761 0.209701 255 255 255 255 
0 0.662429 0.413433 255 255 255 255 
0 0.372364 0.424538 255 255 255 255 
0 0.191675 0.0262522 255 255 255 255 
0 0.805515 0.189737 255 255 255 255 
0 0.632132 0.708448 255 255 255 255 
0 0.0286737 0.787077 255 255 255 255 
0 0.868052 0.0786055 255 255 255 255 
0 0.148688 0.153971 255 255 255 255 
0 0.208772 0.569334 255 255 255 255 
0 0.279487 0.59774 255 255 255 255 
0 0.47508 0.392237 255 255 255 255 
0 0.437809 0.176025 255 255 255 255 
0 0.393757 0.379828 255 255 255 255 
0 0.0490065 0.0227914 255 255 255 255 
0 0.216128 0.753767 255 255 255 255 
0 0.232492 0.878557 255 255 255 255 
0 0.1672 0.604856 255 255 255 255 
0 0.303095 0.358875 255 255 255 255 
0 0.631109 0.108609 255 255 255 255 
0 0.548612 0.26324 255 255 255 255 
0 0.817058 0.577285 255 255 255 255 
0 0.0503179 0.68511 255 255 255 255 
0 0.655891 0.199006 255 255 255 255 
0 0.839081 0.864663 255 255 255 255 
0 0.76834 0.118568 255 255 255 255 
0 0.462403 0.24342 255 255 255 255 
0 0.510805 0.900212 255 255 255 255 
0 0.419446 0.904562 255 255 255 255 
0 0.28004 0.468452 255 255 255 255 
0 0.927354 0.496168 255 255 255 255 
0 0.222219 0.159846 255 255 255 255 
0 0.374724 0.38942 255 255 255 255 
0 0.764702 0.677819 255 255 255 255 
0 0.748294 0.395811 255 255 255 255 
0 0.786428 0.296906 255 255 255 255 
0 0.659051 0.603486 255 255 255 255 
0 0.874192 0.709369 255 255 255 255 
0 0.288596 0.530083 255 255 255 255 
0 0.908375 0.127676 255 255 255 255 
0 0.394746 0.676715 255 255 255 255 
0 0.246244 0.857149 255 255 255 255 
0 0.920135 0.757049 255 255 255 255 
0 0.75736 0.339581 255 255 255 255 
0 0.661612 0.0374005 255 255 255 255 
0 0.808033 0.588965 255 255 255 255 
0 0.533568 0.0302522 255 255 255 255 
0 0.748811 0.908293 255 255 255 255 
0 0.419672 0.513513 255 255 255 255 
0 0.586111 0.167966 255 255 255 255 
0 0.909323 0.37254 255 255 255 255 
0 0.464873 0.568374 255 255 255 255 
0 0.976026 0.339064 255 255 255 255 
0 0.277743 0.264622 255 255 255 255 
0 0.869147 0.186119 255 255 255 255 
0 0.392298 0.263892 255 255 255 255 
0 0.862834 0.638542 255 255 255 255 
0 0.121041 0.782969 255 255 255 255 
0 0.395591 0.878401 255 255 255 255 
0 0.12255 0.0572031 255 255 255 255 
0 0.915802 0.930583 255 255 255 255 
0 0.646168 0.44937 255 255 255 255 
0 0.960835 0.394979 255 255 255 255 
0 0.357662 0.380507 255 255 255 255 
0 0.908492 0.943774 255 255 255 255 
0 0.548473 0.817815 255 255 255 255 
0 0.316314 0.0133458 255 255 255 255 
0 0.386189 0.29234 255 255 255 255 
0 0.35241 0.663933 255 255 255 255 
0 0.556961 0.221557 255 255 255 255 
0 0.850052 0.949259 255 255 255 255 
0 0.485449 0.712885 255 255 255 255 
0 0.587801 0.60649 255 255 255 255 
0 0.495854 0.983392 255 255 255 255 
0 0.484891 0.618404 255 255 255 255 
0 0.0405955 0.400693 255 255 255 255 
0 0.548987 0.686764 255 255 255 255 
0 0.850062 0.509822 255 255 255 255 
0 0.0817427 0.207725 255 255 255 255 
0 0.890329 0.990234 255 255 255 255 
0 0.151499 0.438802 255 255 255 255 
0 0.808049 0.467812 255 255 255 255 
0 0.452148 0.194239 255 255 255 255 
0 0.760152 0.804558 255 255 255 255 
0 0.858172 0.317113 255 255 255 255 
0 0.0261145 0.708223 255 255 255 255 
0 0.266372 0.511563 255 255 255 255 
0 0.421109 0.854173 255 255 255 255 
0 0.118053 0.916963 255 255 255 255 
0 0.837566 0.602944 255 255 255 255 
0 0.535368 0.878161 255 255 255 255 
0 0.00363644 0.0843549 255 255 255 255 
0 0.564925 0.853699 255 255 255 255 
0 0.594177 0.646668 255 255 255 255 
0 0.0614237 0.484506 255 255 255 255 
0 0.636902 0.212922 255 255 255 255 
0 0.923308 0.444952 255 255 255 255 
0 0.680735 0.375456 255 255 255 255 
0 0.639191 0.440887 255 255 255 255 
0 0.180014 0.497362 255 255 255 255 
0 0.758 0.206129 255 255 255 255 
0 0.205586 0.0243723 255 255 255 255 
0 0.717692 0.626695 255 255 255 255 
0 0.878546 0.835745 255 255 255 255 
0 0.543658 0.716111 255 255 255 255 
0 0.438689 0.0790255 255 255 255 255 
0 0.594273 0.442326 255 255 255 255 
0 0.16338 0.159197 255 255 255 255 
0 0.296024 0.757558 255 255 255 255 
0 0.805865 0.357448 255 255 255 255 
0 0.242064 0.442767 255 255 255 255 
0 0.57037 0.165372 255 255 255 255 
0 0.887719 0.251105 255 255 255 255 
0 0.540828 0.526909 255 255 255 255 
0 0.691992 0.720843 255 255 255 255 
0 0.0242717 0.449992 255 255 255 255 
0 0.926972 0.229857 255 255 255 255 
0 0.474364 0.644664 255 255 255 255 
0 0.856552 0.35291 255 255 255 255 
0 0.480409 0.40021 255 255 255 255 
0 0.0690215 0.919098 255 255 255 255 
0 0.479235 0.663294 255 255 255 255 
0 0.361424 0.642616 255 255 255 255 
0 0.822491 0.657448 255 255 255 255 
0 0.400173 0.628357 255 255 255 255 
0 0.0148961 0.642237 255 255 255 255 
0 0.0711238 0.585267 255 255 255 255 
0 0.807609 0.958843 255 255 255 255 
0 0.836372 0.348437 255 255 255 255 
0 0.485752 0.528364 255 255 255 255 
0 0.0692802 0.510023 255 255 255 255 
0 0.978356 0.996252 255 255 255 255 
0 0.739881 0.452721 255 255 255 255 
0 0.640916 0.596433 255 255 255 255 
0 0.805631 0.121325 255 255 255 255 
0 0.996643 0.874652 255 255 255 255 
0 0.040423 0.475878 255 255 255 255 
0 0.537946 0.401847 255 255 255 255 
0 0.118494 0.360438 255 255 255 255 
0 0.0592947 0.518667 255 255 255 255 
0 0.988794 0.0741907 255 255 255 255 
0 0.160904 0.059918 255 255 255 255 
0 0.659457 0.968513 255 255 255 255 
0 0.0187605 0.495829 255 255 255 255 
0 0.31695 0.504512 255 255 255 255 
0 0.024193 0.386231 255 255 255 255 
0 0.0145358 0.00254903 255 255 255 255 
0 0.382482 0.754417 255 255 255 255 
0 0.45527 0.0233981 255 255 255 255 
0 0.35085 0.2609 255 255 255 255 
0 0.144723 0.347492 255 255 255 255 
0 0.135552 0.185146 255 255 255 255 
0 0.82337 0.673499 255 255 255 255 
0 0.586993 0.941864 255 255 255 255 
0 0.0339362 0.646287 255 255 255 255 
0 0.460531 0.0227304 255 255 255 255 
0 0.720478 0.621435 255 255 255 255 
0 0.0826483 0.379935 255 255 255 255 
0 0.589949 0.101409 255 255 255 255 
0 0.875764 0.906899 255 255 255 255 
0 0.605921 0.899957 255 255 255 255 
0 0.29313 0.620457 255 255 255 255 
0 0.902506 0.675612 255 255 255 255 
0 0.374874 0.357776 255 255 255 255 
0 0.69901 0.725723 255 255 255 255 
0 0.618676 0.843733 255 255 255 255 
0 0.0732155 0.754229 255 255 255 255 
0 0.0288789 0.896586 255 255 255 255 
0 0.427727 0.615871 255 255 255 255 
0 0.83845 0.461663 255 255 255 255 
0 0.262159 0.298982 255 255 255 255 
0 0.484394 0.982637 255 255 255 255 
0 0.920417 0.567042 255 255 255 255 
0 0.362572 0.510366 255 255 255 255 
0 0.668451 0.238336 255 255 255 255 
0 0.417265 0.274372 255 255 255 255 
0 0.138294 0.710394 255 255 255 255 
0 0.894829 0.0408 255 255 255 255 
0 0.386006 0.269703 255 255 255 255 
0 0.398576 0.085016 255 255 255 255 
0 0.995426 0.0172522 255 255 255 255 
0 0.928749 0.0686413 255 255 255 255 
0 0.771481 0.957628 255 255 255 255 
0 0.965227 0.199208 255 255 255 255 
0 0.573499 0.803677 255 255 255 255 
0 0.660872 0.835658 255 255 255 255 
0 0.102659 0.145265 255 255 255 255 
0 0.818295 0.0230761 255 255 255 255 
0 0.712308 0.180867 255 255 255 255 
0 0.533442 0.380759 255 255 255 255 
0 0.419203 0.950706 255 255 255 255 
0 0.655131 0.557497 255 255 255 255 
0 0.6611 0.54996 255 255 255 255 
0 0.598297 0.0471063 255 255 255 255 
0 0.819662 0.996873 255 255 255 255 
0 0.132122 0.815088 255 255 255 255 
0 0.0141251 0.0608712 255 255 255 255 
0 0.883729 0.785606 255 255 255 255 
0 0.0184991 0.848957 255 255 255 255 
0 0.984814 0.591998 255 255 255 255 
0 0.652634 0.645686 255 255 255 255 
0 0.427657 0.755293 255 255 255 255 
0 0.790951 0.245952 255 255 255 255 
0 0.778369 0.503259 255 255 255 255 
0 0.426818 0.311811 255 255 255 255 
0 0.884017 0.846022 255 255 255 255 
0 0.262517 0.539148 255 255 255 255 
0 0.403519 0.923617 255 255 255 255 
0 0.0891072 0.00181579 255 255 255 255 
0 0.970724 0.908769 255 255 255 255 
0 0.998689 0.102846 255 255 255 255 
0 0.723857 0.0128139 255 255 255 255 
0 0.163717 0.607587 255 255 255 255 
0 0.79842 0.182216 255 255 255 255 
0 0.456543 0.783234 255 255 255 255 
0 0.774215 0.109177 255 255 255 255 
0 0.42892 0.201871 255 255 255 255 
0 0.86447 0.219871 255 255 255 255 
0 0.447823 0.642839 255 255 255 255 
0 0.723129 0.874641 255 255 255 255 
0 0.95465 0.607146 255 255 255 255 
0 0.720663 0.217167 255 255 255 255 
0 0.146294 0.124182 255 255 255 255 
0 0.140784 0.235401 255 255 255 255 
0 0.125998 0.111508 255 255 255 255 
0 0.144171 0.124686 255 255 255 255 
0 0.214354 0.868028 255 255 255 255 
0 0.1375 0.378071 255 255 255 255 
0 0.475614 0.93592 255 255 255 255 
0 0.560287 0.932158 255 255 255 255 
0 0.719154 0.334502 255 255 255 255 
0 0.0413346 0.148074 255 255 255 255 
0 0.536373 0.905805 255 255 255 255 
0 0.367944 0.984196 255 255 255 255 
0 0.548644 0.0910736 255 255 255 255 
0 0.858837 0.503294 255 255 255 255 
0 0.69822 0.5795 255 255 255 255 
0 0.720461 0.844514 255 255 255 255 
0 0.703682 0.861245 255 255 255 255 
0 0.0799147 0.829679 255 255 255 255 
0 0.972753 0.224085 255 255 255 255 
0 0.954366 0.187107 255 255 255 255 
0 0.0921131 0.0918657 255 255 255 255 
0 0.565178 0.567728 255 255 255 255 
0 0.0277858 0.125465 255 255 255 255 
0 0.499885 0.74694 255 255 255 255 
0 0.459967 0.54122 255 255 255 255 
0 0.895014 0.99634 255 255 255 255 
0 0.447024 0.262958 255 255 255 255 
0 0.980536 0.995668 255 255 255 255 
0 0.354032 0.839373 255 255 255 255 
0 0.498962 0.0522515 255 255 255 255 
0 0.418873 0.219423 255 255 255 255 
0 0.896765 0.122555 255 255 255 255 
0 0.0806678 0.97668 255 255 255 255 
0 0.952234 0.053421 255 255 255 255 
0 0.200765 0.9066 255 255 255 255 
0 0.240528 0.292878 255 255 255 255 
0 0.998465 0.805707 255 255 255 255 
0 0.860606 0.0262512 255 255 255 255 
0 0.931172 0.360491 255 255 255 255 
0 0.773191 0.391139 255 255 255 255 
0 0.901711 0.668205 255 255 255 255 
0 0.38748 0.348735 255 255 255 255 
0 0.931163 0.368016 255 255 255 255 
0 0.344404 0.285195 255 255 255 255 
0 0.207389 0.843366 255 255 255 255 
0 0.337446 0.626262 255 255 255 255 
0 0.0627883 0.234211 255 255 255 255 
0 0.748817 0.143456 255 255 255 255 
0 0.210891 0.701051 255 255 255 255 
0 0.196877 0.411657 255 255 255 255 
0 0.607651 0.437405 255 255 255 255 
0 0.704535 0.606116 255 255 255 255 
0 0.243112 0.565141 255 255 255 255 
0 0.632368 0.174284 255 255 255 255 
0 0.925632 0.405559 255 255 255 255 
0 0.565423 0.827343 255 255 255 255 
0 0.0737638 0.952903 255 255 255 255 
0 0.176078 0.00492682 255 255 255 255 
0 0.320919 0.520482 255 255 255 255 
0 0.290122 0.528308 255 255 255 255 
0 0.363847 0.627568 255 255 255 255 
0 0.15457 0.426636 255 255 255 255 
0 0.861779 0.903388 255 255 255 255 
0 0.570092 0.0726708 255 255 255 255 
0 0.604439 0.766969 255 255 255 255 
0 0.484327 0.21209 255 255 255 255 
0 0.204374 0.188862 255 255 255 255 
0 0.818206 0.447486 255 255 255 255 
0 0.754003 0.450574 255 255 255 255 
0 0.62177 0.679635 255 255 255 255 
0 0.856133 0.187193 255 255 255 255 
0 0.506978 0.929897 255 255 255 255 
0 0.140096 0.683056 255 255 255 255 
0 0.934824 0.461015 255 255 255 255 
0 0.203538 0.224945 255 255 255 255 
0 0.989323 0.567385 255 255 255 255 
0 0.852513 0.143893 255 255 255 255 
0 0.994021 0.714293 255 255 255 255 
0 0.0472807 0.564113 255 255 255 255 
0 0.786963 0.65172 255 255 255 255 
0 0.331082 0.271291 255 255 255 255 
0.59081 0 0.0927021 255 255 255 255 
0.394977 0 0.579892 255 255 255 255 
0.610241 0 0.189411 255 255 255 255 
0.353091 0 0.212143 255 255 255 255 
0.13566 0 0.364937 255 255 255 255 
0.289483 0 0.445063 255 255 255 255 
0.192821 0 0.689992 255 255 255 255 
0.669061 0 0.387889 255 255 255 255 
0.655805 0 0.569046 255 255 255 255 
0.224538 0 0.496722 255 255 255 255 
0.546995 0 0.698787 255 255 255 255 
0.782018 0 0.656981 255 255 255 255 
0.790982 0 0.178383 255 255 255 255 
0.89513 0 0.470517 255 255 255 255 
0.934826 0 0.947904 255 255 255 255 
0.73221 0 0.525636 255 255 255 255 
0.0406061 0 0.127187 255 255 255 255 
0.105527 0 0.650847 255 255 255 255 
0.316598 0 0.458618 255 255 255 255 
0.86299 0 0.452259 255 255 255 255 
0.823556 0 0.152474 255 255 255 255 
0.897321 0 0.016377 255 255 255 255 
0.842465 0 0.566383 255 255 255 255 
0.404266 0 0.49827 255 255 255 255 
0.135428 0 0.628803 255 255 255 255 
0.994993 0 0.682424 255 255 255 255 
0.32759 0 0.777011 255 255 255 255 
0.339404 0 0.118572 255 255 255 255 
0.955394 0 0.234534 255 255 255 255 
0.589089 0 0.890219 255 255 255 255 
0.182438 0 0.321299 255 255 255 255 
0.415855 0 0.223044 255 255 255 255 
0.448486 0 0.521382 255 255 255 255 
0.873891 0 0.765085 255 255 255 255 
0.98 0 0.736881 255 255 255 255 
0.217344 0 0.803556 255 255 255 255 
0.889355 0 0.114665 255 255 255 255 
0.819933 0 0.73182 255 255 255 255 
0.681048 0 0.224198 255 255 255 255 
0.230091 0 0.816476 255 255 255 255 
0.853002 0 0.225083 255 255 255 255 
0.4989 0 0.180592 255 255 255 255 
0.0020938 0 0.838304 255 255 255 255 
0.299164 0 0.957487 255 255 255 255 
0.072838 0 0.888253 255 255 255 255 
0.847706 0 0.255276 255 255 255 255 
0.209552 0 0.263561 255 255 255 255 
0.47832 0 0.658039 255 255 255 255 
0.784943 0 0.352211 255 255 255 255 
0.423124 0 0.764943 255 255 255 255 
0.0890921 0 0.640467 255 255 255 255 
0.568499 0 0.978447 255 255 255 255 
0.755132 0 0.388432 255 255 255 255 
0.710267 0 0.43618 255 255 255 255 
0.61263 0 0.940358 255 255 255 255 
0.252656 0 0.465632 255 255 255 255 
0.165441 0 0.751556 255 255 255 255 
0.646224 0 0.167535 255 255 255 255 
0.58986 0 0.945388 255 255 255 255 
0.125023 0 0.662698 255 255 255 255 
0.833641 0 0.972729 255 255 255 255 
0.917974 0 0.0431935 255 255 255 255 
0.23629 0 0.396294 255 255 255 255 
0.701232 0 0.0212332 255 255 255 255 
0.748505 0 0.124356 255 255 255 255 
0.786177 0 0.837597 255 255 255 255 
0.764823 0 0.354676 255 255 255 255 
0.816044 0 0.519955 255 255 255 255 
0.743108 0 0.526311 255 255 255 255 
0.956135 0 0.355738 255 255 255 255 
0.466669 0 0.208791 255 255 255 255 
0.82137 0 0.632111 255 255 255 255 
0.960347 0 0.467594 255 255 255 255 
0.799646 0 0.550207 255 255 255 255 
0.412982 0 0.924669 255 255 255 255 
0.212906 0 0.246623 255 255 255 255 
0.897398 0 0.13088 255 255 255 255 
0.289817 0 0.133688 255 255 255 255 
0.527174 0 0.991049 255 255 255 255 
0.154921 0 0.275678 255 255 255 255 
0.115405 0 0.941098 255 255 255 255 
0.113275 0 0.880228 255 255 255 255 
0.295773 0 0.929319 255 255 255 255 
0.400184 0 0.0388813 255 255 255 255 
0.45563 0 0.356319 255 255 255 255 
0.39462 0 0.922299 255 255 255 255 
0.56511 0 0.21599 255 255 255 255 
0.55441 0 0.525458 255 255 255 255 
0.683584 0 0.354056 255 255 255 255 
0.0756651 0 0.0965665 255 255 255 255 
0.278725 0 0.288571 255 255 255 255 
0.34319 0 0.176122 255 255 255 255 
0.41945 0 0.633007 255 255 255 255 
0.30981 0 0.946624 255 255 255 255 
0.624056 0 0.464731 255 255 255 255 
0.222302 0 0.739461 255 255 255 255 
0.405829 0 0.335577 255 255 255 255 
0.619689 0 0.701603 255 255 255 255 
0.264895 0 0.0198726 255 255 255 255 
0.740484 0 0.720525 255 255 255 255 
0.376192 0 0.135103 255 255 255 255 
0.642825 0 0.941302 255 255 255 255 
0.351093 0 0.197235 255 255 255 255 
0.46676 0 0.0346777 255 255 255 255 
0.551291 0 0.542425 255 255 255 255 
0.131244 0 0.830016 255 255 255 255 
0.830995 0 0.474434 255 255 255 255 
0.00613823 0 0.250446 255 255 255 255 
0.107441 0 0.315949 255 255 255 255 
0.19707 0 0.731496 255 255 255 255 
0.78068 0 0.419372 255 255 255 255 
0.470957 0 0.186509 255 255 255 255 
0.754949 0 0.0906461 255 255 255 255 
0.888111 0 0.0198445 255 255 255 255 
0.110519 0 0.628595 255 255 255 255 
0.74037 0 0.48671 255 255 255 255 
0.763699 0 0.383195 255 255 255 255 
0.428012 0 0.114792 255 255 255 255 
0.580429 0 0.894772 255 255 255 255 
0.14947 0 0.13172 255 255 255 255 
0.437197 0 0.280714 255 255 255 255 
0.961736 0 0.268192 255 255 255 255 
0.755148 0 0.967874 255 255 255 255 
0.518638 0 0.862588 255 255 255 255 
0.283823 0 0.715708 255 255 255 255 
0.594085 0 0.0645027 255 255 255 255 
0.13508 0 0.0650418 255 255 255 255 
0.251012 0 0.890029 255 255 255 255 
0.155688 0 0.139123 255 255 255 255 
0.909873 0 0.266207 255 255 255 255 
0.767718 0 0.650243 255 255 255 255 
0.752917 0 0.531417 255 255 255 255 
0.0334378 0 0.180929 255 255 255 255 
0.646209 0 0.613867 255 255 255 255 
0.0757012 0 0.795679 255 255 255 255 
0.745587 0 0.512898 255 255 255 255 
0.076393 0 0.707323 255 255 255 255 
0.78109 0 0.831541 255 255 255 255 
0.675197 0 0.299728 255 255 255 255 
0.694129 0 0.95902 255 255 255 255 
0.0154354 0 0.288214 255 255 255 255 
0.0235229 0 0.150515 255 255 255 255 
0.353256 0 0.274535 255 255 255 255 
0.0405443 0 0.508944 255 255 255 255 
0.413658 0 0.950418 255 255 255 255 
0.77515 0 0.181376 255 255 255 255 
0.600661 0 0.528067 255 255 255 255 
0.712793 0 0.634099 255 255 255 255 
0.708997 0 0.359002 255 255 255 255 
0.247966 0 0.784698 255 255 255 255 
0.154681 0 0.993553 255 255 255 255 
0.297596 0 0.231074 255 255 255 255 
0.700876 0 0.0786852 255 255 255 255 
0.0626152 0 0.376074 255 255 255 255 
0.378413 0 0.756744 255 255 255 255 
0.335094 0 0.393848 255 255 255 255 
0.0449583 0 0.358617 255 255 255 255 
0.544363 0 0.398214 255 255 255 255 
0.633151 0 0.584908 255 255 255 255 
0.907158 0 0.046809 255 255 255 255 
0.535325 0 0.682308 255 255 255 255 
0.228185 0 0.135986 255 255 255 255 
0.210375 0 0.940978 255 255 255 255 
0.770085 0 0.919372 255 255 255 255 
0.299981 0 0.018051 255 255 255 255 
0.70407 0 0.454662 255 255 255 255 
0.0116041 0 0.00166564 255 255 255 255 
0.685736 0 0.71248 255 255 255 255 
0.0803509 0 0.748352 255 255 255 255 
0.0885543 0 0.458764 255 255 255 255 
0.505096 0 0.423648 255 255 255 255 
0.852612 0 0.550054 255 255 255 255 
0.782265 0 0.396975 255 255 255 255 
0.948268 0 0.415417 255 255 255 255 
0.981883 0 0.855426 255 255 255 255 
0.462226 0 0.517209 255 255 255 255 
0.537734 0 0.690411 255 255 255 255 
0.653195 0 0.74811 255 255 255 255 
0.631389 0 0.42328 255 255 255 255 
0.667482 0 0.93137 255 255 255 255 
0.441331 0 0.371552 255 255 255 255 
0.386032 0 0.452935 255 255 255 255 
0.373217 0 0.071768 255 255 255 255 
0.165416 0 0.453568 255 255 255 255 
0.82012 0 0.25397 255 255 255 255 
0.912332 0 0.325216 255 255 255 255 
0.677619 0 0.764944 255 255 255 255 
0.87527 0 0.459884 255 255 255 255 
0.161919 0 0.823539 255 255 255 255 
0.8753 0 0.143802 255 255 255 255 
0.678965 0 0.337526 255 255 255 255 
0.661011 0 0.216699 255 255 255 255 
0.0279367 0 0.314206 255 255 255 255 
0.964808 0 0.659326 255 255 255 255 
0.737486 0 0.63229 255 255 255 255 
0.590695 0 0.178817 255 255 255 255 
0.00384177 0 0.976727 255 255 255 255 
0.631753 0 0.377059 255 255 255 255 
0.0484948 0 0.797169 255 255 255 255 
0.830627 0 0.868614 255 255 255 255 
0.051139 0 0.742959 255 255 255 255 
0.19383 0 0.728758 255 255 255 255 
0.507903 0 0.0691004 255 255 255 255 
0.188641 0 0.669822 255 255 255 255 
0.892639 0 0.0639417 255 255 255 255 
0.813624 0 0.571604 255 255 255 255 
0.401468 0 0.474635 255 255 255 255 
0.788303 0 0.429404 255 255 255 255 
0.788841 0 0.753111 255 255 255 255 
0.0887301 0 0.526327 255 255 255 255 
0.385401 0 0.679425 255 255 255 255 
0.705144 0 0.389243 255 255 255 255 
0.656152 0 0.336897 255 255 255 255 
0.766302 0 0.704647 255 255 255 255 
0.134066 0 0.596929 255 255 255 255 
0.573261 0 0.185205 255 255 255 255 
0.339889 0 0.767091 255 255 255 255 
0.913962 0 0.847791 255 255 255 255 
0.836192 0 0.102604 255 255 255 255 
0.517613 0 0.728831 255 255 255 255 
0.166545 0 0.331237 255 255 255 255 
0.300435 0 0.568013 255 255 255 255 
0.805872 0 0.0887375 255 255 255 255 
0.997418 0 0.594712 255 255 255 255 
0.841849 0 0.0861478 255 255 255 255 
0.121039 0 0.22725 255 255 255 255 
0.765573 0 0.826183 255 255 255 255 
0.616493 0 0.421725 255 255 255 255 
0.16308 0 0.382795 255 255 255 255 
0.126372 0 0.297146 255 255 255 255 
0.979725 0 0.699633 255 255 255 255 
0.482351 0 0.319614 255 255 255 255 
0.466725 0 0.396313 255 255 255 255 
0.167405 0 0.302917 255 255 255 255 
0.498917 0 0.685018 255 255 255 255 
0.0317476 0 0.665462 255 255 255 255 
0.0162552 0 0.332182 255 255 255 255 
0.233475 0 0.822127 255 255 255 255 
0.42092 0 0.230893 255 255 255 255 
0.416839 0 0.262769 255 255 255 255 
0.317041 0 0.537878 255 255 255 255 
0.490019 0 0.0826139 255 255 255 255 
0.364061 0 0.106512 255 255 255 255 
0.504339 0 0.527141 255 255 255 255 
0.489308 0 0.630711 255 255 255 255 
0.824287 0 0.469033 255 255 255 255 
0.330345 0 0.306638 255 255 255 255 
0.788646 0 0.79707 255 255 255 255 
0.702951 0 0.956051 255 255 255 255 
0.0999865 0 0.201867 255 255 255 255 
0.641069 0 0.131734 255 255 255 255 
0.867329 0 0.657324 255 255 255 255 
0.463916 0 0.100805 255 255 255 255 
0.479451 0 0.884836 255 255 255 255 
0.331698 0 0.896291 255 255 255 255 
0.147605 0 0.648739 255 255 255 255 
0.434169 0 0.637624 255 255 255 255 
0.731353 0 0.798231 255 255 255 255 
0.744136 0 0.235692 255 255 255 255 
0.325372 0 0.233443 255 255 255 255 
0.866403 0 0.149659 255 255 255 255 
0.702476 0 0.196748 255 255 255 255 
0.456297 0 0.491122 255 255 255 255 
0.993818 0 0.159248 255 255 255 255 
0.447173 0 0.0938041 255 255 255 255 
0.361115 0 0.0882423 255 255 255 255 
0.225538 0 0.228444 255 255 255 255 
0.745567 0 0.689454 255 255 255 255 
0.329249 0 0.225018 255 255 255 255 
0.574291 0 0.660947 255 255 255 255 
0.121309 0 0.721896 255 255 255 255 
0.309685 0 0.555478 255 255 255 255 
0.359519 0 0.041038 255 255 255 255 
0.353709 0 0.103655 255 255 255 255 
0.27673 0 0.679081 255 255 255 255 
0.337099 0 0.143133 255 255 255 255 
0.82874 0 0.0395745 255 255 255 255 
0.339881 0 0.285037 255 255 255 255 
0.530697 0 0.333698 255 255 255 255 
0.444285 0 0.97787 255 255 255 255 
0.427502 0 0.8054 255 255 255 255 
0.066112 0 0.65304 255 255 255 255 
0.0338441 0 0.811679 255 255 255 255 
0.342495 0 0.363093 255 255 255 255 
0.0366969 0 0.916786 255 255 255 255 
0.0240401 0 0.158006 255 255 255 255 
0.638681 0 0.333726 255 255 255 255 
0.713484 0 0.998201 255 255 255 255 
0.374764 0 0.067193 255 255 255 255 
0.101856 0 0.651493 255 255 255 255 
0.746274 0 0.438954 255 255 255 255 
0.794626 0 0.575014 255 255 255 255 
0.478529 0 0.134507 255 255 255 255 
0.860051 0 0.0092254 255 255 255 255 
0.468205 0 0.304336 255 255 255 255 
0.987095 0 0.895707 255 255 255 255 
0.109736 0 0.0532071 255 255 255 255 
0.548748 0 0.14358 255 255 255 255 
0.864886 0 0.891243 255 255 255 255 
0.506673 0 0.901583 255 255 255 255 
0.808028 0 0.530713 255 255 255 255 
0.0595885 0 0.44671 255 255 255 255 
0.864439 0 0.773073 255 255 255 255 
0.44491 0 0.239203 255 255 255 255 
0.840266 0 0.546766 255 255 255 255 
0.890696 0 0.58654 255 255 255 255 
0.98572 0 0.685322 255 255 255 255 
0.161554 0 0.464249 255 255 255 255 
0.819829 0 0.0216052 255 255 255 255 
0.473475 0 0.288034 255 255 255 255 
0.325942 0 0.46057 255 255 255 255 
0.183741 0 0.435678 255 255 255 255 
0.513777 0 0.732489 255 255 255 255 
0.579258 0 0.378662 255 255 255 255 
0.623732 0 0.085931 255 255 255 255 
0.280245 0 0.43176 255 255 255 255 
0.616644 0 0.339834 255 255 255 255 
0.878469 0 0.481083 255 255 255 255 
0.112906 0 0.32338 255 255 255 255 
0.720286 0 0.953172 255 255 255 255 
0.870145 0 0.610982 255 255 255 255 
0.539711 0 0.855866 255 255 255 255 
0.296304 0 0.701265 255 255 255 255 
0.320115 0 0.116133 255 255 255 255 
0.72287 0 0.79359 255 255 255 255 
0.404167 0 0.0488119 255 255 255 255 
0.254159 0 0.587908 255 255 255 255 
0.484489 0 0.767936 255 255 255 255 
0.320397 0 0.063747 255 255 255 255 
0.146598 0 0.944129 255 255 255 255 
0.149678 0 0.426844 255 255 255 255 
0.375889 0 0.766322 255 255 255 255 
0.766677 0 0.254358 255 255 255 255 
0.247406 0 0.879583 255 255 255 255 
0.577738 0 0.967692 255 255 255 255 
0.832755 0 0.447883 255 255 255 255 
0.578674 0 0.372467 255 255 255 255 
0.303749 0 0.874979 255 255 255 255 
0.0737319 0 0.623864 255 255 255 255 
0.991112 0 0.796602 255 255 255 255 
0.417453 0 0.395279 255 255 255 255 
0.845414 0 0.671613 255 255 255 255 
0.983187 0 0.329904 255 255 255 255 
0.439548 0 0.303584 255 255 255 255 
0.393651 0 0.586147 255 255 255 255 
0.247713 0 0.543329 255 255 255 255 
0.0129904 0 0.623602 255 255 255 255 
0.309651 0 0.779668 255 255 255 255 
0.87796 0 0.557057 255 255 255 255 
0.659251 0 0.455697 255 255 255 255 
0.524749 0 0.492006 255 255 255 255 
0.90358 0 0.103423 255 255 255 255 
0.864473 0 0.207329 255 255 255 255 
0.978402 0 0.938205 255 255 255 255 
0.831193 0 0.969514 255 255 255 255 
0.734807 0 0.248646 255 255 255 255 
0.364793 0 0.580221 255 255 255 255 
0.920259 0 0.34798 255 255 255 255 
0.910125 0 0.359807 255 255 255 255 
0.651564 0 0.303775 255 255 255 255 
0.945954 0 0.899277 255 255 255 255 
0.847104 0 0.958945 255 255 255 255 
0.522879 0 0.156755 255 255 255 255 
0.738612 0 0.400839 255 255 255 255 
0.713812 0 0.397863 255 255 255 255 
0.856536 0 0.238561 255 255 255 255 
0.88987 0 0.760116 255 255 255 255 
0.341984 0 0.754343 255 255 255 255 
0.967445 0 0.320386 255 255 255 255 
0.692548 0 0.798638 255 255 255 255 
0.2899 0 0.427355 255 255 255 255 
0.0472848 0 0.654693 255 255 255 255 
0.00757664 0 0.967544 255 255 255 255 
0.00267246 0 0.917702 255 255 255 255 
0.327351 0 0.654236 255 255 255 255 
0.221477 0 0.273305 255 255 255 255 
0.553514 0 0.0685811 255 255 255 255 
0.23225 0 0.0763926 255 255 255 255 
0.225336 0 0.970862 255 255 255 255 
0.477231 0 0.939148 255 255 255 255 
0.368725 0 0.333767 255 255 255 255 
0.177709 0 0.258595 255 255 255 255 
0.0938835 0 0.519694 255 255 255 255 
0.0129379 0 0.061329 255 255 255 255 
0.84008 0 0.705486 255 255 255 255 
0.859967 0 0.12998 255 255 255 255 
0.132841 0 0.907252 255 255 255 255 
0.784673 0 0.140418 255 255 255 255 
0.874796 0 0.787345 255 255 255 255 
0.0581193 0 0.202147 255 255 255 255 
0.441582 0 0.279596 255 255 255 255 
0.475452 0 0.995095 255 255 255 255 
0.348177 0 0.707701 255 255 255 255 
0.071488 0 0.573514 255 255 255 255 
0.678563 0 0.548719 255 255 255 255 
0.512662 0 0.0472882 255 255 255 255 
0.882487 0 0.690371 255 255 255 255 
0.305883 0 0.97637 255 255 255 255 
0.210064 0 0.318821 255 255 255 255 
0.037699 0 0.0501443 255 255 255 255 
0.0243069 0 0.897666 255 255 255 255 
0.180124 0 0.157148 255 255 255 255 
0.804919 0 0.964797 255 255 255 255 
0.297566 0 0.679715 255 255 255 255 
0.752142 0 0.355685 255 255 255 255 
0.881861 0 0.193724 255 255 255 255 
0.635282 0 0.357313 255 255 255 255 
0.18882 0 0.983459 255 255 255 255 
0.0650141 0 0.260308 255 255 255 255 
0.556972 0 0.743577 255 255 255 255 
0.809027 0 0.0696341 255 255 255 255 
0.790865 0 0.691513 255 255 255 255 
0.760005 0 0.0967486 255 255 255 255 
0.667883 0 0.970069 255 255 255 255 
0.41557 0 0.705582 255 255 255 255 
0.0202136 0 0.439877 255 255 255 255 
0.603249 0 0.200338 255 255 255 255 
0.597025 0 0.408168 255 255 255 255 
0.165135 0 0.89459 255 255 255 255 
0.0878821 0 0.917278 255 255 255 255 
0.250276 0 0.969743 255 255 255 255 
0.111002 0 0.885557 255 255 255 255 
0.327056 0 0.299821 255 255 255 255 
0.869016 0 0.39207 255 255 255 255 
0.560129 0 0.425989 255 255 255 255 
0.135648 0 0.369156 255 255 255 255 
0.495623 0 0.926513 255 255 255 255 
0.0606694 0 0.255628 255 255 255 255 
0.0232615 0 0.728553 255 255 255 255 
0.225697 0 0.438831 255 255 255 255 
0.434135 0 0.24591 255 255 255 255 
0.878708 0 0.0373843 255 255 255 255 
0.446248 0 0.475732 255 255 255 255 
0.445552 0 0.611383 255 255 255 255 
0.370323 0 0.533434 255 255 255 255 
0.528661 0 0.620598 255 255 255 255 
0.503177 0 0.639663 255 255 255 255 
0.506155 0 0.830233 255 255 255 255 
0.939484 0 0.375172 255 255 255 255 
0.222304 0 0.499613 255 255 255 255 
0.80116 0 0.357951 255 255 255 255 
0.868769 0 0.296783 255 255 255 255 
0.284464 0 0.929439 255 255 255 255 
0.55241 0 0.307726 255 255 255 255 
0.657991 0 0.778107 255 255 255 255 
0.746557 0 0.0921268 255 255 255 255 
0.0240173 0 0.625264 255 255 255 255 
0.129511 0 0.470266 255 255 255 255 
0.100997 0 0.575063 255 255 255 255 
0.081649 0 0.471319 255 255 255 255 
0.108497 0 0.61031 255 255 255 255 
0.0919177 0 0.611674 255 255 255 255 
0.249973 0 0.598073 255 255 255 255 
0.441908 0 0.189457 255 255 255 255 
0.973245 0 0.664212 255 255 255 255 
0.68907 0 0.774405 255 255 255 255 
0.0221628 0 0.557839 255 255 255 255 
0.0711874 0 0.306627 255 255 255 255 
0.487278 0 0.623598 255 255 255 255 
0.614353 0 0.145269 255 255 255 255 
0.401705 0 0.36091 255 255 255 255 
0.237396 0 0.425722 255 255 255 255 
0.986174 0 0.366907 255 255 255 255 
0.895987 0 0.0871708 255 255 255 255 
0.94197 0 0.977637 255 255 255 255 
0.55849 0 0.0504673 255 255 255 255 
0.587947 0 0.650408 255 255 255 255 
0.662142 0 0.837919 255 255 255 255 
0.248481 0 0.104049 255 255 255 255 
0.0273763 0 0.221726 255 255 255 255 
0.768261 0 0.716447 255 255 255 255 
0.99613 0 0.790424 255 255 255 255 
0.274286 0 0.0673178 255 255 255 255 
0.0970508 0 0.761564 255 255 255 255 
0.690915 0 0.711403 255 255 255 255 
0.906833 0 0.0926199 255 255 255 255 
0.072313 0 0.14423 255 255 255 255 
0.518342 0 0.0584871 255 255 255 255 
0.511137 0 0.414329 255 255 255 255 
0.145658 0 0.453107 255 255 255 255 
0.391966 0 0.704148 255 255 255 255 
0.503575 0 0.979912 255 255 255 255 
0.354556 0 0.165716 255 255 255 255 
0.817832 0 0.603037 255 255 255 255 
0.269766 0 0.845208 255 255 255 255 
0.824763 0 0.0380265 255 255 255 255 
0.561655 0 0.820893 255 255 255 255 
0.82845 0 0.835941 255 255 255 255 
0.888211 0 0.925501 255 255 255 255 
0.597505 0 0.579126 255 255 255 255 
0.636904 0 0.504338 255 255 255 255 
0.671746 0 0.709217 255 255 255 255 
0.648568 0 0.190088 255 255 255 255 
0.767705 0 0.159705 255 255 255 255 
0.604417 0 0.913362 255 255 255 255 
0.612812 0 0.996383 255 255 255 255 
0.61751 0 0.116387 255 255 255 255 
0.976295 0 0.972066 255 255 255 255 
0.282103 0 0.794127 255 255 255 255 
0.575103 0 0.551868 255 255 255 255 
0.639335 0 0.399866 255 255 255 255 
0.589895 0 0.20099 255 255 255 255 
0.220759 0 0.418345 255 255 255 255 
0.0369303 0 0.10897 255 255 255 255 
0.343846 0 0.634435 255 255 255 255 
0.688096 0 0.980751 255 255 255 255 
0.138773 0 0.359842 255 255 255 255 
0.689968 0 0.787341 255 255 255 255 
0.54993 0 0.457673 255 255 255 255 
0.947046 0 0.154347 255 255 255 255 
0.371035 0 0.559858 255 255 255 255 
0.15073 0 0.988545 255 255 255 255 
0.676245 0 0.127025 255 255 255 255 
0.960612 0 0.958347 255 255 255 255 
0.921152 0 0.535715 255 255 255 255 
0.510216 0 0.560487 255 255 255 255 
0.935581 0 0.100111 255 255 255 255 
0.761477 0 0.156339 255 255 255 255 
0.518456 0 0.798407 255 255 255 255 
0.265309 0 0.862302 255 255 255 255 
0.432842 0 0.953405 255 255 255 255 
0.843052 0 0.571615 255 255 255 255 
0.313246 0 0.53302 255 255 255 255 
0.358956 0 0.863176 255 255 255 255 
0.990693 0 0.306002 255 255 255 255 
0.0175229 0 0.361728 255 255 255 255 
0.86586 0 0.168253 255 255 255 255 
0.350273 0 0.542105 255 255 255 255 
0.295278 0 0.310885 255 255 255 255 
0.500452 0 0.21643 255 255 255 255 
0.8466 0 0.010668 255 255 255 255 
0.776917 0 0.78218 255 255 255 255 
0.110779 0 0.538394 255 255 255 255 
0.93852 0 0.629234 255 255 255 255 
0.336802 0 0.203829 255 255 255 255 
0.491536 0 0.769644 255 255 255 255 
0.157233 0 0.334588 255 255 255 255 
0.341259 0 0.47048 255 255 255 255 
0.867609 0 0.700216 255 255 255 255 
0.333656 0 0.858301 255 255 255 255 
0.00621756 0 0.351179 255 255 255 255 
0.220029 0 0.872078 255 255 255 255 
0.519431 0 0.570302 255 255 255 255 
0.414182 0 0.814709 255 255 255 255 
0.881187 0 0.914634 255 255 255 255 
0.0311393 0 0.727787 255 255 255 255 
0.925302 0 0.808057 255 255 255 255 
0.509967 0 0.036081 255 255 255 255 
0.346451 0 0.448487 255 255 255 255 
0.665315 0 0.683253 255 255 255 255 
0.652315 0 0.156851 255 255 255 255 
0.452897 0 0.809549 255 255 255 255 
0.49144 0 0.794156 255 255 255 255 
0.280028 0 0.359048 255 255 255 255 
0.494372 0 0.613684 255 255 255 255 
0.21735 0 0.500589 255 255 255 255 
0.964863 0 0.437379 255 255 255 255 
0.372667 0 0.484294 255 255 255 255 
0.00768134 0 0.786849 255 255 255 255 
0.299003 0 0.888868 255 255 255 255 
0.701483 0 0.330142 255 255 255 255 
0.616655 0 0.626786 255 255 255 255 
0.138199 0 0.126622 255 255 255 255 
0.662867 0 0.48465 255 255 255 255 
0.575109 0 0.328182 255 255 255 255 
0.167903 0 0.227424 255 255 255 255 
0.485033 0 0.6208 255 255 255 255 
0.0369732 0 0.976473 255 255 255 255 
0.414956 0 0.317002 255 255 255 255 
0.335522 0 0.909328 255 255 255 255 
0.930686 0 0.552871 255 255 255 255 
0.409917 0 0.895548 255 255 255 255 
0.99025 0 0.782584 255 255 255 255 
0.379842 0 0.997932 255 255 255 255 
0.569433 0 0.678845 255 255 255 255 
0.8868 0 0.270916 255 255 255 255 
0.00898774 0 0.503455 255 255 255 255 
0.897702 0 0.147187 255 255 255 255 
0.630078 0 0.560569 255 255 255 255 
0.631837 0 0.205186 255 255 255 255 
0.888751 0 0.79974 255 255 255 255 
0.432611 0 0.373784 255 255 255 255 
0.42054 0 0.469584 255 255 255 255 
0.350257 0 0.835496 255 255 255 255 
0.786586 0 0.685779 255 255 255 255 
0.744824 0 0.717271 255 255 255 255 
0.23865 0 0.154741 255 255 255 255 
0.612819 0 0.228901 255 255 255 255 
0.937325 0 0.992662 255 255 255 255 
0.226832 0 0.506758 255 255 255 255 
0.671507 0 0.113633 255 255 255 255 
0.777675 0 0.680495 255 255 255 255 
0.617088 0 0.675377 255 255 255 255 
0.827682 0 0.247165 255 255 255 255 
0.235945 0 0.459519 255 255 255 255 
0.452352 0 0.124696 255 255 255 255 
0.259259 0 0.884963 255 255 255 255 
0.49848 0 0.679799 255 255 255 255 
0.354547 0 0.848737 255 255 255 255 
0.515295 0 0.141132 255 255 255 255 
0.534516 0 0.260119 255 255 255 255 
0.858404 0 0.773166 255 255 255 255 
0.41486 0 0.471223 255 255 255 255 
0.00206642 0 0.352185 255 255 255 255 
0.463885 0 0.228899 255 255 255 255 
0.858944 0 0.135392 255 255 255 255 
0.342531 0 0.636618 255 255 255 255 
0.815886 0 0.959619 255 255 255 255 
0.311995 0 0.643568 255 255 255 255 
0.206785 0 0.54794 255 255 255 255 
0.103086 0 0.659137 255 255 255 255 
0.672636 0 0.362345 255 255 255 255 
0.544099 0 0.171116 255 255 255 255 
0.0421438 0 0.898646 255 255 255 255 
0.019853 0 0.557439 255 255 255 255 
0.0397788 0 0.554369 255 255 255 255 
0.817558 0 0.898182 255 255 255 255 
0.327535 0 0.232418 255 255 255 255 
0.369405 0 0.329601 255 255 255 255 
0.584603 0 0.83329 255 255 255 255 
0.5585 0 0.443547 255 255 255 255 
0.968682 0 0.901031 255 255 255 255 
0.0801651 0 0.784568 255 255 255 255 
0.86065 0 0.39216 255 255 255 255 
0.428136 0 0.0674351 255 255 255 255 
0.9401 0 0.531222 255 255 255 255 
0.726572 0 0.612736 255 255 255 255 
0.893567 0 0.270671 255 255 255 255 
0.783852 0 0.935711 255 255 255 255 
0.169317 0 0.803705 255 255 255 255 
0.49315 0 0.209096 255 255 255 255 
0.358074 0 0.310707 255 255 255 255 
0.107279 0 0.685608 255 255 255 255 
0.543125 0 0.476684 255 255 255 255 
0.0152094 0 0.127728 255 255 255 255 
0.309974 0 0.573709 255 255 255 255 
0.571275 0 0.278656 255 255 255 255 
0.47474 0 0.65144 255 255 255 255 
0.063224 0 0.335391 255 255 255 255 
0.0436002 0 0.49136 255 255 255 255 
0.402826 0 0.9837 255 255 255 255 
0.0225818 0 0.129398 255 255 255 255 
0.596436 0 0.916149 255 255 255 255 
0.400069 0 0.380288 255 255 255 255 
0.85186 0 0.569386 255 255 255 255 
0.183993 0 0.345009 255 255 255 255 
0.778483 0 0.542067 255 255 255 255 
0.655717 0 0.885761 255 255 255 255 
0.227676 0 0.198842 255 255 255 255 
0.362446 0 0.242885 255 255 255 255 
0.32657 0 0.67242 255 255 255 255 
0.816594 0 0.897845 255 255 255 255 
0.951076 0 0.291335 255 255 255 255 
0.549286 0 0.0142999 255 255 255 255 
0.626725 0 0.592886 255 255 255 255 
0.50566 0 0.0295514 255 255 255 255 
0.576586 0 0.528241 255 255 255 255 
0.158949 0 0.173022 255 255 255 255 
0.44439 0 0.559018 255 255 255 255 
0.553311 0 0.29625 255 255 255 255 
0.128404 0 0.737304 255 255 255 255 
0.641259 0 0.906887 255 255 255 255 
0.279371 0 0.296976 255 255 255 255 
0.792648 0 0.507047 255 255 255 255 
0.495818 0 0.155094 255 255 255 255 
0.749932 0 0.822388 255 255 255 255 
0.827514 0 0.566526 255 255 255 255 
0.720233 0 0.778589 255 255 255 255 
0.857861 0 0.269519 255 255 255 255 
0.792889 0 0.484586 255 255 255 255 
0.862404 0 0.298549 255 255 255 255 
0.514138 0 0.43899 255 255 255 255 
0.82679 0 0.673087 255 255 255 255 
0.612012 0 0.271181 255 255 255 255 
0.232105 0 0.165323 255 255 255 255 
0.567431 0 0.360509 255 255 255 255 
0.902627 0 0.20869 255 255 255 255 
0.267396 0 0.181998 255 255 255 255 
0.505666 0 0.060044 255 255 255 255 
0.689045 0 0.00148372 255 255 255 255 
0.215138 0 0.438977 255 255 255 255 
0.823871 0 0.0426514 255 255 255 255 
0.00550279 0 0.544105 255 255 255 255 
0.821241 0 0.863364 255 255 255 255 
0.813623 0 0.61413 255 255 255 255 
0.34795 0 0.676028 255 255 255 255 
0.912679 0 0.862087 255 255 255 255 
0.115018 0 0.739469 255 255 255 255 
0.535174 0 0.72703 255 255 255 255 
0.0106499 0 0.767278 255 255 255 255 
0.892353 0 0.578081 255 255 255 255 
0.127787 0 0.79498 255 255 255 255 
0.786771 0 0.395183 255 255 255 255 
0.976978 0 0.292437 255 255 255 255 
0.455227 0 0.666023 255 255 255 255 
0.29392 0 0.670365 255 255 255 255 
0.105 0 0.117792 255 255 255 255 
0.713016 0 0.110503 255 255 255 255 
0.661896 0 0.534257 255 255 255 255 
0.973866 0 0.47552 255 255 255 255 
0.148387 0 0.321816 255 255 255 255 
0.151547 0 0.0610661 255 255 255 255 
0.183903 0 0.266565 255 255 255 255 
0.800535 0 0.719077 255 255 255 255 
0.993596 0 0.811185 255 255 255 255 
0.486356 0 0.885949 255 255 255 255 
0.389266 0 0.614143 255 255 255 255 
0.680929 0 0.176037 255 255 255 255 
0.00932563 0 0.657908 255 255 255 255 
0.468473 0 0.464553 255 255 255 255 
0.323931 0 0.762393 255 255 255 255 
0.134917 0 0.428931 255 255 255 255 
0.880185 0 0.847933 255 255 255 255 
0.539434 0 0.542082 255 255 255 255 
0.38219 0 0.5133 255 255 255 255 
0.0176015 0 0.530577 255 255 255 255 
0.835116 0 0.169149 255 255 255 255 
0.591643 0 0.0190195 255 255 255 255 
0.435714 0 0.392179 255 255 255 255 
0.738097 0 0.42931 255 255 255 255 
0.203364 0 0.224452 255 255 255 255 
0.315259 0 0.59263 255 255 255 255 
0.838595 0 0.996189 255 255 255 255 
0.768666 0 0.84792 255 255 255 255 
0.654097 0 0.23714 255 255 255 255 
0.312473 0 0.978028 255 255 255 255 
0.999533 0 0.44739 255 255 255 255 
0.406959 0 0.879718 255 255 255 255 
0.295324 0 0.946393 255 255 255 255 
0.4218 0 0.677514 255 255 255 255 
0.459693 0 0.439401 255 255 255 255 
0.208091 0 0.294809 255 255 255 255 
0.60855 0 0.799734 255 255 255 255 
0.313829 0 0.0442645 255 255 255 255 
0.191913 0 0.0519254 255 255 255 255 
0.473575 0 0.395277 255 255 255 255 
0.276378 0 0.788834 255 255 255 255 
0.987907 0 0.114972 255 255 255 255 
0.785022 0 0.756573 255 255 255 255 
0.962893 0 0.439119 255 255 255 255 
0.993713 0 0.275366 255 255 255 255 
0.417147 0 0.993246 255 255 255 255 
0.722756 0 0.824106 255 255 255 255 
0.872964 0 0.0180798 255 255 255 255 
0.770498 0 0.294764 255 255 255 255 
0.695594 0 0.230191 255 255 255 255 
0.734165 0 0.903685 255 255 255 255 
0.525001 0 0.342716 255 255 255 255 
0.703419 0 0.83883 255 255 255 255 
0.38698 0 0.895332 255 255 255 255 
0.890755 0 0.860555 255 255 255 255 
0.290609 0 0.167133 255 255 255 255 
0.649388 0 0.278516 255 255 255 255 
0.282105 0 0.434411 255 255 255 255 
0.0350898 0 0.244998 255 255 255 255 
0.87353 0 0.0288028 255 255 255 255 
0.520364 0 0.290676 255 255 255 255 
0.0220487 0 0.24312 255 255 255 255 
0.114782 0 0.895013 255 255 255 255 
0.2612 0 0.88528 255 255 255 255 
0.189777 0 0.956793 255 255 255 255 
0.115472 0 0.923942 255 255 255 255 
0.860478 0 0.640472 255 255 255 255 
0.266658 0 0.563897 255 255 255 255 
0.479302 0 0.653638 255 255 255 255 
0.45923 0 0.370057 255 255 255 255 
0.514193 0 0.749839 255 255 255 255 
0.537189 0 0.163581 255 255 255 255 
0.0283552 0 0.819294 255 255 255 255 
0.597992 0 0.063445 255 255 255 255 
0.0642921 0 0.471521 255 255 255 255 
0.0922478 0 0.584656 255 255 255 255 
0.762197 0 0.114296 255 255 255 255 
0.827776 0 0.876979 255 255 255 255 
0.00930927 0 0.0889754 255 255 255 255 
0.762259 0 0.199086 255 255 255 255 
0.0457688 0 0.877731 255 255 255 255 
0.123028 0 0.906247 255 255 255 255 
0.518203 0 0.389686 255 255 255 255 
0.470144 0 0.997505 255 255 255 255 
0.0433241 0 0.929374 255 255 255 255 
0.367562 0 0.557517 255 255 255 255 
0.679213 0 0.904751 255 255 255 255 
0.721098 0 0.707568 255 255 255 255 
0.724046 0 0.31909 255 255 255 255 
0.771013 0 0.788338 255 255 255 255 
0.790611 0 0.863261 255 255 255 255 
0.372994 0 0.552808 255 255 255 255 
0.977557 0 0.200769 255 255 255 255 
0.429788 0 0.986867 255 255 255 255 
0.289745 0 0.192047 255 255 255 255 
0.185953 0 0.335514 255 255 255 255 
0.069778 0 0.308981 255 255 255 255 
0.241761 0 0.587981 255 255 255 255 
0.698667 0 0.711905 255 255 255 255 
0.585487 0 0.741991 255 255 255 255 
0.641279 0 0.953049 255 255 255 255 
0.299508 0 0.320492 255 255 255 255 
0.8578 0 0.0206059 255 255 255 255 
0.0280602 0 0.581846 255 255 255 255 
0.339695 0 0.799073 255 255 255 255 
0.370184 0 0.130306 255 255 255 255 
0.662334 0 0.743177 255 255 255 255 
0.683115 0 0.639892 255 255 255 255 
0.943947 0 0.112902 255 255 255 255 
0.626759 0 0.233692 255 255 255 255 
0.304949 0 0.812711 255 255 255 255 
0.569206 0 0.374727 255 255 255 255 
0.121692 0 0.810966 255 255 255 255 
0.962708 0 0.82036 255 255 255 255 
0.522872 0 0.548195 255 255 255 255 
0.562351 0 0.164151 255 255 255 255 
0.501244 0 0.861859 255 255 255 255 
0.484643 0 0.359044 255 255 255 255 
0.882465 0 0.512703 255 255 255 255 
0.94089 0 0.22216 255 255 255 255 
0.311776 0 0.311073 255 255 255 255 
0.352467 0 0.974111 255 255 255 255 
0.0542508 0 0.0355812 255 255 255 255 
0.614003 0 0.998198 255 255 255 255 
0.148483 0 0.240761 255 255 255 255 
0.23189 0 0.453433 255 255 255 255 
0.0534723 0 0.801095 255 255 255 255 
0.82816 0 0.175165 255 255 255 255 
0.612062 0 0.790868 255 255 255 255 
0.995524 0 0.134933 255 255 255 255 
0.339063 0 0.557875 255 255 255 255 
0.299084 0 0.840307 255 255 255 255 
0.419734 0 0.783727 255 255 255 255 
0.199351 0 0.302199 255 255 255 255 
