ply
format ascii 1.0
comment PCL generated
element vertex 1063
property float x
property float y
property float z
property uchar red
property uchar green
property uchar blue
property uchar alpha
element camera 0
property float view_px
property float view_py
property float view_pz
property float x_axisx
property float x_axisy
property float x_axisz
property float y_axisx
property float y_axisy
property float y_axisz
property float z_axisx
property float z_axisy
property float z_axisz
property float focal
property float scalex
property float scaley
property float centerx
property float centery
property int viewportx
property int viewporty
property float k1
property float k2
end_header
0.73317528 1 0.57427764 255 255 255 255
0.074628033 1 0.60650337 255 255 255 255
0.90071416 1 0.13719225 255 255 255 255
0.80316144 1 0.67670846 255 255 255 255
0.56523687 1 0.082045875 255 255 255 255
0.58401829 1 0.27808252 255 255 255 255
0.13553137 1 0.67263067 255 255 255 255
0.006851193 1 0.56589133 255 255 255 255
0.64222074 1 0.75805336 255 255 255 255
0.2076371 1 0.6724419 255 255 255 255
0.030516762 1 0.51135993 255 255 255 255
0.7366668 1 0.40190029 255 255 255 255
0.33863407 1 0.9509114 255 255 255 255
0.36606824 1 0.65869772 255 255 255 255
0.44967201 1 0.44283423 255 255 255 255
0.34259355 1 0.18284729 255 255 255 255
0.017111843 1 0.41722161 255 255 255 255
0.78935063 1 0.917826 255 255 255 255
0.55441386 1 0.59251213 255 255 255 255
0.59453446 1 0.11965068 255 255 255 255
0.67455798 1 0.17855272 255 255 255 255
0.39773321 1 0.81008935 255 255 255 255
0.85118335 1 0.40458441 255 255 255 255
0.37598068 1 0.49340412 255 255 255 255
0.16263779 1 0.58361781 255 255 255 255
0.16584599 1 0.19315454 255 255 255 255
0.094977729 1 0.90251279 255 255 255 255
0.59505481 1 0.43361178 255 255 255 255
0.85342419 1 0.96112305 255 255 255 255
0.092309497 1 0.3030962 255 255 255 255
0.40395728 1 0.43490306 255 255 255 255
0.4859435 1 0.42106915 255 255 255 255
0.85212463 1 0.27529415 255 255 255 255
0.33889511 1 0.40653849 255 255 255 255
0.86780626 1 0.93342954 255 255 255 255
0.52618915 1 0.54236424 255 255 255 255
0.11198229 1 0.92392236 255 255 255 255
0.35245359 1 0.96316564 255 255 255 255
0.3285068 1 0.72843426 255 255 255 255
0.45656976 1 0.49114457 255 255 255 255
0.31205207 1 0.62241572 255 255 255 255
0.68429911 1 0.40702981 255 255 255 255
0.52492851 1 0.27935395 255 255 255 255
0.84064156 1 0.3783527 255 255 255 255
0.24047701 1 0.93295109 255 255 255 255
0.68144894 1 0.64443427 255 255 255 255
0.36785415 1 0.1673924 255 255 255 255
0.065503426 1 0.21997879 255 255 255 255
0.44268656 1 0.40439853 255 255 255 255
0.6265173 1 0.31049281 255 255 255 255
0.3378281 1 0.15270646 255 255 255 255
0.85285705 1 0.44981039 255 255 255 255
0.076628849 1 0.20531064 255 255 255 255
0.41297606 1 0.40513563 255 255 255 255
0.93374491 1 0.86954582 255 255 255 255
0.89628023 1 0.24579698 255 255 255 255
0.49196154 1 0.58057934 255 255 255 255
0.65282679 1 0.016890064 255 255 255 255
0.85993326 1 0.49346837 255 255 255 255
0.39524278 1 0.10041029 255 255 255 255
0.42641944 1 0.07669168 255 255 255 255
0.74484456 1 0.79427356 255 255 255 255
0.24408409 1 0.81034803 255 255 255 255
0.014252365 1 0.68677062 255 255 255 255
0.21474655 1 0.64076966 255 255 255 255
0.99726343 1 0.55257463 255 255 255 255
0.7934761 1 0.85012048 255 255 255 255
0.0023850556 1 0.87010497 255 255 255 255
0.055431116 1 0.41536111 255 255 255 255
0.2752406 1 0.98917603 255 255 255 255
0.28490689 1 0.1715208 255 255 255 255
0.23497303 1 0.77686846 255 255 255 255
0.75210011 1 0.8877998 255 255 255 255
0.79375851 1 0.61203343 255 255 255 255
0.38126817 1 0.18900126 255 255 255 255
0.71244371 1 0.80768758 255 255 255 255
0.26569295 1 0.4572883 255 255 255 255
0.6019612 1 0.50977701 255 255 255 255
0.2676363 1 0.61621356 255 255 255 255
0.19654766 1 0.48238286 255 255 255 255
0.25698319 1 0.19381109 255 255 255 255
0.034957513 1 0.050459299 255 255 255 255
0.043931566 1 0.037342567 255 255 255 255
0.92056423 1 0.099362679 255 255 255 255
0.45270365 1 0.19580483 255 255 255 255
0.088538721 1 0.73761058 255 255 255 255
0.36732563 1 0.32351175 255 255 255 255
0.51447898 1 0.11942577 255 255 255 255
0.21131153 1 0.30823749 255 255 255 255
0.7314592 1 0.59257972 255 255 255 255
0.49723879 1 0.44390288 255 255 255 255
0.4002673 1 0.7629317 255 255 255 255
0.90119117 1 0.0022284915 255 255 255 255
0.27270874 1 0.16882747 255 255 255 255
0.61844206 1 0.4692564 255 255 255 255
0.65121031 1 0.87542522 255 255 255 255
0.66306752 1 0.68616784 255 255 255 255
0.92588454 1 0.70699906 255 255 255 255
0.72351038 1 0.84644878 255 255 255 255
0.80636173 1 0.17621408 255 255 255 255
0.042253613 1 0.89490044 255 255 255 255
0.91382462 1 0.40957925 255 255 255 255
0.21841219 1 0.42830363 255 255 255 255
0.52900505 1 0.42972374 255 255 255 255
0.73654115 1 0.26046422 255 255 255 255
0.022303443 1 0.23377992 255 255 255 255
0.7043671 1 0.42257077 255 255 255 255
0.99671161 1 0.60555828 255 255 255 255
0.42479923 1 0.26942039 255 255 255 255
0.77438575 1 0.043241281 255 255 255 255
0.73867679 1 0.42559609 255 255 255 255
0.91866648 1 0.40174428 255 255 255 255
0.11176395 1 0.84455103 255 255 255 255
0.10874333 1 0.83527434 255 255 255 255
0.69099981 1 0.9151051 255 255 255 255
0.011488436 1 0.73325342 255 255 255 255
0.81000555 1 0.92531306 255 255 255 255
0.14283268 1 0.028417733 255 255 255 255
0.35361671 1 0.67183769 255 255 255 255
0.45814148 1 0.090157866 255 255 255 255
0.93230194 1 0.48044491 255 255 255 255
0.32393777 1 0.63666904 255 255 255 255
0.90301567 1 0.32064942 255 255 255 255
0.2422273 1 0.32781491 255 255 255 255
0.59006977 1 0.016613072 255 255 255 255
0.3710562 1 0.32874659 255 255 255 255
0.44220918 1 0.28972271 255 255 255 255
0.73049086 1 0.55397314 255 255 255 255
0.13427374 1 0.83923417 255 255 255 255
0.38924748 1 0.82527357 255 255 255 255
0.75433928 1 0.40073591 255 255 255 255
0.55852699 1 0.56434482 255 255 255 255
0.326049 1 0.70135969 255 255 255 255
0.59276253 1 0.67966568 255 255 255 255
0.37319738 1 0.050903998 255 255 255 255
0.76982355 1 0.30549929 255 255 255 255
0.53134888 1 0.093761355 255 255 255 255
0.9421683 1 0.43436459 255 255 255 255
0.41441077 1 0.18439563 255 255 255 255
0.76217949 1 0.0044805701 255 255 255 255
0.20100869 1 0.13323569 255 255 255 255
0.33322716 1 0.64321786 255 255 255 255
0.4229584 1 0.063717999 255 255 255 255
0.19719099 1 0.55723214 255 255 255 255
0.90295219 1 0.58643848 255 255 255 255
0.38250571 1 0.65729147 255 255 255 255
0.98717439 1 0.94103271 255 255 255 255
0.22163625 1 0.31322336 255 255 255 255
0.64239234 1 0.81439877 255 255 255 255
0.99288905 1 0.015589744 255 255 255 255
0.8653028 1 0.76271266 255 255 255 255
0.32108903 1 0.39665169 255 255 255 255
0.85647398 1 0.26325735 255 255 255 255
0.83101624 1 0.27088475 255 255 255 255
0.447653 1 0.59319574 255 255 255 255
0.27536532 1 0.64866167 255 255 255 255
0.72643143 1 0.60859251 255 255 255 255
0.29187956 1 0.14938985 255 255 255 255
0.67231047 1 0.48907053 255 255 255 255
0.706622 1 0.57526267 255 255 255 255
0.075508997 1 0.08912769 255 255 255 255
0.23255412 1 0.062683366 255 255 255 255
0.030160379 1 0.45419037 255 255 255 255
0.37590671 1 0.67255276 255 255 255 255
0.26858914 1 0.36879578 255 255 255 255
0.68814248 1 0.13389193 255 255 255 255
0.13150841 1 0.0092315301 255 255 255 255
0.53054363 1 0.98798239 255 255 255 255
0.27248889 1 0.3615599 255 255 255 255
0.25886717 1 0.72014189 255 255 255 255
0.95475566 1 0.5342325 255 255 255 255
0.36880356 1 0.68118709 255 255 255 255
0.77115476 0.63595349 0.02 255 255 255 255
1.2085185 0.62394148 0.02 255 255 255 255
1.1711093 0.60551095 0.02 255 255 255 255
1.2532858 1.3474857 0.02 255 255 255 255
0.5816918 0.90040952 0.02 255 255 255 255
0.66799468 1.2732626 0.02 255 255 255 255
1.0665659 1.4248164 0.02 255 255 255 255
0.69848901 0.69342029 0.02 255 255 255 255
0.69205725 0.69988126 0.02 255 255 255 255
0.89844716 1.4178361 0.02 255 255 255 255
0.76163739 0.64211279 0.02 255 255 255 255
1.38047 1.200356 0.02 255 255 255 255
0.77844989 0.63146842 0.02 255 255 255 255
0.79512316 1.3780549 0.02 255 255 255 255
0.75667143 1.3545295 0.02 255 255 255 255
1.4209843 1.0875914 0.02 255 255 255 255
1.4274966 1.0463324 0.02 255 255 255 255
0.57351929 1.0549018 0.02 255 255 255 255
1.2208453 1.3689544 0.02 255 255 255 255
1.4240917 1.0710367 0.02 255 255 255 255
1.4291228 1.0274512 0.02 255 255 255 255
1.2480489 1.3512431 0.02 255 255 255 255
0.86994547 1.4098607 0.02 255 255 255 255
0.70226038 1.3102436 0.02 255 255 255 255
0.63548928 1.2281051 0.02 255 255 255 255
1.4269252 1.0513313 0.02 255 255 255 255
0.80122286 1.3812973 0.02 255 255 255 255
1.404797 0.85495019 0.02 255 255 255 255
0.67241538 1.2785468 0.02 255 255 255 255
1.4295008 1.0207145 0.02 255 255 255 255
1.3658369 1.2259721 0.02 255 255 255 255
1.4101632 1.1290976 0.02 255 255 255 255
1.2263925 0.63442314 0.02 255 255 255 255
1.3528875 0.75429612 0.02 255 255 255 255
1.1372766 1.4074986 0.02 255 255 255 255
0.69509345 1.3032029 0.02 255 255 255 255
0.88367712 1.4139674 0.02 255 255 255 255
0.61866468 1.1987042 0.02 255 255 255 255
1.4299734 1.0047888 0.02 255 255 255 255
1.3722329 0.7847265 0.02 255 255 255 255
0.89697635 0.58252412 0.02 255 255 255 255
0.76563787 0.63948035 0.02 255 255 255 255
1.4296623 0.98296285 0.02 255 255 255 255
0.69528323 1.3033936 0.02 255 255 255 255
1.4286315 0.96572161 0.02 255 255 255 255
0.77090949 1.3638922 0.02 255 255 255 255
0.63987064 1.2349614 0.02 255 255 255 255
1.4298295 1.0121063 0.02 255 255 255 255
1.1807543 0.6098361 0.02 255 255 255 255
0.61343509 0.81167156 0.02 255 255 255 255
1.4219236 1.0829486 0.02 255 255 255 255
1.2052938 0.62217134 0.02 255 255 255 255
0.93084192 0.57559788 0.02 255 255 255 255
0.79332459 1.3770746 0.02 255 255 255 255
1.1304532 1.409734 0.02 255 255 255 255
1.2837607 1.3230788 0.02 255 255 255 255
0.74978912 1.3497063 0.02 255 255 255 255
0.57636839 0.92626917 0.02 255 255 255 255
1.3761114 1.2084231 0.02 255 255 255 255
0.96408284 0.57150269 0.02 255 255 255 255
0.58041203 0.90594703 0.02 255 255 255 255
1.2104596 1.3749757 0.02 255 255 255 255
1.0943862 0.58048689 0.02 255 255 255 255
0.69912755 1.3072064 0.02 255 255 255 255
1.3869803 1.1874733 0.02 255 255 255 255
1.4276931 0.95551825 0.02 255 255 255 255
0.99672574 0.57001245 0.02 255 255 255 255
0.71483141 1.3218367 0.02 255 255 255 255
0.64126551 1.2370856 0.02 255 255 255 255
1.0015148 0.57000268 0.02 255 255 255 255
0.9142645 1.4213661 0.02 255 255 255 255
1.3161293 1.2914828 0.02 255 255 255 255
0.63865703 1.2330906 0.02 255 255 255 255
0.93102694 1.4244322 0.02 255 255 255 255
0.57031637 1.016493 0.02 255 255 255 255
0.6583882 1.2611539 0.02 255 255 255 255
0.67756635 0.71550649 0.02 255 255 255 255
1.3508524 0.75139862 0.02 255 255 255 255
0.65117109 1.2514327 0.02 255 255 255 255
0.60632473 1.1729733 0.02 255 255 255 255
0.5757072 1.0698258 0.02 255 255 255 255
0.60922056 1.1794198 0.02 255 255 255 255
0.96403539 1.4284934 0.02 255 255 255 255
1.1371568 1.407539 0.02 255 255 255 255
1.030488 0.57108217 0.02 255 255 255 255
0.5807907 1.0957266 0.02 255 255 255 255
0.7843082 1.3719907 0.02 255 255 255 255
1.3310857 1.2743762 0.02 255 255 255 255
1.4294146 0.97757173 0.02 255 255 255 255
0.63103348 1.2208251 0.02 255 255 255 255
1.2457623 0.6471532 0.02 255 255 255 255
0.57607752 0.9279601 0.02 255 255 255 255
0.62684518 0.78632855 0.02 255 255 255 255
0.70970386 0.68278056 0.02 255 255 255 255
1.3480877 0.7475422 0.02 255 255 255 255
0.75733513 0.64501584 0.02 255 255 255 255
0.67844629 0.71451229 0.02 255 255 255 255
0.74489909 0.65384465 0.02 255 255 255 255
1.4266217 1.0537952 0.02 255 255 255 255
1.4256684 1.0608804 0.02 255 255 255 255
0.6529482 1.25388 0.02 255 255 255 255
0.86222303 1.4073297 0.02 255 255 255 255
1.2716761 1.3333049 0.02 255 255 255 255
1.1540178 0.59852952 0.02 255 255 255 255
0.62004429 0.79867023 0.02 255 255 255 255
0.71573991 0.67736059 0.02 255 255 255 255
1.1214681 1.412487 0.02 255 255 255 255
1.1517057 1.4023498 0.02 255 255 255 255
0.58153045 0.90108985 0.02 255 255 255 255
0.66026908 0.73640388 0.02 255 255 255 255
0.6992591 0.6926648 0.02 255 255 255 255
1.428977 1.029644 0.02 255 255 255 255
1.4187306 1.0977988 0.02 255 255 255 255
1.3314118 0.72601795 0.02 255 255 255 255
1.108735 1.4160249 0.02 255 255 255 255
1.1272418 0.58925736 0.02 255 255 255 255
0.73789871 1.3408855 0.02 255 255 255 255
0.58555675 0.8853842 0.02 255 255 255 255
1.3600602 0.76493269 0.02 255 255 255 255
0.75603557 1.3540924 0.02 255 255 255 255
1.4144784 0.88551152 0.02 255 255 255 255
1.0128988 0.57019353 0.02 255 255 255 255
1.2998388 0.69178468 0.02 255 255 255 255
0.58342433 0.89339465 0.02 255 255 255 255
0.67421538 1.2806499 0.02 255 255 255 255
1.0617651 0.57445908 0.02 255 255 255 255
1.1470814 1.4040632 0.02 255 255 255 255
1.429952 1.0064268 0.02 255 255 255 255
0.62079167 1.2027339 0.02 255 255 255 255
1.0953753 1.4192894 0.02 255 255 255 255
1.4247109 1.0672357 0.02 255 255 255 255
1.1863602 0.61248243 0.02 255 255 255 255
0.57225692 0.95600182 0.02 255 255 255 255
1.2162181 1.371685 0.02 255 255 255 255
0.70494395 0.68720305 0.02 255 255 255 255
1.3573611 1.2391506 0.02 255 255 255 255
1.135949 0.59205651 0.02 255 255 255 255
1.2167085 0.62860078 0.02 255 255 255 255
0.90230584 1.4187552 0.02 255 255 255 255
0.77385998 1.3657331 0.02 255 255 255 255
0.60111159 1.1605865 0.02 255 255 255 255
1.3676251 0.77694893 0.02 255 255 255 255
0.74918449 1.349273 0.02 255 255 255 255
0.57504183 1.0656549 0.02 255 255 255 255
1.141217 0.59385008 0.02 255 255 255 255
0.59865433 0.84565729 0.02 255 255 255 255
0.93696475 1.4253546 0.02 255 255 255 255
1.2359009 1.3595146 0.02 255 255 255 255
1.3456858 1.2557367 0.02 255 255 255 255
1.1797453 1.3906298 0.02 255 255 255 255
0.57010978 0.99028361 0.02 255 255 255 255
1.4012983 1.1544659 0.02 255 255 255 255
1.3958457 0.83205301 0.02 255 255 255 255
0.69327307 1.3013612 0.02 255 255 255 255
0.64952523 0.75086665 0.02 255 255 255 255
0.80970645 1.3856013 0.02 255 255 255 255
1.254178 1.3468336 0.02 255 255 255 255
1.1142261 0.58544916 0.02 255 255 255 255
0.8039645 1.382714 0.02 255 255 255 255
0.61232239 0.81397289 0.02 255 255 255 255
1.4295607 1.0194324 0.02 255 255 255 255
0.74653381 1.3473542 0.02 255 255 255 255
0.664334 1.2687533 0.02 255 255 255 255
0.5746823 0.93671638 0.02 255 255 255 255
0.57230163 0.95556903 0.02 255 255 255 255
1.4258268 1.0597627 0.02 255 255 255 255
0.68172634 0.71086013 0.02 255 255 255 255
0.82262689 1.3917127 0.02 255 255 255 255
1.2662237 0.66232419 0.02 255 255 255 255
1.353889 0.75574076 0.02 255 255 255 255
0.76011378 0.64313227 0.02 255 255 255 255
0.87914556 1.4126672 0.02 255 255 255 255
1.1758517 0.607602 0.02 255 255 255 255
1.4297941 1.0133075 0.02 255 255 255 255
1.0564288 0.57371867 0.02 255 255 255 255
0.68711829 0.7050339 0.02 255 255 255 255
0.60362303 0.83331078 0.02 255 255 255 255
1.413404 1.1183095 0.02 255 255 255 255
1.0749663 0.57658523 0.02 255 255 255 255
0.78048062 0.63025516 0.02 255 255 255 255
1.0653307 1.4250081 0.02 255 255 255 255
0.91548508 1.4216126 0.02 255 255 255 255
0.92795414 0.57607853 0.02 255 255 255 255
1.2261387 1.3657339 0.02 255 255 255 255
0.76480287 0.64002454 0.02 255 255 255 255
0.81311005 1.3872623 0.02 255 255 255 255
0.571953 1.0409362 0.02 255 255 255 255
1.1513246 0.5975067 0.02 255 255 255 255
1.3237027 1.2830486 0.02 255 255 255 255
1.1587105 0.60036141 0.02 255 255 255 255
0.68944216 1.2974119 0.02 255 255 255 255
1.3105806 1.2973882 0.02 255 255 255 255
1.2292752 1.3637758 0.02 255 255 255 255
1.0565425 0.57373369 0.02 255 255 255 255
0.73656833 0.66014159 0.02 255 255 255 255
0.80954009 0.61448085 0.02 255 255 255 255
1.1152375 0.58572918 0.02 255 255 255 255
0.96645755 1.4286897 0.02 255 255 255 255
1.4297563 0.9855237 0.02 255 255 255 255
0.74602264 0.65301943 0.02 255 255 255 255
1.2159097 1.3718642 0.02 255 255 255 255
0.74823564 0.65141046 0.02 255 255 255 255
1.4043761 0.85378128 0.02 255 255 255 255
1.4276439 0.95504761 0.02 255 255 255 255
0.75914401 0.64378601 0.02 255 255 255 255
0.90811229 0.57993257 0.02 255 255 255 255
0.65799671 0.73935896 0.02 255 255 255 255
1.0839365 1.4217283 0.02 255 255 255 255
1.0272355 0.57086343 0.02 255 255 255 255
0.68372548 1.2913252 0.02 255 255 255 255
1.3197818 0.71252888 0.02 255 255 255 255
1.4282926 0.96171981 0.02 255 255 255 255
0.77651972 0.63263565 0.02 255 255 255 255
0.66301364 0.73290414 0.02 255 255 255 255
1.2578 1.3441499 0.02 255 255 255 255
0.81469703 1.3880242 0.02 255 255 255 255
1.3870128 0.81259376 0.02 255 255 255 255
0.71060753 0.68195593 0.02 255 255 255 255
1.2979912 1.3100021 0.02 255 255 255 255
1.4147027 1.1136736 0.02 255 255 255 255
0.59759927 1.1515707 0.02 255 255 255 255
0.57036793 0.98221534 0.02 255 255 255 255
1.220915 1.3689127 0.02 255 255 255 255
0.65721327 0.74039012 0.02 255 255 255 255
0.92587566 1.423563 0.02 255 255 255 255
1.1562374 0.59938812 0.02 255 255 255 255
0.91907549 1.4223166 0.02 255 255 255 255
1.3882043 1.1849253 0.02 255 255 255 255
1.3872038 1.1870112 0.02 255 255 255 255
0.93333882 1.4248015 0.02 255 255 255 255
0.91993099 0.57752043 0.02 255 255 255 255
1.0326936 1.4287553 0.02 255 255 255 255
1.3834053 0.80531973 0.02 255 255 255 255
0.78104132 0.62992281 0.02 255 255 255 255
1.0773368 1.4229882 0.02 255 255 255 255
0.62396914 0.79143161 0.02 255 255 255 255
0.68526107 1.2929837 0.02 255 255 255 255
1.1948807 0.6166966 0.02 255 255 255 255
1.1311547 0.59048998 0.02 255 255 255 255
1.2724603 1.3326641 0.02 255 255 255 255
1.1163492 1.41396 0.02 255 255 255 255
0.8237642 0.60777438 0.02 255 255 255 255
1.3009937 1.3070877 0.02 255 255 255 255
1.2931917 0.68545485 0.02 255 255 255 255
0.89448184 1.4168524 0.02 255 255 255 255
0.93467897 1.4250096 0.02 255 255 255 255
1.1574928 1.40012 0.02 255 255 255 255
1.0867064 1.4211675 0.02 255 255 255 255
1.3583144 0.76227999 0.02 255 255 255 255
0.82068241 1.3908263 0.02 255 255 255 255
0.97228318 1.4291058 0.02 255 255 255 255
0.74847764 1.3487642 0.02 255 255 255 255
1.1953287 0.6169247 0.02 255 255 255 255
0.61761487 1.1966764 0.02 255 255 255 255
1.4110725 0.87382787 0.02 255 255 255 255
1.3436697 1.2584399 0.02 255 255 255 255
1.0442977 1.4277122 0.02 255 255 255 255
1.0465552 1.4274724 0.02 255 255 255 255
1.1991209 1.3811179 0.02 255 255 255 255
0.85387266 1.4044092 0.02 255 255 255 255
0.57047838 0.97972298 0.02 255 255 255 255
1.3373748 0.73339492 0.02 255 255 255 255
0.58565104 0.88504374 0.02 255 255 255 255
0.60784096 1.176384 0.02 255 255 255 255
0.59875447 0.84539717 0.02 255 255 255 255
1.0385603 0.57173246 0.02 255 255 255 255
1.428493 1.0359679 0.02 255 255 255 255
1.3990318 0.83977008 0.02 255 255 255 255
0.63571662 0.771532 0.02 255 255 255 255
1.1649491 0.60289568 0.02 255 255 255 255
1.3767978 1.2071797 0.02 255 255 255 255
1.1213781 0.58748651 0.02 255 255 255 255
0.57017577 1.0122947 0.02 255 255 255 255
1.1157939 1.4141157 0.02 255 255 255 255
0.78100675 0.62994331 0.02 255 255 255 255
1.0935565 0.58030111 0.02 255 255 255 255
0.57310021 1.051542 0.02 255 255 255 255
1.264133 0.66068631 0.02 255 255 255 255
1.429943 1.0070053 0.02 255 255 255 255
0.67276335 1.2789555 0.02 255 255 255 255
1.1982534 1.3815699 0.02 255 255 255 255
0.96529621 1.4285973 0.02 255 255 255 255
0.96515745 0.57141393 0.02 255 255 255 255
1.4299874 0.99671042 0.02 255 255 255 255
0.83482623 0.60298914 0.02 255 255 255 255
0.84093404 0.60050279 0.02 255 255 255 255
1.3456366 1.2558032 0.02 255 255 255 255
1.3778827 0.79480577 0.02 255 255 255 255
1.3799272 0.79861641 0.02 255 255 255 255
0.93333077 1.4248002 0.02 255 255 255 255
1.0645661 1.425125 0.02 255 255 255 255
0.61099923 1.183244 0.02 255 255 255 255
1.2110729 1.3746308 0.02 255 255 255 255
1.0514371 0.57308757 0.02 255 255 255 255
1.2796021 0.67331558 0.02 255 255 255 255
0.93773699 0.57453161 0.02 255 255 255 255
0.57942015 0.91048706 0.02 255 255 255 255
1.3059483 0.69784826 0.02 255 255 255 255
0.7836799 0.62837434 0.02 255 255 255 255
1.3087426 1.2992958 0.02 255 255 255 255
0.83832592 0.60155112 0.02 255 255 255 255
0.98949826 0.57012826 0.02 255 255 255 255
1.3742747 0.78829634 0.02 255 255 255 255
1.1730006 1.3936633 0.02 255 255 255 255
1.4111642 0.87412679 0.02 255 255 255 255
0.62719536 0.78571814 0.02 255 255 255 255
1.421873 0.91679406 0.02 255 255 255 255
0.60688812 1.1742499 0.02 255 255 255 255
0.60190982 1.1625552 0.02 255 255 255 255
1.4231725 0.92367816 0.02 255 255 255 255
1.1861225 0.61236823 0.02 255 255 255 255
0.67221177 0.7216928 0.02 255 255 255 255
1.0419199 1.4279518 0.02 255 255 255 255
0.59856153 0.84589893 0.02 255 255 255 255
0.67009234 0.72420847 0.02 255 255 255 255
1.3790172 0.79690897 0.02 255 255 255 255
1.0053309 1.4299669 0.02 255 255 255 255
0.89888412 0.58205789 0.02 255 255 255 255
1.2361653 0.64065897 0.02 255 255 255 255
1.2060783 1.3774012 0.02 255 255 255 255
1.4285656 0.96490657 0.02 255 255 255 255
1.3907282 1.1795312 0.02 255 255 255 255
0.65274149 0.74640286 0.02 255 255 255 255
1.2409434 1.3561548 0.02 255 255 255 255
1.2249814 0.63355303 0.02 255 255 255 255
0.58153385 1.0989246 0.02 255 255 255 255
1.3175132 0.71002531 0.02 255 255 255 255
0.70366412 1.3115847 0.02 255 255 255 255
0.77177042 1.3644328 0.02 255 255 255 255
0.58965921 0.87146807 0.02 255 255 255 255
0.57035458 1.017459 0.02 255 255 255 255
1.4235039 1.0744615 0.02 255 255 255 255
0.88152796 1.4133575 0.02 255 255 255 255
0.63462961 1.2267256 0.02 255 255 255 255
1.1022178 1.4176739 0.02 255 255 255 255
1.0077188 1.4299307 0.02 255 255 255 255
1.4297557 0.98550689 0.02 255 255 255 255
1.1811066 1.3900005 0.02 255 255 255 255
0.81872141 0.61007941 0.02 255 255 255 255
0.60761487 1.1758804 0.02 255 255 255 255
1.2474532 1.3516631 0.02 255 255 255 255
0.57003337 0.99464238 0.02 255 255 255 255
1.4129488 1.1198885 0.02 255 255 255 255
0.67413586 1.2805575 0.02 255 255 255 255
1.3994873 1.1590909 0.02 255 255 255 255
0.76006818 0.64316291 0.02 255 255 255 255
0.84528041 1.4012005 0.02 255 255 255 255
0.84587401 1.4014289 0.02 255 255 255 255
0.70959002 1.3171152 0.02 255 255 255 255
1.2502987 1.3496435 0.02 255 255 255 255
0.57380974 1.0571126 0.02 255 255 255 255
0.73643941 1.3397584 0.02 255 255 255 255
1.0814577 1.422214 0.02 255 255 255 255
1.3778646 1.2052275 0.02 255 255 255 255
0.57090741 0.97207934 0.02 255 255 255 255
1.4024314 1.1514894 0.02 255 255 255 255
0.58505672 0.88720787 0.02 255 255 255 255
0.66432816 1.268746 0.02 255 255 255 255
0.61289155 1.1872085 0.02 255 255 255 255
1.3158313 0.70819426 0.02 255 255 255 255
1.3791881 0.79722822 0.31999999 255 255 255 255
1.3615907 0.76729387 0.31999999 255 255 255 255
1.0396931 1.428164 0.31999999 255 255 255 255
0.78471947 1.3722289 0.31999999 255 255 255 255
1.3119913 1.2959079 0.31999999 255 255 255 255
0.57261747 1.0473727 0.31999999 255 255 255 255
0.79738772 1.3792733 0.31999999 255 255 255 255
0.86302203 1.4075991 0.31999999 255 255 255 255
1.2231321 1.3675759 0.31999999 255 255 255 255
1.0297564 0.5710308 0.31999999 255 255 255 255
0.58782977 1.1225386 0.31999999 255 255 255 255
0.78146482 0.62967259 0.31999999 255 255 255 255
1.1481775 0.5963375 0.31999999 255 255 255 255
1.232401 0.63821304 0.31999999 255 255 255 255
0.93398559 0.57509756 0.31999999 255 255 255 255
0.58233893 1.1022705 0.31999999 255 255 255 255
1.2539352 1.3470114 0.31999999 255 255 255 255
1.4203318 1.0906706 0.31999999 255 255 255 255
1.2066544 0.6229139 0.31999999 255 255 255 255
0.86564958 1.4084728 0.31999999 255 255 255 255
0.57134938 0.96596134 0.31999999 255 255 255 255
1.1712842 1.3944131 0.31999999 255 255 255 255
0.57347262 0.94546205 0.31999999 255 255 255 255
0.63956684 0.7655049 0.31999999 255 255 255 255
0.85468704 0.59529746 0.31999999 255 255 255 255
0.62003243 0.79869258 0.31999999 255 255 255 255
1.2863026 1.3208283 0.31999999 255 255 255 255
1.3663713 1.2251046 0.31999999 255 255 255 255
1.4297096 1.0158014 0.31999999 255 255 255 255
1.4280066 1.0413557 0.31999999 255 255 255 255
1.4231001 1.0767223 0.31999999 255 255 255 255
1.3863834 0.8112995 0.31999999 255 255 255 255
1.3822955 0.80314928 0.31999999 255 255 255 255
0.96266145 1.4283758 0.31999999 255 255 255 255
0.96990448 1.4289455 0.31999999 255 255 255 255
1.4128431 1.1202521 0.31999999 255 255 255 255
0.98991746 0.57011825 0.31999999 255 255 255 255
0.63583755 0.7713393 0.31999999 255 255 255 255
0.75449979 1.3530293 0.31999999 255 255 255 255
1.3622428 0.76831031 0.31999999 255 255 255 255
0.74668717 1.347466 0.31999999 255 255 255 255
1.1347165 0.59164786 0.31999999 255 255 255 255
0.61636329 0.80577618 0.31999999 255 255 255 255
1.2388923 1.3575338 0.31999999 255 255 255 255
0.72923678 0.66595322 0.31999999 255 255 255 255
0.86697555 1.4089065 0.31999999 255 255 255 255
0.68292749 0.70954341 0.31999999 255 255 255 255
1.1096786 0.58422285 0.31999999 255 255 255 255
0.78374374 1.3716627 0.31999999 255 255 255 255
0.59290332 1.138464 0.31999999 255 255 255 255
1.3606937 1.2340941 0.31999999 255 255 255 255
1.2449982 0.64662218 0.31999999 255 255 255 255
0.71083444 0.68174964 0.31999999 255 255 255 255
0.67190993 0.7220487 0.31999999 255 255 255 255
0.60192823 1.1626003 0.31999999 255 255 255 255
0.7981925 1.3797022 0.31999999 255 255 255 255
1.1597905 1.3992079 0.31999999 255 255 255 255
0.61363775 0.81125623 0.31999999 255 255 255 255
0.62928098 1.2178702 0.31999999 255 255 255 255
1.1450127 1.4048102 0.31999999 255 255 255 255
0.63358146 0.77497238 0.31999999 255 255 255 255
0.59635645 1.148229 0.31999999 255 255 255 255
1.3079498 1.3001115 0.31999999 255 255 255 255
0.57121629 0.96768087 0.31999999 255 255 255 255
0.88738084 0.58500969 0.31999999 255 255 255 255
0.67907113 1.2861899 0.31999999 255 255 255 255
0.59736288 0.84905839 0.31999999 255 255 255 255
0.5877645 1.1223187 0.31999999 255 255 255 255
1.4239782 0.92828876 0.31999999 255 255 255 255
1.3538007 0.75561285 0.31999999 255 255 255 255
0.71862924 1.3251623 0.31999999 255 255 255 255
0.80818164 1.384845 0.31999999 255 255 255 255
0.87876004 0.58744591 0.31999999 255 255 255 255
1.3979032 0.83698761 0.31999999 255 255 255 255
0.57344401 1.0543139 0.31999999 255 255 255 255
0.75584871 1.3539635 0.31999999 255 255 255 255
1.0319209 1.4288136 0.31999999 255 255 255 255
1.351221 1.2480804 0.31999999 255 255 255 255
1.2799809 1.3263597 0.31999999 255 255 255 255
0.61330897 0.81193072 0.31999999 255 255 255 255
0.5876022 0.87822962 0.31999999 255 255 255 255
1.0571824 1.426181 0.31999999 255 255 255 255
0.62512058 1.210631 0.31999999 255 255 255 255
1.1872042 1.3871106 0.31999999 255 255 255 255
1.2318524 0.63786131 0.31999999 255 255 255 255
1.2673961 0.66325182 0.31999999 255 255 255 255
0.57031178 0.98362797 0.31999999 255 255 255 255
1.4223639 1.0806768 0.31999999 255 255 255 255
0.61192828 1.1852036 0.31999999 255 255 255 255
1.3787456 0.79640275 0.31999999 255 255 255 255
1.0664868 1.4248288 0.31999999 255 255 255 255
1.4276106 1.0452672 0.31999999 255 255 255 255
0.71465302 1.3216786 0.31999999 255 255 255 255
0.75111294 1.3506497 0.31999999 255 255 255 255
0.57700115 0.92272133 0.31999999 255 255 255 255
1.3851837 1.1911373 0.31999999 255 255 255 255
0.95237809 0.57264519 0.31999999 255 255 255 255
1.3689545 1.220845 0.31999999 255 255 255 255
0.5763579 0.92632937 0.31999999 255 255 255 255
0.88177502 0.58657181 0.31999999 255 255 255 255
1.4290885 0.97201693 0.31999999 255 255 255 255
1.3329196 0.72785193 0.31999999 255 255 255 255
1.4227524 1.0786158 0.31999999 255 255 255 255
0.85216939 0.5962103 0.31999999 255 255 255 255
1.2048982 0.62195671 0.31999999 255 255 255 255
0.57070357 0.97541225 0.31999999 255 255 255 255
1.4163252 1.1075795 0.31999999 255 255 255 255
1.3922107 1.1762691 0.31999999 255 255 255 255
0.66353905 0.73224264 0.31999999 255 255 255 255
1.1894267 1.3860279 0.31999999 255 255 255 255
0.72438705 0.66994321 0.31999999 255 255 255 255
1.2468624 1.3520781 0.31999999 255 255 255 255
0.64259106 1.2390792 0.31999999 255 255 255 255
1.4019578 1.1527417 0.31999999 255 255 255 255
0.7905128 1.3755198 0.31999999 255 255 255 255
1.0086365 1.4299133 0.31999999 255 255 255 255
1.3695751 0.78019512 0.31999999 255 255 255 255
1.2236331 0.63272858 0.31999999 255 255 255 255
0.92782253 1.4238991 0.31999999 255 255 255 255
0.76113236 1.3575504 0.31999999 255 255 255 255
1.0230803 0.57061988 0.31999999 255 255 255 255
0.57003868 0.9942342 0.31999999 255 255 255 255
0.72481936 1.3304174 0.31999999 255 255 255 255
1.3058988 1.3022019 0.31999999 255 255 255 255
1.2535665 0.65271908 0.31999999 255 255 255 255
1.3300821 0.72441733 0.31999999 255 255 255 255
1.1396865 1.4066789 0.31999999 255 255 255 255
0.62677336 0.78645408 0.31999999 255 255 255 255
1.4247589 0.93306839 0.31999999 255 255 255 255
0.93205398 0.57540214 0.31999999 255 255 255 255
0.89729965 1.4175556 0.31999999 255 255 255 255
1.419503 0.9055686 0.31999999 255 255 255 255
0.67866504 0.71426612 0.31999999 255 255 255 255
0.82269001 1.3917412 0.31999999 255 255 255 255
0.76710278 0.63853234 0.31999999 255 255 255 255
0.59567273 1.1463537 0.31999999 255 255 255 255
1.1994199 0.61903846 0.31999999 255 255 255 255
0.86494303 0.59176034 0.31999999 255 255 255 255
0.57121134 0.96774673 0.31999999 255 255 255 255
0.60673881 1.1739126 0.31999999 255 255 255 255
1.3069966 0.69891346 0.31999999 255 255 255 255
1.2500798 1.3498001 0.31999999 255 255 255 255
0.63183188 0.77784634 0.31999999 255 255 255 255
0.91223294 1.4209477 0.31999999 255 255 255 255
1.1095172 1.4158196 0.31999999 255 255 255 255
1.3733712 0.78670704 0.31999999 255 255 255 255
0.57737446 0.92070526 0.31999999 255 255 255 255
1.3066838 1.3014052 0.31999999 255 255 255 255
1.0120038 0.57016754 0.31999999 255 255 255 255
1.1491091 0.5966807 0.31999999 255 255 255 255
0.57901317 1.0875789 0.31999999 255 255 255 255
0.57143152 0.96494204 0.31999999 255 255 255 255
0.84549612 1.4012836 0.31999999 255 255 255 255
1.2021159 0.62046188 0.31999999 255 255 255 255
0.71975815 0.67386431 0.31999999 255 255 255 255
1.2329793 1.3614148 0.31999999 255 255 255 255
0.91190875 0.57912004 0.31999999 255 255 255 255
1.2174106 0.62901127 0.31999999 255 255 255 255
0.97726637 0.5706014 0.31999999 255 255 255 255
0.8474704 0.59796178 0.31999999 255 255 255 255
0.59931815 0.84394217 0.31999999 255 255 255 255
1.4224012 1.0804812 0.31999999 255 255 255 255
0.76290309 0.64127302 0.31999999 255 255 255 255
1.1957257 1.3828726 0.31999999 255 255 255 255
0.75250292 1.3516321 0.31999999 255 255 255 255
0.82686269 1.3936032 0.31999999 255 255 255 255
0.68564636 0.70660305 0.31999999 255 255 255 255
1.1967499 1.3823473 0.31999999 255 255 255 255
1.4280647 1.0407505 0.31999999 255 255 255 255
1.2914611 1.3161494 0.31999999 255 255 255 255
0.66542047 0.72989535 0.31999999 255 255 255 255
1.3341485 0.72936237 0.31999999 255 255 255 255
0.91232437 1.4209667 0.31999999 255 255 255 255
1.1469226 1.4041209 0.31999999 255 255 255 255
1.1967374 1.3823538 0.31999999 255 255 255 255
0.57058549 1.0224322 0.31999999 255 255 255 255
1.3280299 1.2780223 0.31999999 255 255 255 255
0.87714511 0.58792394 0.31999999 255 255 255 255
0.67801017 0.71500427 0.31999999 255 255 255 255
1.2870711 0.67985916 0.31999999 255 255 255 255
0.57089067 0.97233808 0.31999999 255 255 255 255
1.3732862 1.2134417 0.31999999 255 255 255 255
0.6877833 1.29567 0.31999999 255 255 255 255
1.1799984 0.60948682 0.31999999 255 255 255 255
1.363852 0.77084559 0.31999999 255 255 255 255
1.4277319 1.0441067 0.31999999 255 255 255 255
1.4257516 0.93970364 0.31999999 255 255 255 255
0.7011658 0.6908105 0.31999999 255 255 255 255
1.2543174 0.65326864 0.31999999 255 255 255 255
0.91727906 0.57803172 0.31999999 255 255 255 255
0.81691867 1.3890774 0.31999999 255 255 255 255
0.63718474 1.2307923 0.31999999 255 255 255 255
0.99771875 0.57000607 0.31999999 255 255 255 255
1.4255363 0.93820274 0.31999999 255 255 255 255
0.62935728 0.78200001 0.31999999 255 255 255 255
1.3529402 1.2456282 0.31999999 255 255 255 255
0.88522637 1.4143996 0.31999999 255 255 255 255
1.1222147 1.4122664 0.31999999 255 255 255 255
0.94308299 1.4262165 0.31999999 255 255 255 255
0.84647077 1.4016576 0.31999999 255 255 255 255
0.77972829 1.3692971 0.31999999 255 255 255 255
1.3120148 0.70411694 0.31999999 255 255 255 255
1.1334933 1.4087536 0.31999999 255 255 255 255
0.68337369 0.70905703 0.31999999 255 255 255 255
1.384685 1.192139 0.31999999 255 255 255 255
0.69761556 1.3057182 0.31999999 255 255 255 255
1.331373 1.274029 0.31999999 255 255 255 255
1.1692309 1.3952985 0.31999999 255 255 255 255
1.3793688 1.2024335 0.31999999 255 255 255 255
0.93348461 0.57517564 0.31999999 255 255 255 255
1.4072849 1.1379095 0.31999999 255 255 255 255
0.63443953 0.77358103 0.31999999 255 255 255 255
1.1531303 0.59819019 0.31999999 255 255 255 255
0.60944927 1.179917 0.31999999 255 255 255 255
0.64134902 1.2372119 0.31999999 255 255 255 255
0.91544241 0.5783959 0.31999999 255 255 255 255
0.59305453 1.1389078 0.31999999 255 255 255 255
0.67815536 1.2851597 0.31999999 255 255 255 255
0.75561178 1.3537999 0.31999999 255 255 255 255
0.87132627 1.4102963 0.31999999 255 255 255 255
1.3417479 1.2609758 0.31999999 255 255 255 255
0.78392398 0.62823236 0.31999999 255 255 255 255
0.88835257 0.58474725 0.31999999 255 255 255 255
1.2591591 0.65687239 0.31999999 255 255 255 255
0.73273867 0.66314483 0.31999999 255 255 255 255
0.88571209 1.4145339 0.31999999 255 255 255 255
1.4087197 0.86640275 0.31999999 255 255 255 255
1.3959702 0.8323468 0.31999999 255 255 255 255
0.57007903 1.0082444 0.31999999 255 255 255 255
1.0783213 1.422807 0.31999999 255 255 255 255
1.0152237 1.4297304 0.31999999 255 255 255 255
1.2131507 0.62654752 0.31999999 255 255 255 255
1.3477648 1.2529024 0.31999999 255 255 255 255
0.59622884 1.1478812 0.31999999 255 255 255 255
0.5903663 1.1307677 0.31999999 255 255 255 255
1.1981105 1.3816441 0.31999999 255 255 255 255
1.1788005 0.60893685 0.31999999 255 255 255 255
0.6009866 0.83972418 0.31999999 255 255 255 255
0.72712332 1.3323226 0.31999999 255 255 255 255
1.3418502 0.73915821 0.31999999 255 255 255 255
0.90337545 1.4190032 0.31999999 255 255 255 255
0.63495588 1.2272505 0.31999999 255 255 255 255
0.5720315 1.0417489 0.31999999 255 255 255 255
1.3571244 1.239504 0.31999999 255 255 255 255
1.2364696 0.64085919 0.31999999 255 255 255 255
1.3339256 0.72908729 0.31999999 255 255 255 255
1.1646005 0.60275114 0.31999999 255 255 255 255
0.89222586 1.4162748 0.31999999 255 255 255 255
0.92972398 1.4242184 0.31999999 255 255 255 255
1.2333027 1.3612061 0.31999999 255 255 255 255
0.63505036 0.77259779 0.31999999 255 255 255 255
0.68668038 1.2945009 0.31999999 255 255 255 255
1.195055 0.61678523 0.31999999 255 255 255 255
0.87515426 1.4114773 0.31999999 255 255 255 255
1.046167 1.4275144 0.31999999 255 255 255 255
0.57856154 1.0853795 0.31999999 255 255 255 255
0.63650495 0.77027988 0.31999999 255 255 255 255
1.176707 1.3920135 0.31999999 255 255 255 255
0.64520246 1.2429377 0.31999999 255 255 255 255
1.3678327 1.2227086 0.31999999 255 255 255 255
0.64672995 1.2451535 0.31999999 255 255 255 255
0.74465358 0.65402573 0.31999999 255 255 255 255
1.3757555 0.79093593 0.31999999 255 255 255 255
0.57010508 0.9904952 0.31999999 255 255 255 255
1.3587549 1.2370546 0.31999999 255 255 255 255
0.70562023 1.3134335 0.31999999 255 255 255 255
0.81037402 0.61407 0.31999999 255 255 255 255
1.3647648 0.7723015 0.31999999 255 255 255 255
1.3899937 0.81887859 0.31999999 255 255 255 255
1.4185996 1.0983586 0.31999999 255 255 255 255
1.1518644 0.59771007 0.31999999 255 255 255 255
1.0888546 1.4207195 0.31999999 255 255 255 255
0.59265268 1.1377249 0.31999999 255 255 255 255
0.88791168 1.415134 0.31999999 255 255 255 255
0.83946079 1.3989074 0.31999999 255 255 255 255
0.89101702 1.41596 0.31999999 255 255 255 255
1.1745023 1.3929999 0.31999999 255 255 255 255
1.3070713 1.3010104 0.31999999 255 255 255 255
0.6246323 0.79024035 0.31999999 255 255 255 255
0.58376479 1.1079271 0.31999999 255 255 255 255
0.91375297 1.4212618 0.31999999 255 255 255 255
1.2076523 1.3765374 0.31999999 255 255 255 255
1.2293724 0.63628536 0.31999999 255 255 255 255
1.3363042 1.2679543 0.31999999 255 255 255 255
0.57939273 1.0893841 0.31999999 255 255 255 255
1.3862389 1.1889961 0.31999999 255 255 255 255
0.61718768 0.80415636 0.31999999 255 255 255 255
1.403307 1.1491426 0.31999999 255 255 255 255
0.98642349 1.4297856 0.31999999 255 255 255 255
1.4265085 0.94531471 0.31999999 255 255 255 255
1.2677538 1.3364638 0.31999999 255 255 255 255
0.76612258 0.63916576 0.31999999 255 255 255 255
0.70272756 0.6893087 0.31999999 255 255 255 255
1.3975638 1.1638383 0.31999999 255 255 255 255
1.2258441 1.3659159 0.31999999 255 255 255 255
0.92326248 0.57690269 0.31999999 255 255 255 255
0.60840201 1.177626 0.31999999 255 255 255 255
1.2288185 0.63593668 0.31999999 255 255 255 255
0.71086103 0.68172556 0.31999999 255 255 255 255
0.71965373 1.326046 0.31999999 255 255 255 255
1.3060282 0.69792926 0.31999999 255 255 255 255
0.60011971 1.1581005 0.31999999 255 255 255 255
0.6230607 0.79307789 0.31999999 255 255 255 255
0.80684406 1.3841754 0.31999999 255 255 255 255
0.9516024 0.57273233 0.31999999 255 255 255 255
1.332689 0.72757024 0.31999999 255 255 255 255
0.67732346 0.71578205 0.31999999 255 255 255 255
1.370862 0.78237337 0.31999999 255 255 255 255
1.428287 1.0383431 0.31999999 255 255 255 255
1.1430348 1.4055133 0.31999999 255 255 255 255
0.69563252 1.3037441 0.31999999 255 255 255 255
0.87653267 1.411893 0.31999999 255 255 255 255
0.71397799 1.3210785 0.31999999 255 255 255 255
1.0945643 1.4194729 0.31999999 255 255 255 255
0.64676499 1.2452041 0.31999999 255 255 255 255
1.2130318 0.62647963 0.31999999 255 255 255 255
0.90057129 1.4183466 0.31999999 255 255 255 255
1.4261497 0.94258535 0.31999999 255 255 255 255
1.3293606 0.72355539 0.31999999 255 255 255 255
0.58500117 0.88741225 0.31999999 255 255 255 255
1.4153877 0.88885605 0.31999999 255 255 255 255
1.421398 1.0855786 0.31999999 255 255 255 255
1.1312402 1.4094826 0.31999999 255 255 255 255
0.63252378 0.77670377 0.31999999 255 255 255 255
1.3570037 1.2396839 0.31999999 255 255 255 255
0.72047371 1.3267492 0.31999999 255 255 255 255
0.84586787 1.4014266 0.31999999 255 255 255 255
0.57586968 0.92919403 0.31999999 255 255 255 255
1.1278991 1.4105384 0.31999999 255 255 255 255
1.4007661 0.84415859 0.31999999 255 255 255 255
1.3302078 0.72456795 0.31999999 255 255 255 255
1.3794242 1.2023296 0.31999999 255 255 255 255
0.68460494 1.2922772 0.31999999 255 255 255 255
0.57799697 1.0825436 0.31999999 255 255 255 255
0.64879507 1.248103 0.31999999 255 255 255 255
1.3259186 1.2804945 0.31999999 255 255 255 255
0.72579426 1.3312268 0.31999999 255 255 255 255
1.4275371 1.0459574 0.31999999 255 255 255 255
1.4230555 1.076968 0.31999999 255 255 255 255
0.69735122 1.3054565 0.31999999 255 255 255 255
1.098875 1.4184779 0.31999999 255 255 255 255
0.64617932 1.2443582 0.31999999 255 255 255 255
0.79430658 0.62238884 0.31999999 255 255 255 255
0.62175655 0.79547161 0.31999999 255 255 255 255
0.6838128 0.7085799 0.31999999 255 255 255 255
1.3843021 1.1929038 0.31999999 255 255 255 255
0.63494551 1.2272339 0.31999999 255 255 255 255
1.3566343 0.75976676 0.31999999 255 255 255 255
1.406618 1.1398635 0.31999999 255 255 255 255
0.86647224 1.4087424 0.31999999 255 255 255 255
0.59290683 1.1384742 0.31999999 255 255 255 255
1.4289515 1.0300103 0.31999999 255 255 255 255
0.78779554 1.373991 0.31999999 255 255 255 255
0.74388427 0.65459484 0.31999999 255 255 255 255
0.64900392 0.75160158 0.31999999 255 255 255 255
0.6153549 1.192219 0.31999999 255 255 255 255
1.4289581 1.0299168 0.31999999 255 255 255 255
1.357706 0.76136535 0.31999999 255 255 255 255
1.4110464 0.87374282 0.31999999 255 255 255 255
1.0990263 1.4184421 0.31999999 255 255 255 255
1.2347801 0.63975239 0.56999999 255 255 255 255
0.89048773 1.415821 0.56999999 255 255 255 255
1.0581986 1.4260434 0.56999999 255 255 255 255
0.83874005 1.3986167 0.56999999 255 255 255 255
0.84952283 0.59718907 0.56999999 255 255 255 255
0.7661981 1.3608832 0.56999999 255 255 255 255
0.79578102 0.62158936 0.56999999 255 255 255 255
0.89343613 0.58341372 0.56999999 255 255 255 255
0.7053777 1.3132055 0.56999999 255 255 255 255
1.4125457 1.1212685 0.56999999 255 255 255 255
1.3809202 0.80050099 0.56999999 255 255 255 255
1.0644397 0.57485586 0.56999999 255 255 255 255
0.90914994 0.57970691 0.56999999 255 255 255 255
0.57003778 0.99430281 0.56999999 255 255 255 255
0.664487 1.2689443 0.56999999 255 255 255 255
1.1073539 0.58361661 0.56999999 255 255 255 255
1.3680332 0.77762282 0.56999999 255 255 255 255
0.87198585 1.4105026 0.56999999 255 255 255 255
1.236951 0.64117658 0.56999999 255 255 255 255
1.0970985 1.4188936 0.56999999 255 255 255 255
0.98899919 0.57014072 0.56999999 255 255 255 255
1.261416 0.65858865 0.56999999 255 255 255 255
0.58775073 0.87772757 0.56999999 255 255 255 255
0.66126019 1.2648685 0.56999999 255 255 255 255
0.58939064 1.1276714 0.56999999 255 255 255 255
1.423425 0.92509151 0.56999999 255 255 255 255
0.64365309 1.2406592 0.56999999 255 255 255 255
0.72927779 1.3340801 0.56999999 255 255 255 255
1.3827662 0.80406642 0.56999999 255 255 255 255
0.68374497 0.70865357 0.56999999 255 255 255 255
1.1180742 1.4134712 0.56999999 255 255 255 255
1.0448406 0.57234436 0.56999999 255 255 255 255
1.3622832 0.76837337 0.56999999 255 255 255 255
0.60631412 1.1729492 0.56999999 255 255 255 255
1.3796271 1.2019485 0.56999999 255 255 255 255
0.65623927 0.74168128 0.56999999 255 255 255 255
1.0689069 0.57555699 0.56999999 255 255 255 255
0.9974243 0.57000774 0.56999999 255 255 255 255
0.83493114 1.3970544 0.56999999 255 255 255 255
1.2619449 1.3410057 0.56999999 255 255 255 255
1.118795 0.58673525 0.56999999 255 255 255 255
1.0379859 1.4283189 0.56999999 255 255 255 255
1.3764099 0.79211646 0.56999999 255 255 255 255
0.57096547 0.97120088 0.56999999 255 255 255 255
0.96769238 0.57121545 0.56999999 255 255 255 255
0.83632249 1.3976301 0.56999999 255 255 255 255
0.86500001 1.4082586 0.56999999 255 255 255 255
0.7505995 0.64971524 0.56999999 255 255 255 255
0.66912758 0.72536665 0.56999999 255 255 255 255
1.2662892 1.3376242 0.56999999 255 255 255 255
1.2849201 0.67794323 0.56999999 255 255 255 255
0.73392135 1.3377901 0.56999999 255 255 255 255
1.4299557 0.99382836 0.56999999 255 255 255 255
0.63526332 1.2277436 0.56999999 255 255 255 255
1.0015382 0.57000273 0.56999999 255 255 255 255
0.59126532 1.1335514 0.56999999 255 255 255 255
0.68051469 1.2878006 0.56999999 255 255 255 255
1.2393829 1.3572056 0.56999999 255 255 255 255
1.1535738 0.59835947 0.56999999 255 255 255 255
0.8467477 1.4017633 0.56999999 255 255 255 255
1.0659641 0.57508975 0.56999999 255 255 255 255
1.4283719 1.0373834 0.56999999 255 255 255 255
1.3835917 1.1943127 0.56999999 255 255 255 255
0.82669103 0.60647237 0.56999999 255 255 255 255
0.59276885 1.138068 0.56999999 255 255 255 255
1.2473968 1.3517027 0.56999999 255 255 255 255
0.90214247 1.418717 0.56999999 255 255 255 255
1.0710253 1.4240936 0.56999999 255 255 255 255
1.3502145 0.75050086 0.56999999 255 255 255 255
0.65092975 0.7489025 0.56999999 255 255 255 255
0.70694494 1.3146725 0.56999999 255 255 255 255
0.85696393 0.59448713 0.56999999 255 255 255 255
1.2192792 0.63011271 0.56999999 255 255 255 255
0.89559633 1.417133 0.56999999 255 255 255 255
1.1155558 1.4141822 0.56999999 255 255 255 255
0.61468285 0.80913168 0.56999999 255 255 255 255
0.65400916 0.74467599 0.56999999 255 255 255 255
0.57048041 0.97967905 0.56999999 255 255 255 255
1.0680001 1.4245892 0.56999999 255 255 255 255
1.1031588 1.4174426 0.56999999 255 255 255 255
0.7499637 0.65016884 0.56999999 255 255 255 255
1.3630614 1.2304049 0.56999999 255 255 255 255
0.60824114 0.82272905 0.56999999 255 255 255 255
0.74496859 0.65379345 0.56999999 255 255 255 255
0.5700115 0.99685538 0.56999999 255 255 255 255
0.82132876 1.3911222 0.56999999 255 255 255 255
1.3499454 1.2498763 0.56999999 255 255 255 255
1.3215812 0.71454334 0.56999999 255 255 255 255
0.57562351 1.0693153 0.56999999 255 255 255 255
1.3583788 0.76237708 0.56999999 255 255 255 255
1.1520996 1.4022011 0.56999999 255 255 255 255
1.0033937 1.4299866 0.56999999 255 255 255 255
1.3776803 0.79443359 0.56999999 255 255 255 255
0.95393342 1.4275253 0.56999999 255 255 255 255
1.3921475 0.82359058 0.56999999 255 255 255 255
0.70832312 1.3159503 0.56999999 255 255 255 255
0.62381744 1.2082946 0.56999999 255 255 255 255
1.0825372 1.4220043 0.56999999 255 255 255 255
0.64021176 0.76451659 0.56999999 255 255 255 255
0.81447613 1.3879187 0.56999999 255 255 255 255
1.1794252 0.60922313 0.56999999 255 255 255 255
1.4175299 0.89719564 0.56999999 255 255 255 255
1.4275409 1.045921 0.56999999 255 255 255 255
0.75535089 0.64638042 0.56999999 255 255 255 255
0.99835211 1.4299968 0.56999999 255 255 255 255
1.0706631 1.4241542 0.56999999 255 255 255 255
1.0622622 1.4254684 0.56999999 255 255 255 255
1.2566483 0.65499032 0.56999999 255 255 255 255
0.94946051 0.5729804 0.56999999 255 255 255 255
0.58973145 1.1287621 0.56999999 255 255 255 255
1.3965052 1.1663837 0.56999999 255 255 255 255
0.68198121 1.2894201 0.56999999 255 255 255 255
0.58460438 0.88888526 0.56999999 255 255 255 255
0.70735008 0.68495077 0.56999999 255 255 255 255
1.4216371 1.0843929 0.56999999 255 255 255 255
1.414572 1.1141495 0.56999999 255 255 255 255
1.4081647 0.86471689 0.56999999 255 255 255 255
1.2940981 1.3136977 0.56999999 255 255 255 255
1.3858217 0.8101536 0.56999999 255 255 255 255
0.61898059 1.1993093 0.56999999 255 255 255 255
1.4184659 1.0989258 0.56999999 255 255 255 255
1.314046 1.2937263 0.56999999 255 255 255 255
0.79768991 0.62056535 0.56999999 255 255 255 255
1.4148422 0.88683683 0.56999999 255 255 255 255
0.67431992 1.2807713 0.56999999 255 255 255 255
0.65983433 0.73696518 0.56999999 255 255 255 255
0.80175358 1.3815736 0.56999999 255 255 255 255
1.1489117 0.5966078 0.56999999 255 255 255 255
1.1928499 0.61567086 0.56999999 255 255 255 255
1.3748394 0.78929776 0.56999999 255 255 255 255
1.2996668 1.3083826 0.56999999 255 255 255 255
0.73119837 0.66437268 0.56999999 255 255 255 255
1.3135945 0.70579165 0.56999999 255 255 255 255
1.2650199 1.3386214 0.56999999 255 255 255 255
0.87692499 1.4120103 0.56999999 255 255 255 255
1.2930043 1.3147197 0.56999999 255 255 255 255
0.70953369 1.3170636 0.56999999 255 255 255 255
0.57451081 0.93787938 0.56999999 255 255 255 255
1.4273962 0.95275074 0.56999999 255 255 255 255
1.3490056 1.2511874 0.56999999 255 255 255 255
1.4245666 0.93185872 0.56999999 255 255 255 255
1.4123869 1.1218076 0.56999999 255 255 255 255
0.57281619 1.0491323 0.56999999 255 255 255 255
0.57224518 0.95611614 0.56999999 255 255 255 255
0.80858237 0.61495548 0.56999999 255 255 255 255
0.57148147 0.96433663 0.56999999 255 255 255 255
0.59924215 0.84413737 0.56999999 255 255 255 255
0.69716299 0.69473004 0.56999999 255 255 255 255
0.73293245 0.66299123 0.56999999 255 255 255 255
0.57160228 1.0370865 0.56999999 255 255 255 255
1.409837 1.1301291 0.56999999 255 255 255 255
0.81762868 0.61058927 0.56999999 255 255 255 255
0.66179103 0.73445398 0.56999999 255 255 255 255
0.92200309 0.577133 0.56999999 255 255 255 255
0.72157586 0.67231113 0.56999999 255 255 255 255
1.4295479 0.98028767 0.56999999 255 255 255 255
0.80303061 1.3822343 0.56999999 255 255 255 255
1.4191489 0.90400922 0.56999999 255 255 255 255
1.1302624 0.59020525 0.56999999 255 255 255 255
1.2532982 1.3474767 0.56999999 255 255 255 255
1.3183442 0.71093774 0.56999999 255 255 255 255
1.3846719 0.80783457 0.56999999 255 255 255 255
1.1128736 0.5850789 0.56999999 255 255 255 255
1.0343872 0.57137716 0.56999999 255 255 255 255
1.3884116 1.1844895 0.56999999 255 255 255 255
1.3652555 1.2269106 0.56999999 255 255 255 255
1.3371433 0.7331022 0.56999999 255 255 255 255
0.60159206 1.1617749 0.56999999 255 255 255 255
0.6713571 0.72270262 0.56999999 255 255 255 255
1.3057745 0.69767237 0.56999999 255 255 255 255
0.58213395 0.89857042 0.56999999 255 255 255 255
