# .PCD v0.7 - Point Cloud Data file format
VERSION 0.7
FIELDS x y z rgba
SIZE 4 4 4 4
TYPE F F F U
COUNT 1 1 1 1
WIDTH 1292
HEIGHT 1
VIEWPOINT 0 0 0 1 0 0 0
POINTS 1292
DATA ascii
0 0.0768726 0.0243099 255 255 255 255 
0 0.403851 0.492952 255 255 255 255 
0 0.3751 0.149116 255 255 255 255 
0 0.955965 0.269381 255 255 255 255 
0 0.682369 0.0522034 255 255 255 255 
0 0.375703 0.462469 255 255 255 255 
0 0.598453 0.769959 255 255 255 255 
0 0.485779 0.498935 255 255 255 255 
0 0.603667 0.914776 255 255 255 255 
0 0.0118989 0.619464 255 255 255 255 
0 0.771244 0.966087 255 255 255 255 
0 0.273053 0.9206 255 255 255 255 
0 0.360186 0.959376 255 255 255 255 
0 0.659755 0.542148 255 255 255 255 
0 0.000610814 0.652639 255 255 255 255 
0 0.710483 0.0774834 255 255 255 255 
0 0.676949 0.114335 255 255 255 255 
0 0.570435 0.0520486 255 255 255 255 
0 0.263451 0.526401 255 255 255 255 
0 0.321429 0.94582 255 255 255 255 
0 0.578604 0.697132 255 255 255 255 
0 0.408289 0.177057 255 255 255 255 
0 0.467091 0.894068 255 255 255 255 
0 0.675991 0.0707587 255 255 255 255 
0 0.808844 0.68789 255 255 255 255 
0 0.690222 0.580088 255 255 255 255 
0 0.653978 0.963275 255 255 255 255 
0 0.500688 0.0141631 255 255 255 255 
0 0.922652 0.160442 255 255 255 255 
0 0.556311 0.923262 255 255 255 255 
0 0.813081 0.266794 255 255 255 255 
0 0.00074588 0.49003 255 255 255 255 
0 0.381129 0.571181 255 255 255 255 
0 0.542079 0.64458 255 255 255 255 
0 0.097582 0.863508 255 255 255 255 
0 0.5904 0.676186 255 255 255 255 
0 0.560641 0.998688 255 255 255 255 
0 0.853243 0.0277318 255 255 255 255 
0 0.892756 0.529234 255 255 255 255 
0 0.0984906 0.7016 255 255 255 255 
0 0.217124 0.788713 255 255 255 255 
0 0.281688 0.871102 255 255 255 255 
0 0.751988 0.782376 255 255 255 255 
0 0.885265 0.67464 255 255 255 255 
0 0.942818 0.441576 255 255 255 255 
0 0.597902 0.755899 255 255 255 255 
0 0.708371 0.598648 255 255 255 255 
0 0.24593 0.0894996 255 255 255 255 
0 0.16983 0.788009 255 255 255 255 
0 0.73408 0.267412 255 255 255 255 
0 0.651517 0.324479 255 255 255 255 
0 0.943598 0.212157 255 255 255 255 
0 0.323168 0.79684 255 255 255 255 
0 0.239889 0.215924 255 255 255 255 
0 0.326074 0.33838 255 255 255 255 
0 0.917524 0.543198 255 255 255 255 
0 0.127093 0.199212 255 255 255 255 
0 0.4143 0.879081 255 255 255 255 
0 0.981588 0.299565 255 255 255 255 
0 0.553721 0.924405 255 255 255 255 
0 0.741141 0.151624 255 255 255 255 
0 0.680305 0.449511 255 255 255 255 
0 0.750272 0.926234 255 255 255 255 
0 0.539011 0.920102 255 255 255 255 
0 0.714243 0.273091 255 255 255 255 
0 0.187513 0.36576 255 255 255 255 
0 0.59757 0.131111 255 255 255 255 
0 0.577917 0.920738 255 255 255 255 
0 0.927951 0.817806 255 255 255 255 
0 0.136662 0.254025 255 255 255 255 
0 0.156186 0.0541864 255 255 255 255 
0 0.797223 0.283278 255 255 255 255 
0 0.253399 0.211524 255 255 255 255 
0 0.16236 0.234986 255 255 255 255 
0 0.511088 0.716081 255 255 255 255 
0 0.159392 0.252229 255 255 255 255 
0 0.867704 0.839696 255 255 255 255 
0 0.701741 0.617976 255 255 255 255 
0 0.76593 0.240752 255 255 255 255 
0 0.538078 0.480173 255 255 255 255 
0 0.513843 0.725591 255 255 255 255 
0 0.845933 0.111413 255 255 255 255 
0 0.856702 0.42385 255 255 255 255 
0 0.0321505 0.784653 255 255 255 255 
0 0.241656 0.168813 255 255 255 255 
0 0.0386777 0.397842 255 255 255 255 
0 0.222999 0.835901 255 255 255 255 
0 0.68112 0.476398 255 255 255 255 
0 0.0474246 0.84348 255 255 255 255 
0 0.711384 0.558513 255 255 255 255 
0 0.55956 0.870775 255 255 255 255 
0 0.810742 0.427265 255 255 255 255 
0 0.710472 0.512483 255 255 255 255 
0 0.0452407 0.476402 255 255 255 255 
0 0.753235 0.583318 255 255 255 255 
0 0.956575 0.267078 255 255 255 255 
0 0.308909 0.802508 255 255 255 255 
0 0.37849 0.165611 255 255 255 255 
0 0.226358 0.410641 255 255 255 255 
0 0.950263 0.468014 255 255 255 255 
0 0.579453 0.988941 255 255 255 255 
0 0.865856 0.802452 255 255 255 255 
0 0.824842 0.546976 255 255 255 255 
0 0.27885 0.872266 255 255 255 255 
0 0.390456 0.990234 255 255 255 255 
0 0.43078 0.950016 255 255 255 255 
0 0.861009 0.241522 255 255 255 255 
0 0.377281 0.571481 255 255 255 255 
0 0.754005 0.422522 255 255 255 255 
0 0.047883 0.50724 255 255 255 255 
0 0.00584005 0.00445846 255 255 255 255 
0 0.774318 0.314749 255 255 255 255 
0 0.806967 0.152808 255 255 255 255 
0 0.48036 0.0333252 255 255 255 255 
0 0.563449 0.430623 255 255 255 255 
0 0.501339 0.142902 255 255 255 255 
0 0.419563 0.367196 255 255 255 255 
0 0.945354 0.244405 255 255 255 255 
0 0.914172 0.224204 255 255 255 255 
0 0.116672 0.304628 255 255 255 255 
0 0.214438 0.547451 255 255 255 255 
0 0.254644 0.0754471 255 255 255 255 
0 0.788973 0.631925 255 255 255 255 
0 0.646928 0.542978 255 255 255 255 
0 0.0544472 0.694811 255 255 255 255 
0 0.0502186 0.0602872 255 255 255 255 
0 0.699269 0.824536 255 255 255 255 
0 0.375036 0.506236 255 255 255 255 
0 0.977344 0.855396 255 255 255 255 
0 0.539561 0.540793 255 255 255 255 
0 0.286019 0.0409009 255 255 255 255 
0 0.683695 0.705582 255 255 255 255 
0 0.408096 0.629049 255 255 255 255 
0 0.949987 0.322268 255 255 255 255 
0 0.853253 0.0666592 255 255 255 255 
0 0.626896 0.0676911 255 255 255 255 
0 0.614111 0.88154 255 255 255 255 
0 0.143138 0.403084 255 255 255 255 
0 0.513466 0.790066 255 255 255 255 
0 0.946062 0.567913 255 255 255 255 
0 0.484877 0.996281 255 255 255 255 
0 0.6282 0.184146 255 255 255 255 
0 0.820817 0.00323655 255 255 255 255 
0 0.690383 0.798162 255 255 255 255 
0 0.858633 0.229944 255 255 255 255 
0 0.338954 0.144651 255 255 255 255 
0 0.270845 0.0226493 255 255 255 255 
0 0.850233 0.678941 255 255 255 255 
0 0.651698 0.800221 255 255 255 255 
0 0.00120968 0.504952 255 255 255 255 
0 0.86688 0.628106 255 255 255 255 
0 0.572643 0.48099 255 255 255 255 
0 0.509646 0.715781 255 255 255 255 
0 0.884074 0.023112 255 255 255 255 
0 0.505847 0.830137 255 255 255 255 
0 0.591025 0.990724 255 255 255 255 
0 0.826417 0.219225 255 255 255 255 
0 0.17487 0.647235 255 255 255 255 
0 0.222462 0.865253 255 255 255 255 
0 0.445396 0.0810943 255 255 255 255 
0 0.0951971 0.784351 255 255 255 255 
0 0.225745 0.366042 255 255 255 255 
0 0.807 0.0759787 255 255 255 255 
0 0.0449835 0.458698 255 255 255 255 
0 0.876199 0.0461932 255 255 255 255 
0 0.96365 0.743079 255 255 255 255 
0 0.674299 0.536293 255 255 255 255 
0 0.22407 0.183945 255 255 255 255 
0 0.252074 0.108144 255 255 255 255 
0 0.207057 0.757921 255 255 255 255 
0 0.93828 0.798082 255 255 255 255 
0 0.748645 0.764698 255 255 255 255 
0 0.0173074 0.923515 255 255 255 255 
0 0.411932 0.239769 255 255 255 255 
0 0.788768 0.857328 255 255 255 255 
0 0.320864 0.883965 255 255 255 255 
0 0.641679 0.546609 255 255 255 255 
0 0.250008 0.448679 255 255 255 255 
0 0.622588 0.294991 255 255 255 255 
0 0.907377 0.498787 255 255 255 255 
0 0.341184 0.871027 255 255 255 255 
0 0.241866 0.0154831 255 255 255 255 
0 0.407319 0.465936 255 255 255 255 
0 0.199428 0.659393 255 255 255 255 
0 0.574079 0.406485 255 255 255 255 
0 0.417314 0.51236 255 255 255 255 
0 0.204568 0.165959 255 255 255 255 
0 0.277057 0.221875 255 255 255 255 
0 0.0894739 0.68899 255 255 255 255 
0 0.461644 0.878242 255 255 255 255 
0 0.546318 0.782508 255 255 255 255 
0 0.762208 0.187997 255 255 255 255 
0 0.329117 0.0122152 255 255 255 255 
0 0.636675 0.951704 255 255 255 255 
0 0.307206 0.544052 255 255 255 255 
0 0.450491 0.64839 255 255 255 255 
0 0.415079 0.692357 255 255 255 255 
0 0.663873 0.822398 255 255 255 255 
0 0.158293 0.863302 255 255 255 255 
0 0.481791 0.732372 255 255 255 255 
0 0.269787 0.899105 255 255 255 255 
0 0.244732 0.474355 255 255 255 255 
0 0.0650637 0.521789 255 255 255 255 
0 0.69623 0.154538 255 255 255 255 
0 0.210779 0.157874 255 255 255 255 
0 0.0327799 0.757097 255 255 255 255 
0 0.940381 0.794988 255 255 255 255 
0 0.945094 0.269498 255 255 255 255 
0 0.807203 0.581769 255 255 255 255 
0 0.221202 0.114409 255 255 255 255 
0 0.125821 0.671693 255 255 255 255 
0 0.762799 0.5409 255 255 255 255 
0 0.36405 0.426673 255 255 255 255 
0 0.363299 0.522343 255 255 255 255 
0 0.289974 0.84509 255 255 255 255 
0 0.254715 0.559762 255 255 255 255 
0 0.744195 0.499446 255 255 255 255 
0 0.0341161 0.809259 255 255 255 255 
0 0.0212355 0.730346 255 255 255 255 
0 0.963797 0.232014 255 255 255 255 
0 0.888219 0.996577 255 255 255 255 
0 0.989111 0.828601 255 255 255 255 
0 0.791564 0.934205 255 255 255 255 
0 0.0980984 0.598767 255 255 255 255 
0 0.515974 0.3193 255 255 255 255 
0 0.713176 0.641795 255 255 255 255 
0 0.990993 0.475975 255 255 255 255 
0 0.182696 0.355043 255 255 255 255 
0 0.902648 0.545995 255 255 255 255 
0 0.877386 0.192622 255 255 255 255 
0 0.391085 0.132101 255 255 255 255 
0 0.752384 0.13528 255 255 255 255 
0 0.631547 0.7865 255 255 255 255 
0 0.944539 0.652782 255 255 255 255 
0 0.516846 0.908336 255 255 255 255 
0 0.884797 0.405065 255 255 255 255 
0 0.904912 0.873908 255 255 255 255 
0 0.233666 0.696476 255 255 255 255 
0 0.808113 0.331764 255 255 255 255 
0 0.295243 0.324087 255 255 255 255 
0 0.651064 0.00841915 255 255 255 255 
0 0.965883 0.642058 255 255 255 255 
0 0.484394 0.148578 255 255 255 255 
0 0.997101 0.387042 255 255 255 255 
0 0.694573 0.874487 255 255 255 255 
0 0.579665 0.0856578 255 255 255 255 
0 0.00658766 0.332049 255 255 255 255 
0 0.220938 0.638134 255 255 255 255 
0 0.118549 0.165477 255 255 255 255 
0 0.290917 0.635394 255 255 255 255 
0 0.0738127 0.175714 255 255 255 255 
0 0.0404593 0.978725 255 255 255 255 
0 0.0496216 0.274125 255 255 255 255 
0 0.675202 0.857735 255 255 255 255 
0 0.605889 0.970445 255 255 255 255 
0 0.181822 0.256953 255 255 255 255 
0 0.978864 0.147704 255 255 255 255 
0 0.899011 0.463258 255 255 255 255 
0 0.296283 0.896112 255 255 255 255 
0 0.850301 0.990856 255 255 255 255 
0 0.770599 0.429965 255 255 255 255 
0 0.0765137 0.777187 255 255 255 255 
0 0.762014 0.297452 255 255 255 255 
0 0.415321 0.880562 255 255 255 255 
0 0.462929 0.706238 255 255 255 255 
0 0.515957 0.536741 255 255 255 255 
0 0.881952 0.556416 255 255 255 255 
0 0.515466 0.931573 255 255 255 255 
0 0.830541 0.190668 255 255 255 255 
0 0.789308 0.43643 255 255 255 255 
0 0.161113 0.97113 255 255 255 255 
0 0.693383 0.139977 255 255 255 255 
0 0.118834 0.592393 255 255 255 255 
0 0.603235 0.415117 255 255 255 255 
0 0.488506 0.453535 255 255 255 255 
0 0.405973 0.259105 255 255 255 255 
0 0.883501 0.482487 255 255 255 255 
0 0.0362915 0.645514 255 255 255 255 
0 0.779938 0.451613 255 255 255 255 
0 0.526077 0.242867 255 255 255 255 
0 0.157851 0.0420334 255 255 255 255 
0 0.779608 0.0398026 255 255 255 255 
0 0.598449 0.295074 255 255 255 255 
0 0.971376 0.42899 255 255 255 255 
0 0.485742 0.760684 255 255 255 255 
0 0.86542 0.646855 255 255 255 255 
0 0.731814 0.558802 255 255 255 255 
0 0.786832 0.850648 255 255 255 255 
0 0.151196 0.390067 255 255 255 255 
0 0.265765 0.639701 255 255 255 255 
0 0.843602 0.671738 255 255 255 255 
0 0.898806 0.727103 255 255 255 255 
0 0.154225 0.935097 255 255 255 255 
0 0.372617 0.934164 255 255 255 255 
0 0.38671 0.898694 255 255 255 255 
0 0.177031 0.544561 255 255 255 255 
0 0.940727 0.956639 255 255 255 255 
0 0.584364 0.539176 255 255 255 255 
0 0.251713 0.55574 255 255 255 255 
0 0.968167 0.737456 255 255 255 255 
0 0.316424 0.833586 255 255 255 255 
0 0.384311 0.0482374 255 255 255 255 
0 0.392388 0.171142 255 255 255 255 
0 0.898885 0.543584 255 255 255 255 
0 0.561209 0.164651 255 255 255 255 
0 0.183285 0.404811 255 255 255 255 
0 0.836389 0.0820911 255 255 255 255 
0 0.131913 0.990615 255 255 255 255 
0 0.0171885 0.50453 255 255 255 255 
0 0.924778 0.403899 255 255 255 255 
0 0.403224 0.101809 255 255 255 255 
0 0.94846 0.343951 255 255 255 255 
0 0.058448 0.532824 255 255 255 255 
0 0.883128 0.310161 255 255 255 255 
0 0.0885635 0.851294 255 255 255 255 
0 0.0476169 0.404987 255 255 255 255 
0 0.68488 0.431927 255 255 255 255 
0 0.453225 0.0772689 255 255 255 255 
0 0.60307 0.35211 255 255 255 255 
0 0.620853 0.164278 255 255 255 255 
0 0.516761 0.804138 255 255 255 255 
0 0.569089 0.35315 255 255 255 255 
0 0.886229 0.701002 255 255 255 255 
0 0.343764 0.903418 255 255 255 255 
0 0.205533 0.268543 255 255 255 255 
0 0.307317 0.608757 255 255 255 255 
0 0.370352 0.255777 255 255 255 255 
0 0.952708 0.4288 255 255 255 255 
0 0.7886 0.835836 255 255 255 255 
0 0.738961 0.877164 255 255 255 255 
0 0.687131 0.786578 255 255 255 255 
0 0.282151 0.372011 255 255 255 255 
0 0.218506 0.735376 255 255 255 255 
0 0.44928 0.821575 255 255 255 255 
0 0.0874856 0.0701329 255 255 255 255 
0 0.985853 0.604246 255 255 255 255 
0 0.874271 0.554942 255 255 255 255 
0 0.957396 0.7605 255 255 255 255 
0 0.255945 0.301161 255 255 255 255 
0 0.663918 0.461478 255 255 255 255 
0 0.569703 0.971235 255 255 255 255 
0 0.0702349 0.940055 255 255 255 255 
0 0.227011 0.0229433 255 255 255 255 
0 0.368855 0.0156119 255 255 255 255 
0 0.85878 0.107816 255 255 255 255 
0 0.892776 0.54591 255 255 255 255 
0 0.894394 0.174927 255 255 255 255 
0 0.917921 0.1129 255 255 255 255 
0 0.910303 0.367201 255 255 255 255 
0 0.934475 0.997788 255 255 255 255 
0 0.437334 0.920328 255 255 255 255 
0 0.602034 0.311605 255 255 255 255 
0 0.475271 0.559431 255 255 255 255 
0 0.0721054 0.731216 255 255 255 255 
0 0.860591 0.736024 255 255 255 255 
0 0.192694 0.430294 255 255 255 255 
0 0.707258 0.262928 255 255 255 255 
0 0.37035 0.93427 255 255 255 255 
0 0.285872 0.739205 255 255 255 255 
0 0.949882 0.144651 255 255 255 255 
0 0.847021 0.842658 255 255 255 255 
0 0.690562 0.741415 255 255 255 255 
0 0.0175846 0.608483 255 255 255 255 
0 0.854314 0.927887 255 255 255 255 
0 0.975684 0.788789 255 255 255 255 
0 0.925675 0.413018 255 255 255 255 
0 0.709118 0.52771 255 255 255 255 
0 0.724623 0.184388 255 255 255 255 
0 0.0871402 0.796728 255 255 255 255 
0 0.915604 0.947731 255 255 255 255 
0 0.532752 0.108298 255 255 255 255 
0 0.378026 0.24001 255 255 255 255 
0 0.371226 0.748375 255 255 255 255 
0 0.17428 0.657098 255 255 255 255 
0 0.48758 0.124162 255 255 255 255 
0 0.801749 0.3346 255 255 255 255 
0 0.96682 0.492311 255 255 255 255 
0 0.0760151 0.984404 255 255 255 255 
0 0.100794 0.93033 255 255 255 255 
0 0.912291 0.0764777 255 255 255 255 
0 0.719119 0.837967 255 255 255 255 
0 0.489496 0.428236 255 255 255 255 
0 0.365676 0.214119 255 255 255 255 
0 0.612625 0.452816 255 255 255 255 
0 0.0108468 0.528229 255 255 255 255 
0 0.400548 0.543599 255 255 255 255 
0 0.636526 0.778573 255 255 255 255 
0 0.783609 0.00775265 255 255 255 255 
0 0.526949 0.957889 255 255 255 255 
0 0.664851 0.0145284 255 255 255 255 
0 0.0820515 0.4666 255 255 255 255 
0 0.349129 0.0488713 255 255 255 255 
0 0.958911 0.425144 255 255 255 255 
0 0.0332756 0.0597048 255 255 255 255 
0 0.355473 0.945567 255 255 255 255 
0 0.136182 0.0745922 255 255 255 255 
0 0.783534 0.625678 255 255 255 255 
0 0.502829 0.14921 255 255 255 255 
0 0.839797 0.115453 255 255 255 255 
0 0.602027 0.850643 255 255 255 255 
0 0.643682 0.00257431 255 255 255 255 
0 0.394242 0.280209 255 255 255 255 
0 0.781148 0.177851 255 255 255 255 
0 0.287961 0.308096 255 255 255 255 
0 0.13574 0.952812 255 255 255 255 
0 0.322625 0.217792 255 255 255 255 
0 0.419412 0.671754 255 255 255 255 
0 0.266663 0.378323 255 255 255 255 
0 0.0968975 0.299939 255 255 255 255 
0 0.438028 0.452371 255 255 255 255 
0 0.245506 0.57421 255 255 255 255 
0 0.526963 0.0290398 255 255 255 255 
0 0.199888 0.0297916 255 255 255 255 
0 0.17825 0.0396847 255 255 255 255 
0 0.145245 0.780276 255 255 255 255 
0 0.890328 0.788927 255 255 255 255 
0 0.782851 0.28457 255 255 255 255 
0 0.0691355 0.563998 255 255 255 255 
0 0.462421 0.357097 255 255 255 255 
0 0.872095 0.598162 255 255 255 255 
0 0.309909 0.19472 255 255 255 255 
0 0.815954 0.729321 255 255 255 255 
0 0.866473 0.0826169 255 255 255 255 
0 0.107643 0.963371 255 255 255 255 
0 0.382556 0.545671 255 255 255 255 
0 0.415742 0.628062 255 255 255 255 
0 0.119881 0.942705 255 255 255 255 
0 0.657102 0.319769 255 255 255 255 
0 0.972496 0.835351 255 255 255 255 
0 0.359454 0.117741 255 255 255 255 
0 0.615628 0.249782 255 255 255 255 
0 0.906668 0.398479 255 255 255 255 
0 0.534352 0.975804 255 255 255 255 
0 0.962477 0.996773 255 255 255 255 
0 0.3329 0.834572 255 255 255 255 
0 0.594935 0.642809 255 255 255 255 
0 0.0292916 0.410889 255 255 255 255 
0 0.37213 0.895765 255 255 255 255 
0 0.493506 0.479773 255 255 255 255 
0 0.859136 0.876061 255 255 255 255 
0 0.0254442 0.274877 255 255 255 255 
0 0.504123 0.145326 255 255 255 255 
0 0.217582 0.161225 255 255 255 255 
0 0.465095 0.190079 255 255 255 255 
0 0.996576 0.824549 255 255 255 255 
0 0.30782 0.612204 255 255 255 255 
0 0.0743311 0.214488 255 255 255 255 
0 0.0106822 0.608683 255 255 255 255 
0 0.190292 0.973159 255 255 255 255 
0 0.605457 0.523192 255 255 255 255 
0 0.807731 0.200392 255 255 255 255 
0 0.166001 0.837023 255 255 255 255 
0 0.61128 0.538131 255 255 255 255 
0 0.732788 0.104786 255 255 255 255 
0 0.0179039 0.591923 255 255 255 255 
0 0.980847 0.0433481 255 255 255 255 
0 0.866801 0.48497 255 255 255 255 
0 0.188674 0.084383 255 255 255 255 
0 0.646195 0.653769 255 255 255 255 
0 0.274462 0.642771 255 255 255 255 
0 0.478318 0.582281 255 255 255 255 
0 0.254974 0.552649 255 255 255 255 
0 0.796769 0.265657 255 255 255 255 
0 0.161332 0.987061 255 255 255 255 
0 0.238816 0.766789 255 255 255 255 
0 0.510253 0.0465468 255 255 255 255 
0 0.96718 0.676255 255 255 255 255 
0 0.883569 0.578461 255 255 255 255 
0 0.214386 0.616357 255 255 255 255 
0 0.683247 0.23229 255 255 255 255 
0 0.20828 0.664094 255 255 255 255 
0 0.275638 0.0750813 255 255 255 255 
0 0.149064 0.464311 255 255 255 255 
0 0.159464 0.795259 255 255 255 255 
0 0.11808 0.433926 255 255 255 255 
0 0.43803 0.596398 255 255 255 255 
0 0.0162074 0.693004 255 255 255 255 
0 0.149046 0.812977 255 255 255 255 
0 0.958661 0.310379 255 255 255 255 
0 0.800038 0.197476 255 255 255 255 
0 0.0771673 0.310292 255 255 255 255 
0 0.244023 0.0443478 255 255 255 255 
0 0.986546 0.127593 255 255 255 255 
0 0.622809 0.200932 255 255 255 255 
0 0.74395 0.306055 255 255 255 255 
0 0.433221 0.95223 255 255 255 255 
0 0.970149 0.708859 255 255 255 255 
0 0.0273114 0.119213 255 255 255 255 
0 0.17317 0.186776 255 255 255 255 
0 0.914472 0.29125 255 255 255 255 
0 0.620702 0.352502 255 255 255 255 
0 0.887648 0.636909 255 255 255 255 
0 0.045506 0.0366944 255 255 255 255 
0 0.449886 0.00416654 255 255 255 255 
0 0.347073 0.249924 255 255 255 255 
0 0.201643 0.42424 255 255 255 255 
0 0.560215 0.445666 255 255 255 255 
0 0.468588 0.546762 255 255 255 255 
0 0.573259 0.0913968 255 255 255 255 
0 0.747694 0.317208 255 255 255 255 
0 0.397452 0.180915 255 255 255 255 
0 0.269439 0.367602 255 255 255 255 
0 0.889774 0.29675 255 255 255 255 
0 0.486815 0.0629445 255 255 255 255 
0 0.483526 0.401287 255 255 255 255 
0 0.354195 0.104227 255 255 255 255 
0 0.753789 0.241843 255 255 255 255 
0 0.741136 0.799295 255 255 255 255 
0 0.278537 0.191022 255 255 255 255 
0 0.803462 0.62561 255 255 255 255 
0 0.440946 0.0051049 255 255 255 255 
0 0.0498503 0.0011613 255 255 255 255 
0 0.450771 0.518438 255 255 255 255 
0 0.547923 0.0240295 255 255 255 255 
0 0.609835 0.295617 255 255 255 255 
0 0.341238 0.00728739 255 255 255 255 
0 0.476532 0.610676 255 255 255 255 
0 0.374889 0.366306 255 255 255 255 
0 0.907426 0.861704 255 255 255 255 
0 0.42925 0.390952 255 255 255 255 
0 0.262991 0.783445 255 255 255 255 
0 0.495179 0.016781 255 255 255 255 
0 0.0252876 0.236315 255 255 255 255 
0 0.816077 0.303825 255 255 255 255 
0 0.427337 0.619539 255 255 255 255 
0 0.929435 0.868283 255 255 255 255 
0 0.624643 0.979285 255 255 255 255 
0 0.869445 0.0754143 255 255 255 255 
0 0.497724 0.417368 255 255 255 255 
0 0.0994439 0.107559 255 255 255 255 
0 0.712984 0.440682 255 255 255 255 
0 0.114846 0.189516 255 255 255 255 
0 0.0513581 0.489735 255 255 255 255 
0 0.555821 0.958784 255 255 255 255 
0 0.351439 0.985071 255 255 255 255 
0 0.349736 0.614431 255 255 255 255 
0 0.768516 0.844916 255 255 255 255 
0 0.631212 0.793804 255 255 255 255 
0 0.0812312 0.447288 255 255 255 255 
0 0.0976285 0.508569 255 255 255 255 
0 0.0668267 0.0270633 255 255 255 255 
0 0.376852 0.69147 255 255 255 255 
0 0.00634856 0.246297 255 255 255 255 
0 0.766885 0.504072 255 255 255 255 
0 0.663664 0.866328 255 255 255 255 
0 0.611631 0.376648 255 255 255 255 
0 0.30701 0.726477 255 255 255 255 
0 0.566164 0.358368 255 255 255 255 
0 0.216212 0.121985 255 255 255 255 
0 0.317153 0.567652 255 255 255 255 
0 0.107056 0.666889 255 255 255 255 
0 0.182082 0.875572 255 255 255 255 
0 0.511805 0.813294 255 255 255 255 
0 0.669376 0.593036 255 255 255 255 
0 0.260582 0.767005 255 255 255 255 
0 0.101605 0.327409 255 255 255 255 
0 0.794068 0.478457 255 255 255 255 
0 0.018879 0.800416 255 255 255 255 
0 0.724753 0.785764 255 255 255 255 
0 0.304489 0.388417 255 255 255 255 
0 0.652092 0.91612 255 255 255 255 
0 0.765066 0.959102 255 255 255 255 
0 0.642597 0.33123 255 255 255 255 
0 0.31747 0.858809 255 255 255 255 
0 0.453215 0.634623 255 255 255 255 
0 0.426461 0.560271 255 255 255 255 
0 0.301512 0.608543 255 255 255 255 
0 0.435844 0.813317 255 255 255 255 
0 0.421837 0.10522 255 255 255 255 
0 0.406353 0.682419 255 255 255 255 
0 0.872224 0.507958 255 255 255 255 
0 0.00982779 0.666292 255 255 255 255 
0 0.986415 0.0287068 255 255 255 255 
0 0.466709 0.711168 255 255 255 255 
0 0.81447 0.771197 255 255 255 255 
0 0.0995858 0.466562 255 255 255 255 
0 0.687317 0.864652 255 255 255 255 
0 0.425664 0.329914 255 255 255 255 
0 0.195881 0.743135 255 255 255 255 
0 0.188723 0.649096 255 255 255 255 
0 0.377758 0.615184 255 255 255 255 
0 0.209368 0.67927 255 255 255 255 
0 0.223727 0.645212 255 255 255 255 
0 0.492587 0.645564 255 255 255 255 
0 0.750431 0.898941 255 255 255 255 
0 0.327983 0.622656 255 255 255 255 
0 0.406899 0.337811 255 255 255 255 
0 0.288948 0.393314 255 255 255 255 
0 0.366517 0.755657 255 255 255 255 
0 0.104482 0.180988 255 255 255 255 
0 0.526855 0.204068 255 255 255 255 
0 0.64755 0.214172 255 255 255 255 
0 0.0687193 0.0732144 255 255 255 255 
0 0.544085 0.264601 255 255 255 255 
0 0.816349 0.732809 255 255 255 255 
0 0.913697 0.194107 255 255 255 255 
0 0.347993 0.123065 255 255 255 255 
0 0.873377 0.57172 255 255 255 255 
0 0.768276 0.365964 255 255 255 255 
0 0.217283 0.518708 255 255 255 255 
0 0.264904 0.545266 255 255 255 255 
0 0.141364 0.671803 255 255 255 255 
0 0.883077 0.430312 255 255 255 255 
0 0.0651169 0.249594 255 255 255 255 
0 0.185969 0.169599 255 255 255 255 
0 0.430582 0.712824 255 255 255 255 
0 0.373667 0.0781323 255 255 255 255 
0 0.926995 0.442386 255 255 255 255 
0 0.151347 0.471081 255 255 255 255 
0 0.706987 0.967696 255 255 255 255 
0 0.203889 0.620684 255 255 255 255 
0 0.161803 0.551882 255 255 255 255 
0 0.743749 0.0351792 255 255 255 255 
0 0.123601 0.512025 255 255 255 255 
0 0.401143 0.340885 255 255 255 255 
0 0.0307329 0.666048 255 255 255 255 
0 0.886151 0.172097 255 255 255 255 
0 0.337851 0.769228 255 255 255 255 
0 0.602409 0.402968 255 255 255 255 
0 0.0188225 0.788378 255 255 255 255 
0 0.572567 0.449405 255 255 255 255 
0 0.501202 0.946233 255 255 255 255 
0 0.527537 0.428197 255 255 255 255 
0 0.388619 0.678884 255 255 255 255 
0 0.899277 0.0956057 255 255 255 255 
0 0.646579 0.103167 255 255 255 255 
0 0.71629 0.808382 255 255 255 255 
0 0.655049 0.460038 255 255 255 255 
0 0.843561 0.77865 255 255 255 255 
0 0.972063 0.244704 255 255 255 255 
0 0.119535 0.00279596 255 255 255 255 
0 0.910752 0.00568598 255 255 255 255 
0 0.174893 0.248603 255 255 255 255 
0 0.774914 0.777301 255 255 255 255 
0 0.65157 0.793737 255 255 255 255 
0 0.565679 0.224137 255 255 255 255 
0 0.243141 0.066881 255 255 255 255 
0 0.17037 0.770678 255 255 255 255 
0 0.495078 0.558989 255 255 255 255 
0 0.449562 0.394355 255 255 255 255 
0 0.654595 0.0961411 255 255 255 255 
0 0.497522 0.370884 255 255 255 255 
0 0.904523 0.152571 255 255 255 255 
0 0.830922 0.748084 255 255 255 255 
0 0.931221 0.802985 255 255 255 255 
0 0.992788 0.0507554 255 255 255 255 
0 0.805781 0.90354 255 255 255 255 
0 0.0564414 0.980674 255 255 255 255 
0 0.152143 0.831355 255 255 255 255 
0 0.757975 0.803713 255 255 255 255 
0 0.625092 0.323655 255 255 255 255 
0 0.0278493 0.868233 255 255 255 255 
0 0.390536 0.198219 255 255 255 255 
0 0.638911 0.885613 255 255 255 255 
0 0.757208 0.088473 255 255 255 255 
0 0.279969 0.411802 255 255 255 255 
0 0.184614 0.77749 255 255 255 255 
0 0.782686 0.0891369 255 255 255 255 
0 0.930061 0.613609 255 255 255 255 
0 0.837221 0.861281 255 255 255 255 
0 0.416594 0.830009 255 255 255 255 
0 0.912037 0.222375 255 255 255 255 
0 0.733549 0.968478 255 255 255 255 
0 0.203049 0.885692 255 255 255 255 
0 0.799834 0.961024 255 255 255 255 
0 0.689404 0.424926 255 255 255 255 
0 0.284679 0.717254 255 255 255 255 
0 0.293159 0.675214 255 255 255 255 
0 0.915473 0.93207 255 255 255 255 
0 0.560828 0.672681 255 255 255 255 
0 0.0205429 0.840796 255 255 255 255 
0 0.084483 0.205157 255 255 255 255 
0 0.618286 0.867169 255 255 255 255 
0 0.294294 0.548347 255 255 255 255 
0 0.480778 0.131515 255 255 255 255 
0 0.409629 0.897372 255 255 255 255 
0 0.961524 0.321666 255 255 255 255 
0 0.119747 0.695073 255 255 255 255 
0 0.290144 0.322796 255 255 255 255 
0 0.580765 0.0899775 255 255 255 255 
0 0.28382 0.270169 255 255 255 255 
0 0.514903 0.568498 255 255 255 255 
0 0.987423 0.808062 255 255 255 255 
0 0.243713 0.902896 255 255 255 255 
0 0.740132 0.80454 255 255 255 255 
0 0.575576 0.760675 255 255 255 255 
0 0.645336 0.660059 255 255 255 255 
0 0.965832 0.263623 255 255 255 255 
0 0.527228 0.260125 255 255 255 255 
0 0.81197 0.00800649 255 255 255 255 
0 0.39164 0.221599 255 255 255 255 
0 0.905378 0.353164 255 255 255 255 
0 0.543265 0.0251251 255 255 255 255 
0 0.0482374 0.833409 255 255 255 255 
0 0.347921 0.629002 255 255 255 255 
0 0.923386 0.63174 255 255 255 255 
0 0.899171 0.438289 255 255 255 255 
0 0.200239 0.886594 255 255 255 255 
0 0.246351 0.443951 255 255 255 255 
0 0.78949 0.986483 255 255 255 255 
0 0.248491 0.365066 255 255 255 255 
0 0.747157 0.893828 255 255 255 255 
0 0.025125 0.712989 255 255 255 255 
0 0.15745 0.552353 255 255 255 255 
0 0.973114 0.96942 255 255 255 255 
0 0.56036 0.364754 255 255 255 255 
0 0.191019 0.465738 255 255 255 255 
0 0.717919 0.734284 255 255 255 255 
0 0.490863 0.766156 255 255 255 255 
0 0.567693 0.838784 255 255 255 255 
0 0.395158 0.491079 255 255 255 255 
0 0.470524 0.29433 255 255 255 255 
0 0.929368 0.670763 255 255 255 255 
0 0.180924 0.175719 255 255 255 255 
0 0.114714 0.970414 255 255 255 255 
0 0.162201 0.363205 255 255 255 255 
0 0.33548 0.909359 255 255 255 255 
0 0.257033 0.360605 255 255 255 255 
0 0.622347 0.414483 255 255 255 255 
0 0.912958 0.595462 255 255 255 255 
0 0.383904 0.473318 255 255 255 255 
0 0.960216 0.574923 255 255 255 255 
0 0.939056 0.678135 255 255 255 255 
0 0.309207 0.429919 255 255 255 255 
0 0.444291 0.8769 255 255 255 255 
0 0.268703 0.839449 255 255 255 255 
0 0.367979 0.739227 255 255 255 255 
0 0.133778 0.297346 255 255 255 255 
0 0.40999 0.314702 255 255 255 255 
0 0.473065 0.524704 255 255 255 255 
0 0.285116 0.635266 255 255 255 255 
0 0.887909 0.620596 255 255 255 255 
0 0.544625 0.144941 255 255 255 255 
0 0.9812 0.166972 255 255 255 255 
0 0.559424 0.894158 255 255 255 255 
0 0.762434 0.943328 255 255 255 255 
0 0.367476 0.72265 255 255 255 255 
0 0.518251 0.306532 255 255 255 255 
0 0.400785 0.827458 255 255 255 255 
0 0.736452 0.845075 255 255 255 255 
0 0.704358 0.00515494 255 255 255 255 
0 0.684524 0.0723363 255 255 255 255 
0 0.744382 0.818302 255 255 255 255 
0 0.369683 0.154372 255 255 255 255 
0 0.133005 0.842748 255 255 255 255 
0 0.679076 0.418121 255 255 255 255 
0 0.478014 0.566985 255 255 255 255 
0 0.0387163 0.0226393 255 255 255 255 
0 0.711926 0.0199165 255 255 255 255 
0 0.189612 0.27135 255 255 255 255 
0 0.914075 0.952046 255 255 255 255 
0 0.214678 0.281551 255 255 255 255 
0 0.674696 0.732929 255 255 255 255 
0 0.588083 0.0754803 255 255 255 255 
0 0.560387 0.324535 255 255 255 255 
0 0.920555 0.264745 255 255 255 255 
0 0.32969 0.605079 255 255 255 255 
0 0.337081 0.074072 255 255 255 255 
0 0.423382 0.706764 255 255 255 255 
0 0.228444 0.556386 255 255 255 255 
0 0.549511 0.90752 255 255 255 255 
0 0.974507 0.0275257 255 255 255 255 
0 0.474505 0.0132231 255 255 255 255 
0 0.0501649 0.186431 255 255 255 255 
0 0.0331397 0.239777 255 255 255 255 
0 0.457781 0.947214 255 255 255 255 
0 0.191822 0.672459 255 255 255 255 
0 0.228765 0.866518 255 255 255 255 
0 0.405389 0.816848 255 255 255 255 
0 0.941998 0.965775 255 255 255 255 
0 0.141383 0.862554 255 255 255 255 
0 0.23052 0.471073 255 255 255 255 
0 0.467633 0.567601 255 255 255 255 
0 0.545145 0.891014 255 255 255 255 
0 0.274365 0.773589 255 255 255 255 
0 0.447401 0.823876 255 255 255 255 
0 0.68111 0.421907 255 255 255 255 
0 0.851402 0.155614 255 255 255 255 
0 0.435131 0.901567 255 255 255 255 
0 0.342045 0.46827 255 255 255 255 
0 0.141344 0.799827 255 255 255 255 
0 0.415485 0.333166 255 255 255 255 
0 0.472286 0.64425 255 255 255 255 
0 0.199684 0.877675 255 255 255 255 
0 0.461098 0.141682 255 255 255 255 
0 0.84345 0.602482 255 255 255 255 
0 0.00423603 0.0739704 255 255 255 255 
0 0.0735545 0.471869 255 255 255 255 
0 0.641572 0.618699 255 255 255 255 
0 0.362883 0.915937 255 255 255 255 
0 0.392289 0.810284 255 255 255 255 
0 0.739813 0.0733984 255 255 255 255 
0 0.232192 0.591215 255 255 255 255 
0 0.229013 0.667322 255 255 255 255 
0 0.492782 0.571058 255 255 255 255 
0 0.135592 0.634126 255 255 255 255 
0 0.370885 0.551077 255 255 255 255 
0 0.967292 0.843171 255 255 255 255 
0 0.195327 0.166976 255 255 255 255 
0 0.720846 0.656425 255 255 255 255 
0 0.308658 0.564296 255 255 255 255 
0 0.258907 0.312894 255 255 255 255 
0 0.638267 0.332461 255 255 255 255 
0 0.784763 0.279838 255 255 255 255 
0 0.951161 0.147647 255 255 255 255 
0 0.195775 0.34345 255 255 255 255 
0 0.957931 0.935588 255 255 255 255 
0 0.416848 0.190122 255 255 255 255 
0 0.526803 0.645861 255 255 255 255 
0 0.857444 0.0195853 255 255 255 255 
0 0.216919 0.993037 255 255 255 255 
0 0.653711 0.587804 255 255 255 255 
0 0.544114 0.621003 255 255 255 255 
0 0.430976 0.739441 255 255 255 255 
0 0.787979 0.151822 255 255 255 255 
0 0.395866 0.0966371 255 255 255 255 
0 0.716118 0.654773 255 255 255 255 
0 0.409531 0.354384 255 255 255 255 
0 0.987234 0.194294 255 255 255 255 
0 0.634222 0.938395 255 255 255 255 
0 0.341941 0.829997 255 255 255 255 
0 0.281845 0.299872 255 255 255 255 
0 0.765585 0.698693 255 255 255 255 
0 0.489994 0.292388 255 255 255 255 
0 0.344554 0.347439 255 255 255 255 
0 0.311973 0.561473 255 255 255 255 
0 0.340475 0.965685 255 255 255 255 
0 0.149277 0.884589 255 255 255 255 
0 0.586688 0.580253 255 255 255 255 
0 0.62403 0.374666 255 255 255 255 
0 0.732074 0.019896 255 255 255 255 
0 0.471303 0.448192 255 255 255 255 
0 0.674669 0.880835 255 255 255 255 
0 0.802576 0.661903 255 255 255 255 
0 0.0751292 0.436799 255 255 255 255 
0 0.600298 0.41707 255 255 255 255 
0 0.266796 0.882142 255 255 255 255 
0 0.716942 0.0323808 255 255 255 255 
0 0.580835 0.206936 255 255 255 255 
0 0.324769 0.925388 255 255 255 255 
0 0.554375 0.636742 255 255 255 255 
0 0.486861 0.89485 255 255 255 255 
0 0.602427 0.636138 255 255 255 255 
0 0.77944 0.189114 255 255 255 255 
0 0.216391 0.40347 255 255 255 255 
0 0.563781 0.948466 255 255 255 255 
0 0.423366 0.0350841 255 255 255 255 
0 0.396658 0.0980343 255 255 255 255 
0 0.915919 0.199234 255 255 255 255 
0 0.759937 0.991048 255 255 255 255 
0 0.636032 0.360235 255 255 255 255 
0 0.408118 0.902828 255 255 255 255 
0 0.242377 0.125061 255 255 255 255 
0 0.935209 0.823212 255 255 255 255 
0 0.331997 0.259978 255 255 255 255 
0 0.7486 0.886372 255 255 255 255 
0 0.89672 0.235462 255 255 255 255 
0 0.781222 0.499147 255 255 255 255 
0 0.8716 0.560662 255 255 255 255 
0 0.688261 0.0879915 255 255 255 255 
0 0.964132 0.252042 255 255 255 255 
0 0.0364572 0.387497 255 255 255 255 
0 0.287126 0.433115 255 255 255 255 
0 0.485531 0.203045 255 255 255 255 
0 0.632349 0.245468 255 255 255 255 
0 0.194093 0.268381 255 255 255 255 
0 0.605703 0.602211 255 255 255 255 
0 0.171209 0.84808 255 255 255 255 
0 0.727272 0.106418 255 255 255 255 
0 0.671292 0.0592687 255 255 255 255 
0 0.366396 0.419893 255 255 255 255 
0 0.945641 0.263116 255 255 255 255 
0 0.655355 0.726863 255 255 255 255 
0 0.762263 0.526955 255 255 255 255 
0 0.287525 0.450524 255 255 255 255 
0 0.614946 0.251657 255 255 255 255 
0 0.702566 0.651404 255 255 255 255 
0 0.639154 0.989692 255 255 255 255 
0 0.0845184 0.124685 255 255 255 255 
0 0.192737 0.716867 255 255 255 255 
0 0.370153 0.386829 255 255 255 255 
0 0.985248 0.975857 255 255 255 255 
0 0.98904 0.156458 255 255 255 255 
0 0.823937 0.716312 255 255 255 255 
0 0.262876 0.49523 255 255 255 255 
0 0.775581 0.629272 255 255 255 255 
0 0.915123 0.721221 255 255 255 255 
0 0.892388 0.570477 255 255 255 255 
0 0.448085 0.654651 255 255 255 255 
0 0.0974322 0.73561 255 255 255 255 
0 0.105176 0.712379 255 255 255 255 
0 0.987266 0.807741 255 255 255 255 
0 0.363782 0.62642 255 255 255 255 
0 0.797433 0.448301 255 255 255 255 
0 0.751105 0.99017 255 255 255 255 
0 0.165168 0.121259 255 255 255 255 
0 0.376999 0.150416 255 255 255 255 
0 0.0971154 0.366039 255 255 255 255 
0 0.306874 0.921053 255 255 255 255 
0 0.0823513 0.56975 255 255 255 255 
0 0.416282 0.857932 255 255 255 255 
0 0.199022 0.331405 255 255 255 255 
0 0.579153 0.0914106 255 255 255 255 
0 0.901882 0.0272381 255 255 255 255 
0 0.746062 0.999314 255 255 255 255 
0 0.762848 0.851237 255 255 255 255 
0 0.711693 0.750114 255 255 255 255 
0 0.658979 0.075475 255 255 255 255 
0 0.376535 0.456412 255 255 255 255 
0 0.523776 0.12764 255 255 255 255 
0 0.446582 0.688944 255 255 255 255 
0 0.248898 0.823581 255 255 255 255 
0 0.83936 0.346014 255 255 255 255 
0 0.189621 0.146234 255 255 255 255 
0 0.267066 0.271972 255 255 255 255 
0 0.715984 0.683349 255 255 255 255 
0 0.129904 0.915006 255 255 255 255 
0 0.0147533 0.709057 255 255 255 255 
0 0.00641679 0.916635 255 255 255 255 
0 0.736296 0.752479 255 255 255 255 
0 0.915949 0.499143 255 255 255 255 
0 0.603716 0.627642 255 255 255 255 
0 0.249258 0.262695 255 255 255 255 
0 0.703117 0.625792 255 255 255 255 
0 0.719107 0.226893 255 255 255 255 
0 0.753432 0.165689 255 255 255 255 
0 0.915836 0.00233036 255 255 255 255 
0 0.989271 0.755196 255 255 255 255 
0 0.348344 0.178891 255 255 255 255 
0 0.90143 0.615411 255 255 255 255 
0 0.450863 0.617414 255 255 255 255 
0 0.298759 0.580767 255 255 255 255 
0 0.53242 0.313513 255 255 255 255 
0 0.289825 0.538837 255 255 255 255 
0 0.230148 0.0261204 255 255 255 255 
0 0.291316 0.146097 255 255 255 255 
0 0.525264 0.895032 255 255 255 255 
0 0.773739 0.774521 255 255 255 255 
0 0.157727 0.476857 255 255 255 255 
0 0.400314 0.876834 255 255 255 255 
0 0.703749 0.153746 255 255 255 255 
0 0.0425236 0.619586 255 255 255 255 
0 0.156076 0.0317943 255 255 255 255 
0 0.374782 0.50442 255 255 255 255 
0 0.210686 0.276212 255 255 255 255 
0 0.119831 0.661549 255 255 255 255 
0 0.893626 0.41859 255 255 255 255 
0 0.242316 0.426047 255 255 255 255 
0 0.732102 0.532141 255 255 255 255 
0 0.964884 0.96225 255 255 255 255 
0 0.558262 0.256199 255 255 255 255 
0 0.108347 0.0835253 255 255 255 255 
0 0.151231 0.882087 255 255 255 255 
0 0.858047 0.308958 255 255 255 255 
0 0.358943 0.25836 255 255 255 255 
0 0.185792 0.062693 255 255 255 255 
0 0.412106 0.228316 255 255 255 255 
0 0.682279 0.568182 255 255 255 255 
0 0.26011 0.0570611 255 255 255 255 
0 0.0726016 0.470796 255 255 255 255 
0 0.333273 0.192432 255 255 255 255 
0 0.132345 0.2269 255 255 255 255 
0 0.611022 0.374661 255 255 255 255 
0 0.652946 0.343125 255 255 255 255 
0 0.906803 0.61783 255 255 255 255 
0 0.305375 0.465064 255 255 255 255 
0 0.87403 0.413722 255 255 255 255 
0 0.548589 0.0252609 255 255 255 255 
0 0.295809 0.406636 255 255 255 255 
0 0.334219 0.654753 255 255 255 255 
0 0.664996 0.520012 255 255 255 255 
0 0.717446 0.0771019 255 255 255 255 
0 0.748328 0.399724 255 255 255 255 
0 0.645283 0.00843811 255 255 255 255 
0 0.456786 0.717885 255 255 255 255 
0 0.479234 0.790059 255 255 255 255 
0 0.910317 0.611579 255 255 255 255 
0 0.0169589 0.52134 255 255 255 255 
0 0.98624 0.669905 255 255 255 255 
0 0.864464 0.893043 255 255 255 255 
0 0.287735 0.169839 255 255 255 255 
0 0.358107 0.161765 255 255 255 255 
0 0.583561 0.906696 255 255 255 255 
0 0.187026 0.87937 255 255 255 255 
0 0.313332 0.521245 255 255 255 255 
0 0.534123 0.978329 255 255 255 255 
0 0.0412566 0.251568 255 255 255 255 
0 0.0554304 0.789584 255 255 255 255 
0 0.651293 0.700714 255 255 255 255 
0 0.798022 0.108078 255 255 255 255 
0 0.418599 0.277257 255 255 255 255 
0 0.898137 0.328916 255 255 255 255 
0 0.888836 0.915096 255 255 255 255 
0 0.850256 0.875076 255 255 255 255 
0 0.585001 0.71472 255 255 255 255 
0 0.768119 0.872737 255 255 255 255 
0 0.884559 0.126226 255 255 255 255 
0 0.0345017 0.46812 255 255 255 255 
0 0.0329224 0.221528 255 255 255 255 
0 0.34749 0.346255 255 255 255 255 
0 0.742772 0.881612 255 255 255 255 
0 0.324583 0.784029 255 255 255 255 
0 0.13318 0.380014 255 255 255 255 
0 0.573613 0.784473 255 255 255 255 
0 0.0807276 0.371636 255 255 255 255 
0 0.892551 0.499327 255 255 255 255 
0 0.648892 0.790689 255 255 255 255 
0 0.828243 0.537728 255 255 255 255 
0 0.705785 0.678499 255 255 255 255 
0 0.412804 0.290786 255 255 255 255 
0 0.393219 0.180923 255 255 255 255 
0 0.163523 0.277778 255 255 255 255 
0 0.307149 0.198024 255 255 255 255 
0 0.745897 0.340071 255 255 255 255 
0 0.419552 0.093387 255 255 255 255 
0 0.686326 0.162324 255 255 255 255 
0 0.974999 0.0109095 255 255 255 255 
0 0.946353 0.10818 255 255 255 255 
0 0.390923 0.519967 255 255 255 255 
0 0.892653 0.471651 255 255 255 255 
0 0.891602 0.785204 255 255 255 255 
0 0.970977 0.540495 255 255 255 255 
0 0.575893 0.79922 255 255 255 255 
0 0.0782224 0.281677 255 255 255 255 
0 0.477719 0.491026 255 255 255 255 
0 0.572463 0.870938 255 255 255 255 
0 0.671949 0.735986 255 255 255 255 
0 0.148715 0.979098 255 255 255 255 
0 0.93401 0.894613 255 255 255 255 
0 0.31917 0.353562 255 255 255 255 
0 0.988 0.00549604 255 255 255 255 
0 0.515887 0.962999 255 255 255 255 
0 0.0164055 0.46224 255 255 255 255 
0 0.0711787 0.407329 255 255 255 255 
0 0.982207 0.963832 255 255 255 255 
0 0.878979 0.873809 255 255 255 255 
0 0.749036 0.849957 255 255 255 255 
0 0.414304 0.324929 255 255 255 255 
0 0.649177 0.492526 255 255 255 255 
0 0.606606 0.126896 255 255 255 255 
0 0.983552 0.179069 255 255 255 255 
0 0.997834 0.655502 255 255 255 255 
0 0.915055 0.146549 255 255 255 255 
0 0.6346 0.849065 255 255 255 255 
0 0.0411618 0.95377 255 255 255 255 
0 0.202628 0.0291613 255 255 255 255 
0 0.959266 0.718514 255 255 255 255 
0 0.99216 0.975671 255 255 255 255 
0 0.180754 0.063339 255 255 255 255 
0 0.383 0.162961 255 255 255 255 
0 0.0271706 0.26198 255 255 255 255 
0 0.0367699 0.776206 255 255 255 255 
0 0.111936 0.451074 255 255 255 255 
0 0.101135 0.761113 255 255 255 255 
0 0.9436 0.707741 255 255 255 255 
0 0.888009 0.927152 255 255 255 255 
0 0.88681 0.885843 255 255 255 255 
0 0.582654 0.801865 255 255 255 255 
0 0.0323924 0.217254 255 255 255 255 
0 0.65093 0.0735542 255 255 255 255 
0 0.171024 0.853558 255 255 255 255 
0 0.102716 0.13029 255 255 255 255 
0 0.572072 0.0948758 255 255 255 255 
0 0.105961 0.752826 255 255 255 255 
0 0.158215 0.488961 255 255 255 255 
0 0.915787 0.185385 255 255 255 255 
0 0.750941 0.952557 255 255 255 255 
0 0.961592 0.862877 255 255 255 255 
0 0.40363 0.0627269 255 255 255 255 
0 0.623991 0.34723 255 255 255 255 
0 0.770468 0.512 255 255 255 255 
0 0.274382 0.657278 255 255 255 255 
0 0.397843 0.857036 255 255 255 255 
0 0.459143 0.430236 255 255 255 255 
0 0.0742898 0.110073 255 255 255 255 
0 0.50379 0.245314 255 255 255 255 
0 0.96363 0.606505 255 255 255 255 
0 0.375603 0.535702 255 255 255 255 
0 0.701381 0.481565 255 255 255 255 
0 0.288528 0.859596 255 255 255 255 
0 0.970526 0.204315 255 255 255 255 
0 0.0449814 0.721467 255 255 255 255 
0 0.156872 0.00657335 255 255 255 255 
0 0.584344 0.560502 255 255 255 255 
0 0.0693003 0.208335 255 255 255 255 
0 0.907732 0.839768 255 255 255 255 
0 0.720335 0.182114 255 255 255 255 
0 0.497046 0.118178 255 255 255 255 
0 0.0391502 0.956188 255 255 255 255 
0 0.548414 0.11344 255 255 255 255 
0 0.0662611 0.0522035 255 255 255 255 
0 0.358754 0.0298914 255 255 255 255 
0 0.658709 0.734357 255 255 255 255 
0 0.565594 0.36009 255 255 255 255 
0 0.215922 0.854122 255 255 255 255 
0 0.219686 0.186448 255 255 255 255 
0 0.0584369 0.264668 255 255 255 255 
0 0.907914 0.215309 255 255 255 255 
0 0.271241 0.492259 255 255 255 255 
0 0.775811 0.340541 255 255 255 255 
0 0.700594 0.683543 255 255 255 255 
0 0.180309 0.420928 255 255 255 255 
0 0.865657 0.677355 255 255 255 255 
0 0.539106 0.904807 255 255 255 255 
0 0.633543 0.0875201 255 255 255 255 
0 0.0182474 0.699805 255 255 255 255 
0 0.139724 0.377001 255 255 255 255 
0 0.729696 0.798433 255 255 255 255 
0 0.111358 0.29529 255 255 255 255 
0 0.158523 0.32728 255 255 255 255 
0 0.149412 0.378209 255 255 255 255 
0 0.513727 0.207849 255 255 255 255 
0 0.642877 0.421642 255 255 255 255 
0 0.423157 0.914118 255 255 255 255 
0 0.9139 0.198968 255 255 255 255 
0 0.254659 0.614494 255 255 255 255 
0 0.882511 0.434968 255 255 255 255 
0 0.0354224 0.748168 255 255 255 255 
0 0.112323 0.574529 255 255 255 255 
0 0.652976 0.745867 255 255 255 255 
0 0.662049 0.671223 255 255 255 255 
0 0.445671 0.801773 255 255 255 255 
0 0.0482242 0.175367 255 255 255 255 
0 0.600205 0.159582 255 255 255 255 
0 0.470657 0.758728 255 255 255 255 
0 0.486862 0.620069 255 255 255 255 
0 0.136937 0.000589393 255 255 255 255 
0 0.827917 0.779814 255 255 255 255 
0 0.422231 0.251074 255 255 255 255 
0 0.693931 0.336132 255 255 255 255 
0 0.450042 0.94859 255 255 255 255 
0 0.950626 0.332554 255 255 255 255 
0 0.383558 0.986048 255 255 255 255 
0 0.0807218 0.495882 255 255 255 255 
0 0.560577 0.733697 255 255 255 255 
0 0.241749 0.222626 255 255 255 255 
0 0.404921 0.68742 255 255 255 255 
0 0.0243982 0.453145 255 255 255 255 
0 0.862787 0.624603 255 255 255 255 
0 0.612727 0.333445 255 255 255 255 
0 0.383331 0.0995894 255 255 255 255 
0 0.953513 0.520268 255 255 255 255 
0 0.100179 0.78143 255 255 255 255 
0 0.300082 0.52241 255 255 255 255 
0 0.0325048 0.994013 255 255 255 255 
0 0.858541 0.482547 255 255 255 255 
0 0.942603 0.809167 255 255 255 255 
0 0.815101 0.326162 255 255 255 255 
0 0.795215 0.895823 255 255 255 255 
0 0.822043 0.355792 255 255 255 255 
0 0.62952 0.0637919 255 255 255 255 
0 0.578417 0.0344407 255 255 255 255 
0 0.751212 0.602815 255 255 255 255 
0 0.487586 0.613999 255 255 255 255 
0 0.227419 0.100313 255 255 255 255 
0 0.947444 0.61075 255 255 255 255 
0 0.199902 0.900957 255 255 255 255 
0 0.131019 0.300081 255 255 255 255 
0 0.682387 0.431101 255 255 255 255 
0 0.822491 0.714892 255 255 255 255 
0 0.425114 0.681032 255 255 255 255 
0 0.19744 0.367717 255 255 255 255 
0 0.490199 0.0125403 255 255 255 255 
0 0.693879 0.285414 255 255 255 255 
0 0.908363 0.515922 255 255 255 255 
0 0.641206 0.537883 255 255 255 255 
0 0.579714 0.219623 255 255 255 255 
0 0.572324 0.330926 255 255 255 255 
0 0.822439 0.0599092 255 255 255 255 
0 0.944925 0.0498574 255 255 255 255 
0 0.160222 0.892369 255 255 255 255 
0 0.660608 0.360124 255 255 255 255 
0 0.793326 0.791626 255 255 255 255 
0 0.660205 0.475713 255 255 255 255 
0 0.222727 0.482696 255 255 255 255 
0 0.190606 0.64784 255 255 255 255 
0 0.163728 0.388045 255 255 255 255 
0 0.0155574 0.653928 255 255 255 255 
0 0.400586 0.709436 255 255 255 255 
0 0.939342 0.308949 255 255 255 255 
0 0.225358 0.580548 255 255 255 255 
0 0.846831 0.805072 255 255 255 255 
0 0.800171 0.419155 255 255 255 255 
0 0.135998 0.62261 255 255 255 255 
0 0.479064 0.0809225 255 255 255 255 
0 0.672467 0.639286 255 255 255 255 
0 0.973291 0.333075 255 255 255 255 
0 0.999411 0.766617 255 255 255 255 
0 0.124701 0.659616 255 255 255 255 
0 0.242331 0.347427 255 255 255 255 
0 0.142312 0.432937 255 255 255 255 
0 0.995268 0.30604 255 255 255 255 
0 0.820982 0.010825 255 255 255 255 
0 0.959968 0.221568 255 255 255 255 
0 0.720261 0.89931 255 255 255 255 
0 0.530516 0.945619 255 255 255 255 
0 0.479858 0.377348 255 255 255 255 
0 0.750691 0.28003 255 255 255 255 
0 0.796503 0.886688 255 255 255 255 
0 0.902639 0.275567 255 255 255 255 
0 0.967611 0.575107 255 255 255 255 
0 0.914853 0.940902 255 255 255 255 
0 0.908181 0.914264 255 255 255 255 
0 0.70752 0.0328819 255 255 255 255 
0 0.57388 0.949851 255 255 255 255 
0 0.380309 0.716192 255 255 255 255 
0 0.382787 0.375577 255 255 255 255 
0 0.0222321 0.203769 255 255 255 255 
0 0.386402 0.9822 255 255 255 255 
0 0.425337 0.106663 255 255 255 255 
0 0.88151 0.955853 255 255 255 255 
0 0.052282 0.361369 255 255 255 255 
0 0.333201 0.802973 255 255 255 255 
0 0.641398 0.129703 255 255 255 255 
0 0.689661 0.544038 255 255 255 255 
0 0.40527 0.657272 255 255 255 255 
0 0.119144 0.320124 255 255 255 255 
0 0.598174 0.0273255 255 255 255 255 
0 0.234387 0.305694 255 255 255 255 
0 0.0602075 0.808267 255 255 255 255 
0 0.255544 0.440517 255 255 255 255 
0 0.524459 0.638332 255 255 255 255 
0 0.816094 0.546691 255 255 255 255 
0 0.842101 0.202496 255 255 255 255 
0 0.528891 0.267438 255 255 255 255 
0 0.309159 0.410402 255 255 255 255 
0 0.223291 0.361441 255 255 255 255 
0 0.771771 0.556491 255 255 255 255 
0 0.164413 0.413169 255 255 255 255 
0 0.686194 0.854074 255 255 255 255 
0 0.957207 0.0914647 255 255 255 255 
0 0.511346 0.0763512 255 255 255 255 
0 0.411588 0.10952 255 255 255 255 
0 0.103677 0.645976 255 255 255 255 
0 0.415214 0.163884 255 255 255 255 
0 0.454243 0.670758 255 255 255 255 
0 0.604401 0.978702 255 255 255 255 
0 0.30909 0.420495 255 255 255 255 
0 0.525393 0.151191 255 255 255 255 
0 0.62299 0.0542844 255 255 255 255 
0 0.418629 0.932149 255 255 255 255 
0 0.464686 0.64192 255 255 255 255 
0 0.293589 0.236457 255 255 255 255 
0 0.198411 0.458002 255 255 255 255 
0 0.649626 0.884605 255 255 255 255 
0 0.312077 0.606833 255 255 255 255 
0 0.97607 0.823423 255 255 255 255 
0 0.683184 0.387658 255 255 255 255 
0 0.932943 0.786861 255 255 255 255 
0 0.0336339 0.348157 255 255 255 255 
0 0.950745 0.487877 255 255 255 255 
0 0.0189154 0.555146 255 255 255 255 
0 0.466579 0.328005 255 255 255 255 
0 0.97564 0.991972 255 255 255 255 
0 0.479197 0.598631 255 255 255 255 
0 0.0462562 0.897825 255 255 255 255 
0 0.530779 0.510942 255 255 255 255 
0 0.539745 0.824368 255 255 255 255 
0 0.747399 0.738156 255 255 255 255 
0 0.282371 0.397025 255 255 255 255 
0 0.622761 0.594447 255 255 255 255 
0 0.00385822 0.598831 255 255 255 255 
0 0.41787 0.687042 255 255 255 255 
0 0.986489 0.350813 255 255 255 255 
0 0.473903 0.0201234 255 255 255 255 
0 0.69897 0.424648 255 255 255 255 
0 0.508 0.717885 255 255 255 255 
0 0.979794 0.974579 255 255 255 255 
0 0.0458909 0.955434 255 255 255 255 
0 0.966551 0.525087 255 255 255 255 
0 0.554065 0.012807 255 255 255 255 
0 0.422913 0.084844 255 255 255 255 
0 0.523749 0.962658 255 255 255 255 
0 0.909212 0.271149 255 255 255 255 
0 0.700814 0.191583 255 255 255 255 
0 0.668174 0.323575 255 255 255 255 
0 0.786031 0.672032 255 255 255 255 
0 0.922406 0.203901 255 255 255 255 
0 0.359075 0.908895 255 255 255 255 
0 0.554714 0.832978 255 255 255 255 
0 0.929019 0.253684 255 255 255 255 
0 0.257626 0.437019 255 255 255 255 
0 0.971569 0.23742 255 255 255 255 
0 0.411598 0.0174604 255 255 255 255 
0 0.192854 0.378149 255 255 255 255 
0 0.542548 0.746919 255 255 255 255 
0 0.390956 0.965461 255 255 255 255 
0 0.831763 0.914705 255 255 255 255 
0 0.928118 0.740975 255 255 255 255 
0 0.185854 0.628932 255 255 255 255 
0 0.932558 0.854028 255 255 255 255 
0 0.952507 0.718589 255 255 255 255 
