ply
format ascii 1.0
comment PCL generated
element vertex 1167
property float x
property float y
property float z
property uchar red
property uchar green
property uchar blue
property uchar alpha
element camera 0
property float view_px
property float view_py
property float view_pz
property float x_axisx
property float x_axisy
property float x_axisz
property float y_axisx
property float y_axisy
property float y_axisz
property float z_axisx
property float z_axisy
property float z_axisz
property float focal
property float scalex
property float scaley
property float centerx
property float centery
property int viewportx
property int viewporty
property float k1
property float k2
end_header
0.17707008 0 0.26880226 255 255 255 255
0.010426315 0 0.21887684 255 255 255 255
0.2251264 0 0.26733416 255 255 255 255
0.052968282 0 0.16584019 255 255 255 255
0.17094362 0 0.055130307 255 255 255 255
0.15890622 0 0.21476142 255 255 255 255
0.051581584 0 0.16800158 255 255 255 255
0.076136962 0 0.027950849 255 255 255 255
0.29187435 0 0.11560111 255 255 255 255
0.22623567 0 0.10246419 255 255 255 255
0.037457917 0 0.25539768 255 255 255 255
0.29568034 0 0.17299543 255 255 255 255
0.17886978 0 0.21618371 255 255 255 255
0.22561483 0 0.23818737 255 255 255 255
0.24668947 0 0.096176609 255 255 255 255
0.18615207 0 0.12375955 255 255 255 255
0.06497886 0 0.19657838 255 255 255 255
0.042636398 0 0.29010528 255 255 255 255
0.16391255 0 0.095604673 255 255 255 255
0.15594548 0 0.034856174 255 255 255 255
0.15073499 0 0.014851691 255 255 255 255
0.24961761 0 0.20231658 255 255 255 255
0.18285327 0 0.02575456 255 255 255 255
0.23026744 0 0.1747276 255 255 255 255
0.14135568 0 0.15650311 255 255 255 255
0.27719179 0 0.17881359 255 255 255 255
0.11190077 0 0.27287215 255 255 255 255
0.051809035 0 0.29077053 255 255 255 255
0.18905586 0 0.27742386 255 255 255 255
0.22895791 0 0.13574533 255 255 255 255
0.073600478 0 0.11510997 255 255 255 255
0.25950488 0 0.13857934 255 255 255 255
0.011688352 0 0.0021412771 255 255 255 255
0.1286846 0 0.1756009 255 255 255 255
0.097745955 0 0.28463009 255 255 255 255
0.21045709 0 0.24848095 255 255 255 255
0.29948178 0 0.16007467 255 255 255 255
0.15079753 0 0.18233503 255 255 255 255
0.18582924 0 0.081064939 255 255 255 255
0.057062648 0 0.027184907 255 255 255 255
0.23756805 0 0.034254454 255 255 255 255
0.2059985 0 0.049468823 255 255 255 255
0.0071265991 0 0.25780755 255 255 255 255
0.040239364 0 0.19618246 255 255 255 255
0.23523141 0 0.26919726 255 255 255 255
0.031927783 0 0.0088318782 255 255 255 255
0.084307238 0 0.29143268 255 255 255 255
0.14741121 0 0.09599559 255 255 255 255
0.29357395 0 0.27609581 255 255 255 255
0.27159649 0 0.091319889 255 255 255 255
0.26072589 0 0.18205358 255 255 255 255
0.039800845 0 0.26020768 255 255 255 255
0.042128246 0 0.19059837 255 255 255 255
0.1425427 0 0.22795747 255 255 255 255
0.27166331 0 0.19960535 255 255 255 255
0.25514239 0 0.20923135 255 255 255 255
0.23385981 0 0.16114089 255 255 255 255
0.25870016 0 0.24098641 255 255 255 255
0.11894842 0 0.29893953 255 255 255 255
0.13716887 0 0.054179832 255 255 255 255
0.2681368 0 0.16909665 255 255 255 255
0.063011713 0 0.052444045 255 255 255 255
0.1605293 0 0.21042293 255 255 255 255
0.14843963 0 0.15410325 255 255 255 255
0.18651874 0 0.12003613 255 255 255 255
0.24542314 0 0.14724463 255 255 255 255
0.002089706 0 0.28522399 255 255 255 255
0.10745232 0 0.044217952 255 255 255 255
0.17582235 0 0.24999502 255 255 255 255
0.27217543 0 0.14748564 255 255 255 255
0.14960037 0 0.22731781 255 255 255 255
0.056717001 0 0.083460189 255 255 255 255
0.088458702 0 0.015417171 255 255 255 255
0.024446594 0 0.20740712 255 255 255 255
0.014356703 0 0.16161545 255 255 255 255
0.26158696 0 0.2824935 255 255 255 255
0.0307121 0 0.024598669 255 255 255 255
0.034937546 0 0.19124141 255 255 255 255
0.23502159 0 0.18337718 255 255 255 255
0.045344647 0 0.12154033 255 255 255 255
0.0034133173 0 0.29076779 255 255 255 255
0.26878497 0 0.005503023 255 255 255 255
0.27599177 0 0.076237284 255 255 255 255
0.049720977 0 0.15181412 255 255 255 255
0.02623231 0 0.021896401 255 255 255 255
0.29929978 0 0.17583269 255 255 255 255
0.24921422 0 0.056016758 255 255 255 255
0.25929287 0 0.037672915 255 255 255 255
0.071433932 0 0.28373948 255 255 255 255
0.24508004 0 0.085790634 255 255 255 255
0.14535493 0 0.20666699 255 255 255 255
0.068284139 0 0.17606702 255 255 255 255
0.23126566 0 0.10322169 255 255 255 255
0.067308433 0 0.16628724 255 255 255 255
0.28659889 0 0.11265308 255 255 255 255
0.28782758 0 0.29001218 255 255 255 255
0.10342087 0 0.25661254 255 255 255 255
0.29551521 0 0.079412639 255 255 255 255
0.032849845 0 0.045236189 255 255 255 255
0.23122674 0 0.059082158 255 255 255 255
0.067132592 0 0.23052651 255 255 255 255
0.23491484 0 0.016346803 255 255 255 255
0.28654328 0 0.19420773 255 255 255 255
0.054019716 0 0.057977214 255 255 255 255
0.17794719 0 0.29909977 255 255 255 255
0.14376785 0 0.023302108 255 255 255 255
0.20576675 0 0.21205199 255 255 255 255
0.19936913 0 0.13703242 255 255 255 255
0.015273682 0 0.26667756 255 255 255 255
0.0033196723 0 0.0018725569 255 255 255 255
0.079330638 0 0.29114726 255 255 255 255
0.29188475 0 0.18275151 255 255 255 255
0.24775982 0 0.28739998 255 255 255 255
0.26216415 0 0.28060967 255 255 255 255
0.032636154 0 0.19339091 255 255 255 255
0.039691821 0 0.099768743 255 255 255 255
0.12391742 0 0.27460667 255 255 255 255
0.11611555 0 0.11046071 255 255 255 255
0.16881438 0 0.17013527 255 255 255 255
0.16843791 0 0.046761569 255 255 255 255
0.16923502 0 0.012205765 255 255 255 255
0.070063673 0 0.075001769 255 255 255 255
0.22425777 0 0.26943281 255 255 255 255
0.21203418 0 0.23953144 255 255 255 255
0.23611037 0 0.21535386 255 255 255 255
0.241404 0 0.015441014 255 255 255 255
0.20650111 0 0.23328874 255 255 255 255
0.19819252 0 0.15426093 255 255 255 255
0.2206887 0 0.16035667 255 255 255 255
0.1348706 0 0.25332487 255 255 255 255
0.053747583 0 0.17456242 255 255 255 255
0.053093608 0 0.177665 255 255 255 255
0.14916907 0 0.16920915 255 255 255 255
0.28812572 0 0.017983461 255 255 255 255
0.039344415 0 0.15656364 255 255 255 255
0.064745031 0 0.20857942 255 255 255 255
0.16876939 0 0.1348087 255 255 255 255
0.2835812 0 0.093027145 255 255 255 255
0.10424151 0 0.1956154 255 255 255 255
0.032558583 0 0.040351886 255 255 255 255
0.11096925 0 0.27396259 255 255 255 255
0.055792902 0 0.017470365 255 255 255 255
0.20725133 0 0.25398543 255 255 255 255
0.17173129 0 0.12794003 255 255 255 255
0.11434211 0 0.0066018952 255 255 255 255
0.081264891 0 0.16808969 255 255 255 255
0.18116432 0 0.1343585 255 255 255 255
0.045754693 0 0.030333389 255 255 255 255
0.0035676498 0 0.033880409 255 255 255 255
0.048316848 0 0.042912066 255 255 255 255
0.19044402 0 0.11306188 255 255 255 255
0.25149149 0 0.059213426 255 255 255 255
0.24787059 0 0.2350727 255 255 255 255
0.15224057 0 0.052112095 255 255 255 255
0.1306881 0 0.18479916 255 255 255 255
0.092463978 0 0.24165735 255 255 255 255
0.15876174 0 0.14825688 255 255 255 255
0.25912771 0 0.066013053 255 255 255 255
0.10224231 0 0.130859 255 255 255 255
0.1939531 0 0.21658441 255 255 255 255
0.1374609 0 0.27521798 255 255 255 255
0.084674105 0 0.018625213 255 255 255 255
0.10957647 0 0.13042879 255 255 255 255
0.048958603 0 0.11314411 255 255 255 255
0.1643092 0 0.097275451 255 255 255 255
0.15605618 0 0.054753236 255 255 255 255
0.21033733 0 0.10754769 255 255 255 255
0.11396667 0 0.15820792 255 255 255 255
0.042620391 0 0.26620725 255 255 255 255
0.21032 0 0.17330849 255 255 255 255
0.15100639 0 0.0027839837 255 255 255 255
0.11496583 0 0.0097681237 255 255 255 255
0.15104085 0 0.074093536 255 255 255 255
0.075781174 0 0.25328317 255 255 255 255
0.20495254 0 0.26973426 255 255 255 255
0.16986759 0 0.042413451 255 255 255 255
0.24495223 0 0.2545417 255 255 255 255
0.061038665 0 0.054528702 255 255 255 255
0.084970489 0 0.10999727 255 255 255 255
0.16767283 0 0.24927969 255 255 255 255
0.20727271 0 0.023729004 255 255 255 255
0.0040329266 0 0.11761004 255 255 255 255
0.13127668 0 0.11799959 255 255 255 255
0.27581796 0 0.17389709 255 255 255 255
0.084206827 0 0.18613796 255 255 255 255
0.047205564 0 0.23521321 255 255 255 255
0.18892194 0 0.16217139 255 255 255 255
0.24498133 0 0.039962806 255 255 255 255
0.23626494 0 0.020762514 255 255 255 255
0.29324597 0 0.14121747 255 255 255 255
0.29049677 0 0.16311356 255 255 255 255
0.18363093 0 0.23544902 255 255 255 255
0.11765525 0 0.24466959 255 255 255 255
0.2899777 0 0.20262575 255 255 255 255
0.054666854 0 0.15765053 255 255 255 255
0.15190542 0 0.26193956 255 255 255 255
0.18137954 0 0.15593836 255 255 255 255
0.079549611 0 0.012656225 255 255 255 255
0.27393794 0 0.055367563 255 255 255 255
0.1865533 0 0.058144767 255 255 255 255
0.2415055 0 0.23375888 255 255 255 255
0.293358 0 0.13042745 255 255 255 255
0.095930271 0 0.23833932 255 255 255 255
0.17039026 0 0.032195199 255 255 255 255
0.25910184 0 0.16363624 255 255 255 255
0.17341268 0 0.24959861 255 255 255 255
0.026749803 0 0.057043605 255 255 255 255
0.18504763 0 0.14440505 255 255 255 255
0.0017131888 0 0.17502533 255 255 255 255
0.047030795 0 0.056380037 255 255 255 255
0.032675862 0 0.19893622 255 255 255 255
0.018319607 0 0.2140554 255 255 255 255
0.054874577 0 0.09786921 255 255 255 255
0.22671163 0 0.02881252 255 255 255 255
0.15323678 0 0.11326493 255 255 255 255
0.086957291 0 0.094742291 255 255 255 255
0.047023799 0 0.08031527 255 255 255 255
0.22516975 0 0.14295407 255 255 255 255
0.018654594 0 0.095559999 255 255 255 255
0.17514926 0 0.27775645 255 255 255 255
0.25919622 0 0.048561946 255 255 255 255
0.22735505 0 0.28594604 255 255 255 255
0.10560554 0 0.11240267 255 255 255 255
0.1303511 0 0.10731873 255 255 255 255
0.28742799 0 0.17738189 255 255 255 255
0.16369878 0 0.02010387 255 255 255 255
0.076318108 0 0.18201838 255 255 255 255
0.23415926 0 0.13119268 255 255 255 255
0.27988759 0 0.16087088 255 255 255 255
0.16000521 0 0.13312437 255 255 255 255
0.27413583 0 0.2469625 255 255 255 255
0.22786665 0 0.021159625 255 255 255 255
0.027277766 0 0.1530364 255 255 255 255
0.1641137 0 0.04593236 255 255 255 255
0.24859641 0 0.039262962 255 255 255 255
0.023688791 0 0.20779264 255 255 255 255
0.087824903 0 0.25104383 255 255 255 255
0.19373867 0 0.19343045 255 255 255 255
0.063446507 0 0.024089776 255 255 255 255
0.00074918527 0 0.050874516 255 255 255 255
0.20147166 0 0.16444795 255 255 255 255
0.070978388 0 0.27778977 255 255 255 255
0.046466339 0 0.0051376573 255 255 255 255
0.10898246 0 0.026353937 255 255 255 255
0.16600855 0 0.26898769 255 255 255 255
0.15947832 0 0.14014438 255 255 255 255
0.21595016 0 0.087344974 255 255 255 255
0.161304 0 0.24322793 255 255 255 255
0.24038137 0 0.025417693 255 255 255 255
0.28916028 0 0.18897779 255 255 255 255
0.064680651 0 0.012849079 255 255 255 255
0.096770428 0 0.15250556 255 255 255 255
0.26389292 0 0.2905091 255 255 255 255
0.045936007 0 0.027339431 255 255 255 255
0.014598886 0 0.046685193 255 255 255 255
0.078213945 0 0.21607055 255 255 255 255
0.21113315 0 0.14919233 255 255 255 255
0.19386032 0 0.2575995 255 255 255 255
0.15433 0 0.0028427867 255 255 255 255
0.28395343 0 0.020338543 255 255 255 255
0.27183047 0 0.14343174 255 255 255 255
0.16048291 0 0.18778062 255 255 255 255
0.23077671 0 0.021786915 255 255 255 255
0.13100855 0 0.17115811 255 255 255 255
0.047204606 0 0.12016883 255 255 255 255
0.060135886 0 0.11188526 255 255 255 255
0.13301791 0 0.15690631 255 255 255 255
0.26439083 0 0.096910834 255 255 255 255
0.14741543 0 0.01032683 255 255 255 255
0.12425026 0 0.16201431 255 255 255 255
0.057012025 0 0.20246421 255 255 255 255
0.078084864 0 0.26814517 255 255 255 255
0.051656548 0 0.27194518 255 255 255 255
0.22574466 0 0.20598653 255 255 255 255
0.27478796 0 0.20969811 255 255 255 255
0.22632508 0 0.24661842 255 255 255 255
0.053129848 0 0.086807996 255 255 255 255
0.13439904 0 0.28390658 255 255 255 255
0.10859492 0 0.26540759 255 255 255 255
0.15506467 0 0.15579952 255 255 255 255
0.085576423 0 0.21520054 255 255 255 255
0.26768479 0 0.21859434 255 255 255 255
0.072106868 0 0.2320756 255 255 255 255
0.015505175 0 0.21952228 255 255 255 255
0.24240243 0 0.13975544 255 255 255 255
0.081536606 0 0.29941446 255 255 255 255
0.04221965 0 0.15962146 255 255 255 255
0.26755965 0 0.093876198 255 255 255 255
0.13156666 0 0.19330432 255 255 255 255
0.29986274 0 0.10635463 255 255 255 255
0.10300242 0 0.22618783 255 255 255 255
0.052973054 0 0.15613228 255 255 255 255
0.012995816 0 0.18737209 255 255 255 255
0.14003883 0 0.12159073 255 255 255 255
0.1527797 0 0.29510349 255 255 255 255
0.27739024 0 0.23835611 255 255 255 255
0.21030405 0 0.24507503 255 255 255 255
0.15695046 0 0.28241092 255 255 255 255
0.17715064 0 0.17245564 255 255 255 255
0.20193322 0 0.11955307 255 255 255 255
0.012211076 0 0.28346983 255 255 255 255
0.11896754 0 0.054430723 255 255 255 255
0.14309128 0 0.086527176 255 255 255 255
0.14830692 0 0.27465793 255 255 255 255
0.2798315 0 0.14816967 255 255 255 255
0.081012562 0 0.082833908 255 255 255 255
0.07435748 0 0.13398561 255 255 255 255
0.2389662 0 0.087353289 255 255 255 255
0.021357715 0 0.079005033 255 255 255 255
0.20894402 0 0.17413741 255 255 255 255
0.074108534 0 0.18633428 255 255 255 255
0.11249353 0 0.28441259 255 255 255 255
0.1314093 0 0.26944399 255 255 255 255
0.26682353 0 0.0085599506 255 255 255 255
0.14189963 0 0.16875672 255 255 255 255
0.12811302 0 0.1541107 255 255 255 255
0.15222654 0 0.24708055 255 255 255 255
0.20854142 0 0.29531783 255 255 255 255
0.033607736 0 0.056848355 255 255 255 255
0.26997575 0 0.013439227 255 255 255 255
0.20501801 0 0.050988324 255 255 255 255
0.096273139 0 0.27937549 255 255 255 255
0.18497393 0 0.035239328 255 255 255 255
0.066728778 0 0.20633164 255 255 255 255
0.11424436 0 0.27567279 255 255 255 255
0.080469057 0 0.18835288 255 255 255 255
0.16200706 0 0.19296259 255 255 255 255
0.17276548 0 0.29341638 255 255 255 255
0.16240659 0 0.13958901 255 255 255 255
0.0019763336 0 0.00430622 255 255 255 255
0.0083457334 0 0.13008936 255 255 255 255
0.15841693 0 0.16057229 255 255 255 255
0.077169925 0 0.06695836 255 255 255 255
0.15589011 0 0.11077765 255 255 255 255
0.12380672 0 0.12586586 255 255 255 255
0.12421688 0 0.028824732 255 255 255 255
0.17685419 0 0.22049002 255 255 255 255
0.0082002208 0 0.061828133 255 255 255 255
0.25572935 0 0.074928999 255 255 255 255
0.26815978 0 0.069973715 255 255 255 255
0.050601799 0 0.048628848 255 255 255 255
0.25832662 0 0.21260887 255 255 255 255
0.24159145 0 0.1310921 255 255 255 255
0.20602527 0 0.10399804 255 255 255 255
0.27068108 0 0.20800158 255 255 255 255
0.10830425 0 0.27902684 255 255 255 255
0.038090952 0 0.26672119 255 255 255 255
0.13959911 0 0.11526087 255 255 255 255
0.033679541 0 0.29548922 255 255 255 255
0.22603853 0 0.15748626 255 255 255 255
0.12135509 0 0.050255414 255 255 255 255
0.18631099 0 0.29820928 255 255 255 255
0.27074546 0 0.1945112 255 255 255 255
0.060037412 0 0.22647481 255 255 255 255
0.2694402 0 0.028197195 255 255 255 255
0.2964485 0 0.020042013 255 255 255 255
0.076826051 0 0.25477511 255 255 255 255
0.23265089 0 0.018417489 255 255 255 255
0.085867211 0 0.13867614 255 255 255 255
0.12241552 0 0.056548316 255 255 255 255
0.046677738 0 0.23071977 255 255 255 255
0.035575151 0 0.084768683 255 255 255 255
0.19744097 0 0.17517427 255 255 255 255
0.20002957 0 0.2311205 255 255 255 255
0.17066349 0 0.12606809 255 255 255 255
0.08860676 0 0.29201856 255 255 255 255
0.1763235 0 0.27491775 255 255 255 255
0.29022786 0 0.14706895 255 255 255 255
0.16942896 0 0.050265271 255 255 255 255
0.073543742 0 0.13886917 255 255 255 255
0.078462467 0 0.069992252 255 255 255 255
0.1589112 0 0.15528852 255 255 255 255
0.024767371 0 0.091562077 255 255 255 255
0.17370601 0 0.11063459 255 255 255 255
0.23023823 0 0.29612154 255 255 255 255
0.16718289 0 0.27691597 255 255 255 255
0.2268413 0 0.20275804 255 255 255 255
0.061684653 0 0.12428226 255 255 255 255
0.077932313 0 0.26171422 255 255 255 255
0.055402752 0 0.2485958 255 255 255 255
0.087782301 0 0.14400952 255 255 255 255
0.24061437 0 0.2641058 255 255 255 255
0.11892726 0 0.23084225 255 255 255 255
0.11117476 0 0.28835621 255 255 255 255
0.28110752 0 0.18471852 255 255 255 255
0.12722538 0 0.059569977 255 255 255 255
0.25471076 0 0.28613657 255 255 255 255
0.2148585 0 0.27947813 255 255 255 255
0.077698663 0 0.088564493 255 255 255 255
0.090112716 0 0.0079368791 255 255 255 255
0.084686011 0 0.25729561 255 255 255 255
0.28485283 0 0.011527312 255 255 255 255
0.16005367 0 0.046537489 255 255 255 255
0.13580957 0 0.23798598 255 255 255 255
0.0082516996 0 0.19121233 255 255 255 255
0.18658179 0 0.096033998 255 255 255 255
0.035221826 0 0.12719618 255 255 255 255
0.060139816 0 0.15414909 255 255 255 255
0.058038406 0 0.17131457 255 255 255 255
0.1425053 0 0.03914592 255 255 255 255
0.056033086 0 0.26973069 255 255 255 255
0.098715894 0 0.010743844 255 255 255 255
0.25586727 0 0.013574382 255 255 255 255
0.29022196 0 0.033565935 255 255 255 255
0.10213888 0 0.080334693 255 255 255 255
0.041502811 0 0.18682489 255 255 255 255
0.037630312 0 0.026355652 255 255 255 255
0.1983522 0 0.19768398 255 255 255 255
0.072893135 0 0.034161761 255 255 255 255
0.13566996 0 0.08114484 255 255 255 255
0.22537407 0 0.022251755 255 255 255 255
0.17717884 0 0.26059589 255 255 255 255
0.14944793 0 0.23731865 255 255 255 255
0.11474499 0 0.20748633 255 255 255 255
0.10863324 0 0.25725028 255 255 255 255
0.24663225 0 0.16466632 255 255 255 255
0.22698098 0 0.045348149 255 255 255 255
0.17541015 0 0.18284827 255 255 255 255
0.058922529 0 0.16563214 255 255 255 255
0.21641421 0 0.16106141 255 255 255 255
0.24596682 0 0.25791702 255 255 255 255
0.04788629 0 0.28359714 255 255 255 255
0.28427267 0 0.24623848 255 255 255 255
0.18128112 0 0.057165809 255 255 255 255
0.28040025 0 0.016951086 255 255 255 255
0.13831064 0 0.20577434 255 255 255 255
0.039202839 0 0.015489493 255 255 255 255
0.16637024 0 0.18865077 255 255 255 255
0.25280815 0 0.28111523 255 255 255 255
0.096137106 0 0.061441384 255 255 255 255
0.23836552 0 0.04276935 255 255 255 255
0.2261077 0 0.16534653 255 255 255 255
0.088117503 0 0.10151786 255 255 255 255
0.048194796 0 0.14704002 255 255 255 255
0.26715001 0 0.26460901 255 255 255 255
0.0081014344 0 0.21311682 255 255 255 255
0.22252601 0 0.055987723 255 255 255 255
0.19671398 0 0.20679869 255 255 255 255
0.0022262118 0 0.077995099 255 255 255 255
0.2639645 0 0.28262645 255 255 255 255
0.094946183 0 0.10227515 255 255 255 255
0.18840079 0 0.13414901 255 255 255 255
0.11776464 0 0.054771036 255 255 255 255
0.02279979 0 0.070572793 255 255 255 255
0.035886262 0 0.11893689 255 255 255 255
0.13201419 0 0.27425179 255 255 255 255
0.16170625 0 0.058121879 255 255 255 255
0.13959831 0 0.24982373 255 255 255 255
0.15963973 0 0.18779311 255 255 255 255
0.096863776 0 0.12678975 255 255 255 255
0.15240212 0 0.10496521 255 255 255 255
0.039906576 0 0.074928127 255 255 255 255
0.16095293 0 0.23662055 255 255 255 255
0.28172684 0 0.16317914 255 255 255 255
0.014615647 0 0.24569131 255 255 255 255
0.14580561 0 0.10956183 255 255 255 255
0.047966462 0 0.034206405 255 255 255 255
0.24371086 0 0.1657311 255 255 255 255
0.088977441 0 0.26651064 255 255 255 255
0.2363039 0 0.1248637 255 255 255 255
0.085447527 0 0.068318069 255 255 255 255
0.099115491 0 0.24715377 255 255 255 255
0.12643994 0 0.23871382 255 255 255 255
0.19697751 0 0.2860797 255 255 255 255
0.12650691 0 0.2938413 255 255 255 255
0.11286943 0 0.27890903 255 255 255 255
0.098806508 0 0.15277602 255 255 255 255
0.053837147 0 0.25975946 255 255 255 255
0.089396559 0 0.035563964 255 255 255 255
0.12293859 0 0.10401221 255 255 255 255
0.28125528 0 0.2687442 255 255 255 255
0.21357404 0 0.029221741 255 255 255 255
0.0029505999 0 0.1572849 255 255 255 255
0.19495285 0 0.091928035 255 255 255 255
0.12379553 0 0.13125674 255 255 255 255
0.21679172 0 0.20924306 255 255 255 255
0.1995748 0 0.015907224 255 255 255 255
0.15639684 0 0.026014758 255 255 255 255
0.25462103 0 0.053374354 255 255 255 255
0.012094447 0 0.081127934 255 255 255 255
0.047215648 0 0.12496388 255 255 255 255
0.060036961 0 0.14602216 255 255 255 255
0.27773991 0 0.11387412 255 255 255 255
0.1057816 0 0.067136459 255 255 255 255
0.14943808 0 0.22872019 255 255 255 255
0.17114866 0 0.13069335 255 255 255 255
0.19746439 0 0.084722705 255 255 255 255
0.1599151 0 0.20041499 255 255 255 255
0.2420076 0 0.054867946 255 255 255 255
0.29234302 0 0.065803118 255 255 255 255
0.18612468 0 0.20913476 255 255 255 255
0.27504617 0 0.085699491 255 255 255 255
0.22504197 0 0.13144302 255 255 255 255
0.11171426 0 0.179663 255 255 255 255
0.18481737 0 0.1238087 255 255 255 255
0.26079094 0 0.23203301 255 255 255 255
0.24877258 0 0.020827904 255 255 255 255
0.078055181 0 0.22651248 255 255 255 255
0.13470201 0 0.18383679 255 255 255 255
0.29364893 0 0.28414011 255 255 255 255
0.11255697 0 0.16479759 255 255 255 255
0.11483345 0 0.010021348 255 255 255 255
0.24952029 0 0.27474853 255 255 255 255
0.21043634 0 0.19152789 255 255 255 255
0.029616492 0 0.20277935 255 255 255 255
0.25733101 0 0.21574117 255 255 255 255
0.1119141 0 0.2323772 255 255 255 255
0.0014406709 0 0.036956076 255 255 255 255
0.063820213 0 0.11315493 255 255 255 255
0.21661907 0 0.24863759 255 255 255 255
0.23696361 0 0.17741001 255 255 255 255
0.18067062 0 0.18573619 255 255 255 255
0.19823793 0 0.25872579 255 255 255 255
0.11224867 0 0.032939941 255 255 255 255
0.14256257 0 0.1058976 255 255 255 255
0.017080031 0 0.25511953 255 255 255 255
0.27069518 0 0.13191348 255 255 255 255
0.26514089 0 0.2202155 255 255 255 255
0.10666203 0 0.17557722 255 255 255 255
0.11174338 0 0.13627851 255 255 255 255
0.078356564 0 0.069074385 255 255 255 255
0.052019693 0 0.19027066 255 255 255 255
0.0014515833 0 0.053460363 255 255 255 255
0.22722673 0 0.065271795 255 255 255 255
0.16661528 0 0.14384581 255 255 255 255
0.013909382 0 0.10357891 255 255 255 255
0.021255836 0 0.19457999 255 255 255 255
0.2893151 0 0.21949376 255 255 255 255
0.15330578 0 0.1015638 255 255 255 255
0.25243372 0 0.29586837 255 255 255 255
0.20746139 0 0.26951373 255 255 255 255
0.25098789 0 0.17815658 255 255 255 255
0.1014272 0 0.21612877 255 255 255 255
0.098372079 0 0.20808923 255 255 255 255
0.091705993 0 0.21011546 255 255 255 255
0.044367753 0 0.17006257 255 255 255 255
0.27918985 0 0.096387446 255 255 255 255
0.060333226 0 0.28064144 255 255 255 255
0.14984781 0 0.28755996 255 255 255 255
0.045913223 0 0.016463092 255 255 255 255
0.13140579 0 0.059822604 255 255 255 255
0.120042 0 0.15266161 255 255 255 255
0.25440258 0 0.10935711 255 255 255 255
0.072155379 0 0.10770838 255 255 255 255
0.2109209 0 0.024589077 255 255 255 255
0.10357673 0 0.1183823 255 255 255 255
0.29410282 0 0.054564625 255 255 255 255
0.29653889 0 0.095530011 255 255 255 255
0.27069339 0 0.094910957 255 255 255 255
0.0036192504 0 0.062399402 255 255 255 255
0.0050264155 0 0.047986999 255 255 255 255
0.23246196 0 0.28421625 255 255 255 255
0.14437445 0 0.29279518 255 255 255 255
0.26485768 0 0.29422227 255 255 255 255
0.28035516 0 0.010770909 255 255 255 255
0.01068534 0 0.11176093 255 255 255 255
0.070593514 0 0.13072735 255 255 255 255
0.26442257 0 0.024996109 255 255 255 255
0.24008445 0 0.036577925 255 255 255 255
0.1327045 0 0.15100536 255 255 255 255
0.061166998 0 0.23628123 255 255 255 255
0.26938766 0 0.055269808 255 255 255 255
0.29084584 0 0.26592654 255 255 255 255
0.15079981 0 0.26153925 255 255 255 255
0.060837504 0 0.15441908 255 255 255 255
0.023938656 0 0.065863915 255 255 255 255
0.20240608 0 0.25640061 255 255 255 255
0.050080176 0 0.046780519 255 255 255 255
0.2491958 0 0.014937864 255 255 255 255
0.041002765 0 0.22955096 255 255 255 255
0.025708772 0 0.051688105 255 255 255 255
0.041311882 0 0.096302286 255 255 255 255
0.18241544 0 0.0057344292 255 255 255 255
0.1212984 0 0.1224999 255 255 255 255
0.042312354 0 0.2540029 255 255 255 255
0.27350527 0 0.10347936 255 255 255 255
0.1902841 0 0.24289291 255 255 255 255
0.15874916 0 0.18112995 255 255 255 255
0.20881946 0 0.0095489845 255 255 255 255
0.14266922 0 0.26965696 255 255 255 255
0.16396806 0 0.16660786 255 255 255 255
0.035520878 0 0.066374131 255 255 255 255
0.12300847 0 0.085601054 255 255 255 255
0.11315466 0 0.072204277 255 255 255 255
0.10053892 0 0.15415743 255 255 255 255
0.0017552319 0 0.12624769 255 255 255 255
0.20584552 0 0.043067113 255 255 255 255
0.22254997 0 0.088260964 255 255 255 255
0.048801545 0 0.043848369 255 255 255 255
0.21076086 0 0.091113895 255 255 255 255
0.29785123 0 0.18426612 255 255 255 255
0.19459325 0 0.18813536 255 255 255 255
0.12715904 0 0.053342409 255 255 255 255
0.069265313 0 0.035978496 255 255 255 255
0.062891394 0 0.21193451 255 255 255 255
0.0056354576 0 0.22685945 255 255 255 255
0.078542382 0 0.041156337 255 255 255 255
0.2932336 0 0.20155086 255 255 255 255
0.12675738 0 0.10638824 255 255 255 255
0.27375513 0 0.22729631 255 255 255 255
0.26054564 0 0.27551037 255 255 255 255
0.053544004 0 0.16639118 255 255 255 255
0.018577486 0 0.27609396 255 255 255 255
0.25465214 0 0.067379028 255 255 255 255
0.019942349 0 0.16541301 255 255 255 255
0.15849292 0 0.017793603 255 255 255 255
0.049679123 0 0.053086177 255 255 255 255
0.20592895 0 0.17683816 255 255 255 255
0.10642859 0 0.27519426 255 255 255 255
0.21281666 0 0.16931999 255 255 255 255
0.1871288 0 0.21845213 255 255 255 255
0.096179441 0 0.26567116 255 255 255 255
0.25960845 0 0.089413017 255 255 255 255
0.16722204 0 0.086365849 255 255 255 255
0.19580126 0 0.14097719 255 255 255 255
0.013662159 0 0.15634692 255 255 255 255
0.11648755 0 0.067206159 255 255 255 255
0.022738094 0 0.13506503 255 255 255 255
0.043300144 0 0.27739024 255 255 255 255
0.20244408 0 0.063242495 255 255 255 255
0.14280324 0 0.060936999 255 255 255 255
0.081036098 0 0.19248237 255 255 255 255
0.11402318 0 0.28696504 255 255 255 255
0.069320522 0 0.22045176 255 255 255 255
0.26215935 0 0.28213719 255 255 255 255
0.089771748 0 0.14928813 255 255 255 255
0.2005893 0 0.18595119 255 255 255 255
0.11495931 0 0.16019776 255 255 255 255
0.27536419 0 0.28218135 255 255 255 255
0.2465636 0 0.17116547 255 255 255 255
0.12315853 0 0.26022577 255 255 255 255
0.027512386 0 0.23964608 255 255 255 255
0.027431928 0 0.050250478 255 255 255 255
0.074711129 0 0.070732072 255 255 255 255
0.027640712 0 0.27715519 255 255 255 255
0.13397457 0 0.17044394 255 255 255 255
0.0380922 0 0.21501067 255 255 255 255
0.062926307 0 0.15211537 255 255 255 255
0.20197572 0 0.13224684 255 255 255 255
0.072567143 0 0.16413504 255 255 255 255
0.11438402 0 0.1623389 255 255 255 255
0.01342318 0 0.014973321 255 255 255 255
0.04829007 0 0.12838249 255 255 255 255
0.17517108 0 0.023654275 255 255 255 255
0.11056384 0 0.12173469 255 255 255 255
0.19481975 0 0.23372236 255 255 255 255
0.081960447 0 0.22233213 255 255 255 255
0.17336844 0 0.10939237 255 255 255 255
0.27258259 0 0.24807957 255 255 255 255
0.18012445 0 0.00022331737 255 255 255 255
0.22523476 0 0.014099011 255 255 255 255
0.17066726 0 0.26332697 255 255 255 255
0.22910966 0 0.23359357 255 255 255 255
0.11544235 0 0.13108538 255 255 255 255
0.065840401 0 0.1880095 255 255 255 255
0.29522043 0 0.18022442 255 255 255 255
0.050348375 0 0.0086436188 255 255 255 255
0.19519775 0 0.098638445 255 255 255 255
0.13702612 0 0.070368819 255 255 255 255
0.12229272 0 0.24758995 255 255 255 255
0.19210351 0 0.017112458 255 255 255 255
0.18131231 0 0.27406394 255 255 255 255
0.23944458 0 0.054680757 255 255 255 255
0.083456337 0 0.21202719 255 255 255 255
0.0027603256 0 0.2635808 255 255 255 255
0.21225052 0 0.2279951 255 255 255 255
0.2776798 0 0.082917772 255 255 255 255
0.19132206 0 0.20678946 255 255 255 255
0.016511345 0 0.0067644077 255 255 255 255
0.037874855 0 0.082351744 255 255 255 255
0.1947739 0 0.033095296 255 255 255 255
0.26257616 0 0.24512227 255 255 255 255
0.041738912 0 0.15777391 255 255 255 255
0.043760709 0 0.17876503 255 255 255 255
0.22814274 0 0.16605343 255 255 255 255
0.12635496 0 0.12024625 255 255 255 255
0.18316589 0 0.0076672682 255 255 255 255
0.094310209 0 0.12261047 255 255 255 255
0.062348019 0 0.17776655 255 255 255 255
0.034637656 0 0.065108351 255 255 255 255
0.14134733 0 0.24688816 255 255 255 255
0.29310346 0 0.11902713 255 255 255 255
0.029805934 0 0.1844255 255 255 255 255
0.025816601 0 0.046317279 255 255 255 255
0.19118991 0 0.06369146 255 255 255 255
0.12866902 0 0.085963808 255 255 255 255
0.096786752 0 0.091245204 255 255 255 255
0.031086076 0 0.13852566 255 255 255 255
0.24901913 0 0.074846789 255 255 255 255
0.017290689 0 0.17716186 255 255 255 255
0.24090022 0 0.14364564 255 255 255 255
0.2974081 0 0.12406611 255 255 255 255
0.15131292 0 0.091718324 255 255 255 255
0.24667658 0 0.21366094 255 255 255 255
0.26948488 0 0.28131422 255 255 255 255
0.27876928 0 0.1108322 255 255 255 255
0.2282024 0 0.27187273 255 255 255 255
0.22985934 0 0.25800833 255 255 255 255
0.15629824 0 0.25567594 255 255 255 255
0.0043256017 0 0.047488153 255 255 255 255
0.019367397 0 0.13299464 255 255 255 255
0.13345195 0 0.11615415 255 255 255 255
0.22423983 0 0.16453804 255 255 255 255
0.25467983 0 0.17325896 255 255 255 255
0.23938483 0 0.27197051 255 255 255 255
0.050420813 0 0.18028504 255 255 255 255
0.11561617 0 0.047828928 255 255 255 255
0.0043511405 0 0.26692909 255 255 255 255
0.13954724 0 0.2510277 255 255 255 255
0.18059002 0 0.10903212 255 255 255 255
0.23234195 0 0.15935931 255 255 255 255
0.21986432 0 0.16054434 255 255 255 255
0.13123204 0 0.14972366 255 255 255 255
0.11855265 0 0.28753027 255 255 255 255
0.10539959 0 0.12287825 255 255 255 255
0.035018429 0 0.12476699 255 255 255 255
0.25587288 0 0.16847038 255 255 255 255
0.24092114 0 0.18011272 255 255 255 255
0.033008423 0 0.19560097 255 255 255 255
0.053371668 0 0.27239323 255 255 255 255
0.16757147 0 0.10379249 255 255 255 255
0.1526783 0 0.28318766 255 255 255 255
0.15162142 0 0.15702942 255 255 255 255
0.25011674 0 0.29116866 255 255 255 255
0.10805713 0 0.13070674 255 255 255 255
0.10020077 0 0.040399075 255 255 255 255
0.29006603 0 0.020065093 255 255 255 255
0.2009434 0 0.12129808 255 255 255 255
0.16978875 0 0.019496052 255 255 255 255
0.10882836 0 0.27518836 255 255 255 255
0.14237431 0 0.14384679 255 255 255 255
0.099955343 0 0.098247185 255 255 255 255
0.01231718 0 0.040876493 255 255 255 255
0.27835989 0 0.045325603 255 255 255 255
0.23647746 0 0.031731576 255 255 255 255
0.01771885 0 0.10404894 255 255 255 255
0.13552405 0 0.17039713 255 255 255 255
0.087236576 0 0.28714547 255 255 255 255
0.027426559 0 0.037353296 255 255 255 255
0.27831411 0 0.1354837 255 255 255 255
0.16806003 0 0.078514889 255 255 255 255
0.17588276 0 0.15812607 255 255 255 255
0.098579988 0 0.07682617 255 255 255 255
0.27942416 0 0.26836875 255 255 255 255
0.096322224 0 0.088252537 255 255 255 255
0.2435571 0 0.23869652 255 255 255 255
0.23209932 0 0.043512434 255 255 255 255
0.036943719 0 0.24441651 255 255 255 255
0.084388927 0 0.015303625 255 255 255 255
0.28974211 0 0.020866392 255 255 255 255
0.047035199 0 0.0074609588 255 255 255 255
0.12491534 0 0.18255927 255 255 255 255
0.17785808 0 0.21215191 255 255 255 255
0.16970472 0 0.20528466 255 255 255 255
0.24950522 0 0.14801885 255 255 255 255
0.040768348 0 0.11756524 255 255 255 255
0.22653374 0 0.21665113 255 255 255 255
0.27569133 0 0.025113726 255 255 255 255
0.29347727 0 0.25511551 255 255 255 255
0.29348245 0 0.089799508 255 255 255 255
0.04336803 0 0.23703957 255 255 255 255
0.028496036 0 0.27546737 255 255 255 255
0.280552 0 0.065439753 255 255 255 255
0.21988386 0 0.064940922 255 255 255 255
0.08074338 0 0.20962597 255 255 255 255
0.085807316 0 0.12777857 255 255 255 255
0.21708693 0 0.21072266 255 255 255 255
0.010337839 0 0.094945021 255 255 255 255
0.12287456 0 0.18004256 255 255 255 255
0.00022967797 0 0.072379775 255 255 255 255
0.028061409 0 0.040998027 255 255 255 255
0.18994503 0 0.25459516 255 255 255 255
0.25764912 0 0.16563635 255 255 255 255
0.27970886 0 0.25112644 255 255 255 255
0.12075185 0 0.27319133 255 255 255 255
0.040925935 0 0.16411988 255 255 255 255
0.2102309 0 0.069421969 255 255 255 255
0.13958724 0 0.19078287 255 255 255 255
0.13486172 0 0.059471104 255 255 255 255
0.2557238 0 0.2156051 255 255 255 255
0.26909706 0 0.041531123 255 255 255 255
0.043383684 0 0.186184 255 255 255 255
0.25225377 0 0.053721525 255 255 255 255
0.28112903 0 0.075128332 255 255 255 255
0.23376408 0 0.28135872 255 255 255 255
0.14750811 0 0.2618255 255 255 255 255
0.022356739 0 0.037453134 255 255 255 255
0.21642065 0 0.28000587 255 255 255 255
0.20308948 0 0.19612953 255 255 255 255
0.2311323 0 0.023841336 255 255 255 255
0.16932087 0 0.27205825 255 255 255 255
0.18796122 0 0.079551764 255 255 255 255
0.041480213 0 0.027548457 255 255 255 255
0.27033463 0 0.17634194 255 255 255 255
0.087019563 0 0.22605845 255 255 255 255
0.091947049 0 0.056116637 255 255 255 255
0.26758957 0 0.13533074 255 255 255 255
0.24230064 0 0.21984334 255 255 255 255
0.18905225 0 0.22342968 255 255 255 255
0.29497167 0 0.12281635 255 255 255 255
0.20478839 0 0.14247981 255 255 255 255
0.084641844 0 0.22714514 255 255 255 255
0.17993294 0 0.0010624919 255 255 255 255
0.20715101 0 0.083022423 255 255 255 255
0.19719201 0 0.13828333 255 255 255 255
0.10686376 0 0.066512875 255 255 255 255
0.11034156 0 0.29482499 255 255 255 255
0.14606464 0 0.15182178 255 255 255 255
0.022373432 0 0.11639928 255 255 255 255
0.028163718 0 0.10939299 255 255 255 255
0.042457733 0 0.12011076 255 255 255 255
0.16550963 0 0.01004731 255 255 255 255
0.25544149 0 0.10781027 255 255 255 255
0.22989064 0 0.14449374 255 255 255 255
0.031239957 0 0.22486235 255 255 255 255
0.26731008 0 0.23602834 255 255 255 255
0.067342147 0 0.051951937 255 255 255 255
0.1631735 0 0.24727508 255 255 255 255
0.053014427 0 0.070324503 255 255 255 255
0.030297499 0 0.25020644 255 255 255 255
0.20860782 0 0.13716125 255 255 255 255
0.016719323 0 0.018949391 255 255 255 255
0.13198623 0 0.16278397 255 255 255 255
0.17077117 0 0.15435967 255 255 255 255
0.27918324 0 0.19893488 255 255 255 255
0.26375267 0 0.021640975 255 255 255 255
0.019045647 0 0.12926228 255 255 255 255
0.031688284 0 0.27448714 255 255 255 255
0.23707256 0 0.26157895 255 255 255 255
0.11898088 0 0.26831251 255 255 255 255
0.1864413 0 0.086290985 255 255 255 255
0.20434086 0 0.25378343 255 255 255 255
0.13824292 0 0.067514353 255 255 255 255
0.20105851 0 0.19125734 255 255 255 255
0.13783886 0 0.23135601 255 255 255 255
0.14146379 0 0.046446677 255 255 255 255
0.068517268 0 0.15818311 255 255 255 255
0.06539607 0 0.20050351 255 255 255 255
0.02096707 0 0.23616724 255 255 255 255
0.054863162 0 0.0001503103 255 255 255 255
0.13510212 0 0.018615821 255 255 255 255
0.021791285 0 0.15414777 255 255 255 255
0.14787811 0 0.053479567 255 255 255 255
0.12863491 0 0.084950663 255 255 255 255
0.015058514 0 0.2476158 255 255 255 255
0.053263176 0 0.2014998 255 255 255 255
0.033906773 0 0.25760403 255 255 255 255
0.15528324 0 0.17214969 255 255 255 255
0.025118396 0 0.056341745 255 255 255 255
0.063407034 0 0.16295725 255 255 255 255
0.28769776 0 0.20487082 255 255 255 255
0.20940393 0 0.056215029 255 255 255 255
0.063053936 0 0.2748 255 255 255 255
0.25671855 0 0.084021002 255 255 255 255
0.21096724 0 0.011581696 255 255 255 255
0.08417131 0 0.046069361 255 255 255 255
0.030197516 0 0.1059626 255 255 255 255
0.20021714 0 0.17807563 255 255 255 255
0.15944216 0 0.02885204 255 255 255 255
0.2630263 0 0.17450069 255 255 255 255
0.27646783 0 0.01628946 255 255 255 255
0.076000489 0 0.010374608 255 255 255 255
0.27389351 0 0.23128372 255 255 255 255
0.18252431 0 0.29901189 255 255 255 255
0.28762546 0 0.24593133 255 255 255 255
0.16196914 0 0.27532324 255 255 255 255
0.15080217 0 0.071373083 255 255 255 255
0.031538256 0 0.2138561 255 255 255 255
0.046173085 0 0.28825679 255 255 255 255
0.2978771 0 0.25714031 255 255 255 255
0.29983848 0 0.082048409 255 255 255 255
0.0032096822 0 0.030035995 255 255 255 255
0.18801102 0 0.20342681 255 255 255 255
0.20811161 0 0.04745318 255 255 255 255
0.23227885 0 0.1711379 255 255 255 255
0.22195387 0 0.20874669 255 255 255 255
0.18742737 0 0.29795435 255 255 255 255
0.21912129 0 0.16132087 255 255 255 255
0.22923806 0 0.10164559 255 255 255 255
0.16033277 0 0.21686354 255 255 255 255
0.04757693 0 0.022301916 255 255 255 255
0.19218677 0 0.1983791 255 255 255 255
0.093674995 0 0.22372502 255 255 255 255
0.11223517 0 0.13984808 255 255 255 255
0.2119818 0 0.11011227 255 255 255 255
0.096988402 0 0.21182029 255 255 255 255
0.19216068 0 0.10019808 255 255 255 255
0.24185629 0 0.080171704 255 255 255 255
0.0036248933 0 0.14996791 255 255 255 255
0.12762488 0 0.23590375 255 255 255 255
0.021105807 0 0.049578741 255 255 255 255
0.14465043 0 0.20853317 255 255 255 255
0.047533095 0 0.063771732 255 255 255 255
0.069854036 0 0.27677119 255 255 255 255
0.16541731 0 0.23018681 255 255 255 255
0.19363472 0 0.21299425 255 255 255 255
0.2524887 0 0.08582148 255 255 255 255
0.11137334 0 0.046163708 255 255 255 255
0.0095465053 0 0.22360852 255 255 255 255
0.18601179 0 0.22152831 255 255 255 255
0.033720791 0 0.28300017 255 255 255 255
0.1333486 0 0.22588149 255 255 255 255
0.083198264 0 0.075204886 255 255 255 255
0.0060531767 0 0.086823158 255 255 255 255
0.22517279 0 0.13367805 255 255 255 255
0.022726903 0 0.24627858 255 255 255 255
0.1832568 0 0.16737734 255 255 255 255
0.15481175 0 0.23078988 255 255 255 255
0.23114908 0 0.22466579 255 255 255 255
0.20756106 0 0.096566394 255 255 255 255
0.1548526 0 0.10119577 255 255 255 255
0.0095606456 0 0.10734132 255 255 255 255
0.18701726 0 0.12093398 255 255 255 255
0.15350503 0 0.19656375 255 255 255 255
0.044542503 0 0.03951681 255 255 255 255
0.11809207 0 0.078263298 255 255 255 255
0.022516992 0 0.25144067 255 255 255 255
0.0041447761 0 0.10571525 255 255 255 255
0.026645564 0 0.010197953 255 255 255 255
0.19253841 0 0.25181836 255 255 255 255
0.143876 0 0.21526532 255 255 255 255
0.19809695 0 0.027132809 255 255 255 255
0.082642652 0 0.052908719 255 255 255 255
0.25792271 0 0.013791716 255 255 255 255
0.27757451 0 0.16548377 255 255 255 255
0.1103581 0 0.13242711 255 255 255 255
0.26667956 0 0.11991876 255 255 255 255
0.23976845 0 0.15369681 255 255 255 255
0.24085273 0 0.093273461 255 255 255 255
0.050260551 0 0.28539523 255 255 255 255
0.13279027 0 0.16835262 255 255 255 255
0.063658535 0 0.15530725 255 255 255 255
0.1197933 0 0.067803316 255 255 255 255
0.26102251 0 0.14643885 255 255 255 255
0.078001268 0 0.15356092 255 255 255 255
0.098257221 0 0.22187728 255 255 255 255
0.068826236 0 0.29635417 255 255 255 255
0.24901009 0 0.15146889 255 255 255 255
0.049262885 0 0.20693278 255 255 255 255
0.16526058 0 0.026837401 255 255 255 255
0.072416551 0 0.2756187 255 255 255 255
0.15926453 0 0.039096087 255 255 255 255
0.095537461 0 0.099032953 255 255 255 255
0.19279288 0 0.036390197 255 255 255 255
0.19230641 0 0.24305344 255 255 255 255
0.02178544 0 0.025096677 255 255 255 255
0.11140605 0 0.085443974 255 255 255 255
0.18040393 0 0.23119935 255 255 255 255
0.1532473 0 0.14142644 255 255 255 255
0.077638224 0 0.23124856 255 255 255 255
0.29498735 0 0.17589544 255 255 255 255
0.15312585 0 0.063813604 255 255 255 255
0.1722496 0 0.10213593 255 255 255 255
0.21528248 0 0.22151248 255 255 255 255
0.0090687172 0 0.080543078 255 255 255 255
0.24834988 0 0.081485271 255 255 255 255
0.056161776 0 0.10761441 255 255 255 255
0.12058136 0 0.15169923 255 255 255 255
0.20664737 0 0.013374239 255 255 255 255
0.18808943 0 0.098953769 255 255 255 255
0.25642768 0 0.20987487 255 255 255 255
0.12405045 0 0.067833729 255 255 255 255
0.29531884 0 0.0044543813 255 255 255 255
0.29903308 0 0.14856614 255 255 255 255
0.14588082 0 0.076671302 255 255 255 255
0.079814717 0 0.1408682 255 255 255 255
0.25256675 0 0.23294055 255 255 255 255
0.2046818 0 0.12481634 255 255 255 255
0.035076488 0 0.11996427 255 255 255 255
0.04632882 0 0.044145204 255 255 255 255
0.20050736 0 0.29467872 255 255 255 255
0.12563048 0 0.25666913 255 255 255 255
0.10229311 0 0.24621184 255 255 255 255
0.10836837 0 0.0089404779 255 255 255 255
0.25958607 0 0.2964578 255 255 255 255
0.10789424 0 0.21601374 255 255 255 255
0.20633267 0 0.23194468 255 255 255 255
0.28384748 0 0.20165153 255 255 255 255
0.23639908 0 0.28288054 255 255 255 255
0.050217673 0 0.082279906 255 255 255 255
0.059551854 0 0.13003239 255 255 255 255
0.22314809 0 0.012118589 255 255 255 255
0.062972941 0 0.12782989 255 255 255 255
0.13693492 0 0.098049432 255 255 255 255
0.24779418 0 0.18326375 255 255 255 255
0.14219464 0 0.14830154 255 255 255 255
0.17794245 0 0.26782513 255 255 255 255
0.10497067 0 0.28023556 255 255 255 255
0.21403694 0 0.21333905 255 255 255 255
0.28917605 0 0.17362303 255 255 255 255
0.20979685 0 0.097070299 255 255 255 255
0.089636758 0 0.11612952 255 255 255 255
0.029014995 0 0.073484227 255 255 255 255
0.017781042 0 0.26541409 255 255 255 255
0.056364786 0 0.067998715 255 255 255 255
0.047693975 0 0.11591663 255 255 255 255
0.1980311 0 0.27084208 255 255 255 255
0.12803523 0 0.26100403 255 255 255 255
0.09867198 0 0.26497015 255 255 255 255
0.059053477 0 0.046466149 255 255 255 255
0.14823391 0 0.20124811 255 255 255 255
0.19476768 0 0.026176358 255 255 255 255
0.16907322 0 0.29973835 255 255 255 255
0.0064119329 0 0.083110169 255 255 255 255
0.2130774 0 0.29558799 255 255 255 255
0.25673318 0 0.12287424 255 255 255 255
0.092658289 0 0.046369944 255 255 255 255
0.23900376 0 0.12167328 255 255 255 255
0.11985418 0 0.2567848 255 255 255 255
0.087087356 0 0.17621896 255 255 255 255
0.024783511 0 0.13478133 255 255 255 255
0.2921356 0 0.2228146 255 255 255 255
0.10562341 0 0.12017082 255 255 255 255
0.18381865 0 0.20429538 255 255 255 255
0.085140973 0 0.24287213 255 255 255 255
0.25076154 0 0.23337488 255 255 255 255
0.14412025 0 0.14552923 255 255 255 255
0.25955123 0 0.013193477 255 255 255 255
0.14526758 0 0.26596317 255 255 255 255
0.096303649 0 0.058344971 255 255 255 255
0.26155117 0 0.053036835 255 255 255 255
0.18121922 0 0.054209441 255 255 255 255
0.099406779 0 0.12022296 255 255 255 255
0.17588273 0 0.21926096 255 255 255 255
0.077007756 0 0.26297009 255 255 255 255
0.095479921 0 0.10179127 255 255 255 255
0.097751409 0 0.087615512 255 255 255 255
0.024605883 0 0.20337482 255 255 255 255
0.20778634 0 0.20842454 255 255 255 255
0.10767019 0 0.29292732 255 255 255 255
0.15129668 0 0.058431726 255 255 255 255
0.22630219 0 0.29541692 255 255 255 255
0.20396096 0 0.18585342 255 255 255 255
0.0086104013 0 0.049228523 255 255 255 255
0.15181661 0 0.10491405 255 255 255 255
0.10757349 0 0.11336777 255 255 255 255
0.15795089 0 0.2887927 255 255 255 255
0.16757719 0 0.25735766 255 255 255 255
0.10901567 0 0.043459926 255 255 255 255
0.17661862 0 0.18602343 255 255 255 255
0.0064300033 0 0.27209854 255 255 255 255
0.28781471 0 0.10418141 255 255 255 255
0.059714057 0 0.012420585 255 255 255 255
0.0075562214 0 0.2675004 255 255 255 255
0.22084513 0 0.11522641 255 255 255 255
0.26042771 0 0.072141804 255 255 255 255
0.17365813 0 0.18672992 255 255 255 255
0.067558728 0 0.077619091 255 255 255 255
0.072583348 0 0.076169133 255 255 255 255
0.12684761 0 0.22439995 255 255 255 255
0.18108317 0 0.2344211 255 255 255 255
0.037767716 0 0.039034061 255 255 255 255
0.22321381 0 0.20534492 255 255 255 255
0.29639173 0 0.032229476 255 255 255 255
0.24880484 0 0.17301035 255 255 255 255
0.2182529 0 0.25523484 255 255 255 255
0.14510889 0 0.20606761 255 255 255 255
0.059416257 0 0.20482296 255 255 255 255
0.21848819 0 0.066972479 255 255 255 255
0.17232335 0 0.13933332 255 255 255 255
0.1821989 0 0.13275106 255 255 255 255
0.21147512 0 0.05585704 255 255 255 255
0.019480975 0 0.27903384 255 255 255 255
0.13347612 0 0.092064321 255 255 255 255
0.055202972 0 0.26032373 255 255 255 255
0.016464274 0 0.23628615 255 255 255 255
0.19474484 0 0.05423199 255 255 255 255
0.2753202 0 0.11795865 255 255 255 255
0.25957692 0 0.27171195 255 255 255 255
0.15018813 0 0.20838174 255 255 255 255
0.1447223 0 0.068441026 255 255 255 255
0.16361661 0 0.28983119 255 255 255 255
0.27450863 0 0.22303286 255 255 255 255
0.19465415 0 0.19299681 255 255 255 255
0.29000533 0 0.066977493 255 255 255 255
0.032330133 0 0.17220424 255 255 255 255
0.19972856 0 0.24380526 255 255 255 255
0.22806127 0 0.21920954 255 255 255 255
0.2228391 0 0.061537404 255 255 255 255
0.011273855 0 0.27804208 255 255 255 255
0.021861142 0 0.02773813 255 255 255 255
0.21432823 0 0.21660599 255 255 255 255
0.081970125 0 0.18964843 255 255 255 255
0.03456464 0 0.04154703 255 255 255 255
0.16136037 0 0.18475278 255 255 255 255
0.24992879 0 0.0060826684 255 255 255 255
0.2531938 0 0.11354539 255 255 255 255
0.29591388 0 0.22770244 255 255 255 255
0.036578253 0 0.190568 255 255 255 255
0.12069924 0 0.026583597 255 255 255 255
0.2575455 0 0.15302938 255 255 255 255
0.19878784 0 0.15727407 255 255 255 255
0.09683463 0 0.12684911 255 255 255 255
0.076483592 0 0.019673731 255 255 255 255
0.1883865 0 0.087757446 255 255 255 255
0.29771578 0 0.21024765 255 255 255 255
0.11549558 0 0.21204402 255 255 255 255
0.12685364 0 0.19746569 255 255 255 255
0.10169245 0 0.16141829 255 255 255 255
0.23901273 0 0.26305282 255 255 255 255
0.046171051 0 0.18894151 255 255 255 255
0.26913548 0 0.29936486 255 255 255 255
0.0024869018 0 0.26504934 255 255 255 255
0.22706726 0 0.039065152 255 255 255 255
0.15561736 0 0.047766518 255 255 255 255
0.065648749 0 0.11316285 255 255 255 255
0.2007959 0 0.2644366 255 255 255 255
0.27043691 0 0.29763055 255 255 255 255
0.091285706 0 0.046920508 255 255 255 255
0.017304262 0 0.27967221 255 255 255 255
0.13467795 0 0.015020062 255 255 255 255
0.18991987 0 0.25017354 255 255 255 255
0.22706409 0 0.016773514 255 255 255 255
0.14763923 0 0.028756529 255 255 255 255
0.17819181 0 0.086651966 255 255 255 255
0.29180935 0 0.22436285 255 255 255 255
0.27559346 0 0.26094484 255 255 255 255
0.2237277 0 0.27808037 255 255 255 255
0.22599418 0 0.15079497 255 255 255 255
0.017145529 0 0.081611544 255 255 255 255
0.19856149 0 0.082794286 255 255 255 255
0.1947744 0 0.099357389 255 255 255 255
0.04723087 0 0.16521132 255 255 255 255
0.096987918 0 0.13851658 255 255 255 255
0.21213183 0 0.11429218 255 255 255 255
0.11818878 0 0.046809781 255 255 255 255
0.12931225 0 0.0081086559 255 255 255 255
0.29698333 0 0.056376327 255 255 255 255
0.024882171 0 0.14462255 255 255 255 255
0.08513286 0 0.20307398 255 255 255 255
0.23127452 0 0.076942205 255 255 255 255
0.12743682 0 0.20686798 255 255 255 255
0.037887044 0 0.051164519 255 255 255 255
0.18494835 0 0.26388124 255 255 255 255
0.20195949 0 0.20209388 255 255 255 255
0.045492776 0 0.10052098 255 255 255 255
0.28488818 0 0.24026719 255 255 255 255
0.19987836 0 0.032119036 255 255 255 255
0.1054785 0 0.2968663 255 255 255 255
0.17063561 0 0.017610325 255 255 255 255
0.11115847 0 0.28882441 255 255 255 255
0.064420104 0 0.24047071 255 255 255 255
0.29693305 0 0.061403427 255 255 255 255
0.29684705 0 0.02181522 255 255 255 255
0.20602599 0 0.081979893 255 255 255 255
0.22488919 0 0.13730048 255 255 255 255
0.15892211 0 0.052326009 255 255 255 255
0.044168469 0 0.19680914 255 255 255 255
0.10349053 0 0.22911681 255 255 255 255
0.16069037 0 0.005450015 255 255 255 255
0.1312107 0 0.20618314 255 255 255 255
0.10597099 0 0.11609887 255 255 255 255
0.14645033 0 0.0058493549 255 255 255 255
0.14821792 0 0.25192884 255 255 255 255
0.0027156405 0 0.018853517 255 255 255 255
0.26953915 0 0.11387412 255 255 255 255
0.0076779081 0 0.033959255 255 255 255 255
0.054344825 0 0.0046109557 255 255 255 255
0.095362678 0 0.051191866 255 255 255 255
0.026426174 0 0.0013886541 255 255 255 255
0.13317175 0 0.25131536 255 255 255 255
0.13868915 0 0.29209387 255 255 255 255
0.0036413742 0 0.1828576 255 255 255 255
0.188903 0 0.1071319 255 255 255 255
0.11197443 0 0.049593374 255 255 255 255
0.11258192 0 0.24318513 255 255 255 255
0.25577652 0 0.2185529 255 255 255 255
