# .PCD v0.7 - Point Cloud Data file format
VERSION 0.7
FIELDS x y z rgba
SIZE 4 4 4 4
TYPE F F F U
COUNT 1 1 1 1
WIDTH 1320
HEIGHT 1
VIEWPOINT 0 0 0 1 0 0 0
POINTS 1320
DATA ascii
0.38144565 0.44911224 0 4294967295
0.41385359 0.0096508553 0 4294967295
0.30671772 0.04743956 0 4294967295
0.48250049 0.28267065 0 4294967295
0.44029558 0.18588424 0 4294967295
0.45624205 0.36605808 0 4294967295
0.42928034 0.42725182 0 4294967295
0.44644853 0.23050641 0 4294967295
0.08614365 0.12167632 0 4294967295
0.2041842 0.11521733 0 4294967295
0.36252764 0.4830519 0 4294967295
0.12019334 0.26728067 0 4294967295
0.3033331 0.048700113 0 4294967295
0.15740995 0.26245993 0 4294967295
0.12649268 0.031695187 0 4294967295
0.060991328 0.0079383329 0 4294967295
0.48080742 0.47484493 0 4294967295
0.017589189 0.28752515 0 4294967295
0.022284487 8.9690788e-05 0 4294967295
0.070195779 0.46258005 0 4294967295
0.18597393 0.026437838 0 4294967295
0.32863817 0.11525428 0 4294967295
0.45368966 0.2750867 0 4294967295
0.34576067 0.039833318 0 4294967295
0.396763 0.049944885 0 4294967295
0.15505065 0.25929067 0 4294967295
0.032996777 0.275244 0 4294967295
0.026571324 0.33632991 0 4294967295
0.32394409 0.18398127 0 4294967295
0.098789833 0.45043677 0 4294967295
0.21567646 0.15978116 0 4294967295
0.45837513 0.19648388 0 4294967295
0.13462609 0.47596431 0 4294967295
0.48400903 0.15691057 0 4294967295
0.47605398 0.054204799 0 4294967295
0.11949064 0.16202793 0 4294967295
0.080642641 0.44812879 0 4294967295
0.27728221 0.034332305 0 4294967295
0.22321548 0.12304287 0 4294967295
0.074165627 0.11997849 0 4294967295
0.17298776 0.22921628 0 4294967295
0.37926915 0.20598453 0 4294967295
0.0044602649 0.40584046 0 4294967295
0.042314433 0.32840437 0 4294967295
0.089821741 0.14110427 0 4294967295
0.27884114 0.30549818 0 4294967295
0.30088541 0.23721626 0 4294967295
0.0019820759 0.4355115 0 4294967295
0.21318056 0.48599109 0 4294967295
0.092422083 0.18923455 0 4294967295
0.040195897 0.21191272 0 4294967295
0.35126248 0.12083854 0 4294967295
0.16004151 0.12854467 0 4294967295
0.15517084 0.383257 0 4294967295
0.25158754 0.22933647 0 4294967295
0.003235481 0.4245753 0 4294967295
0.45855275 0.38250461 0 4294967295
0.13055985 0.46301299 0 4294967295
0.2883451 0.17287427 0 4294967295
0.29141736 0.37816682 0 4294967295
0.31397852 0.070258513 0 4294967295
0.18366502 0.11486396 0 4294967295
0.30747476 0.1856471 0 4294967295
0.050375469 0.020655332 0 4294967295
0.17163819 0.14279754 0 4294967295
0.20988989 0.21183409 0 4294967295
0.35471028 0.061152358 0 4294967295
0.33267263 0.014751778 0 4294967295
0.18969703 0.48784348 0 4294967295
0.39800876 0.44128457 0 4294967295
0.21717994 0.40124425 0 4294967295
0.3658599 0.17573267 0 4294967295
0.28374887 0.49641973 0 4294967295
0.13874568 0.072093964 0 4294967295
0.169294 0.43016306 0 4294967295
0.45026079 0.48327252 0 4294967295
0.00042156735 0.13392583 0 4294967295
0.0981365 0.30789635 0 4294967295
0.31957293 0.14851196 0 4294967295
0.32855168 0.49121112 0 4294967295
0.29130951 0.038441557 0 4294967295
0.2030452 0.14601979 0 4294967295
0.099593915 0.035717838 0 4294967295
0.16077156 0.28929093 0 4294967295
0.023561308 0.058780331 0 4294967295
0.23057552 0.24074124 0 4294967295
0.46002457 0.096435398 0 4294967295
0.41647393 0.24377345 0 4294967295
0.092855126 0.055219598 0 4294967295
0.31586742 0.26214913 0 4294967295
0.48538265 0.26612821 0 4294967295
0.24542166 0.4858042 0 4294967295
0.40005404 0.34355816 0 4294967295
0.29370055 0.21962695 0 4294967295
0.49207014 0.12225223 0 4294967295
0.21083806 0.28337964 0 4294967295
0.16069379 0.41388327 0 4294967295
0.42939943 0.2602877 0 4294967295
0.44960111 0.090170979 0 4294967295
0.049578644 0.47316241 0 4294967295
0.14895131 0.28015417 0 4294967295
0.21390367 0.10897589 0 4294967295
0.37658957 0.13037758 0 4294967295
0.35274935 0.46944469 0 4294967295
0.18559718 0.16861676 0 4294967295
0.23159382 0.17097983 0 4294967295
0.43474498 0.4770155 0 4294967295
0.15678404 0.33479899 0 4294967295
0.32057363 0.4504846 0 4294967295
0.054425944 0.31264377 0 4294967295
0.072736822 0.265264 0 4294967295
0.096023403 0.23343061 0 4294967295
0.17914727 0.025422826 0 4294967295
0.49371833 0.12874839 0 4294967295
0.11559381 0.043296963 0 4294967295
0.10191081 0.26454511 0 4294967295
0.32345113 0.31581447 0 4294967295
0.37352103 0.2000407 0 4294967295
0.44619206 0.22627036 0 4294967295
0.16948538 0.13178922 0 4294967295
0.39488712 0.40107921 0 4294967295
0.30276906 0.3296321 0 4294967295
0.37809467 0.45955309 0 4294967295
0.1644311 0.19866833 0 4294967295
0.4100377 0.21885704 0 4294967295
0.011312089 0.4827745 0 4294967295
0.48412102 0.10733549 0 4294967295
0.21620512 0.16326831 0 4294967295
0.13275832 0.20992345 0 4294967295
0.29201671 0.24835213 0 4294967295
0.25322041 0.39392751 0 4294967295
0.012897249 0.076671526 0 4294967295
0.20974199 0.38641825 0 4294967295
0.27671221 0.15593405 0 4294967295
0.11268862 0.4461976 0 4294967295
0.28772327 0.0075757476 0 4294967295
0.34727681 0.09049233 0 4294967295
0.33720785 0.22537148 0 4294967295
0.050045416 0.0016389298 0 4294967295
0.42403981 0.4600831 0 4294967295
0.22049597 0.43535191 0 4294967295
0.44285762 0.20461699 0 4294967295
0.042687386 0.15906273 0 4294967295
0.36788532 0.17544571 0 4294967295
0.36898616 0.15990202 0 4294967295
0.42379785 0.12220657 0 4294967295
0.053829547 0.43669507 0 4294967295
0.19887809 0.26357153 0 4294967295
0.32311335 0.47559032 0 4294967295
0.4195056 0.43580198 0 4294967295
0.42178792 0.20722885 0 4294967295
0.4433777 0.26906472 0 4294967295
0.29772118 0.28058556 0 4294967295
0.4944362 0.34776661 0 4294967295
0.28222448 0.41847602 0 4294967295
0.30784971 0.0027204507 0 4294967295
0.35382789 0.25070733 0 4294967295
0.20733745 0.39651528 0 4294967295
0.40977004 0.075222768 0 4294967295
0.071960986 0.27875623 0 4294967295
0.2351248 0.49575883 0 4294967295
0.4009628 0.28895435 0 4294967295
0.4324539 0.099840887 0 4294967295
0.052525885 0.25556725 0 4294967295
0.075431205 0.47203147 0 4294967295
0.19136922 0.49721912 0 4294967295
0.17926033 0.13474694 0 4294967295
0.26628384 0.47698152 0 4294967295
0.4153325 0.26072004 0 4294967295
0.32474813 0.19755699 0 4294967295
0.17919603 0.13259782 0 4294967295
0.20027743 0.033023931 0 4294967295
0.38330513 0.40761489 0 4294967295
0.4295392 0.29307517 0 4294967295
0.48283765 0.0015002023 0 4294967295
0.071831398 0.21796246 0 4294967295
0.49725902 0.4727942 0 4294967295
0.0069167982 0.42971292 0 4294967295
0.072635077 0.059442684 0 4294967295
0.18528017 0.14806628 0 4294967295
0.031474151 0.37664938 0 4294967295
0.14528541 0.21073447 0 4294967295
0.011396318 0.41156924 0 4294967295
0.18771599 0.42672881 0 4294967295
0.17228928 0.012464107 0 4294967295
0.12428579 0.35148531 0 4294967295
0.14506193 0.32456324 0 4294967295
0.38450924 0.028367063 0 4294967295
0.23217811 0.31404847 0 4294967295
0.32144225 0.21501577 0 4294967295
0.31554866 0.39327365 0 4294967295
0.43297821 0.31280768 0 4294967295
0.36606783 0.439895 0 4294967295
0.2425206 0.43870291 0 4294967295
0.4993377 0.42780077 0 4294967295
0.086769201 0.030811846 0 4294967295
0.30445015 0.23205461 0 4294967295
0.24154632 0.31584647 0 4294967295
0.14362386 0.42926231 0 4294967295
0.24257529 0.31591314 0 4294967295
0.44172642 0.36686108 0 4294967295
0.16739844 0.086788349 0 4294967295
0.1914243 0.051907688 0 4294967295
0.11515541 0.4236024 0 4294967295
0.36595616 0.43659765 0 4294967295
0.13861817 0.18150482 0 4294967295
0.3298713 0.071596384 0 4294967295
0.49431249 0.19593914 0 4294967295
0.011491399 0.23683311 0 4294967295
0.13464206 0.010829095 0 4294967295
0.16463387 0.22141126 0 4294967295
0.041640941 0.46908402 0 4294967295
0.45346588 0.28318727 0 4294967295
0.2849305 0.097089723 0 4294967295
0.21244958 0.027505793 0 4294967295
0.41300285 0.15417601 0 4294967295
0.39436686 0.080401294 0 4294967295
0.24096435 0.085791171 0 4294967295
0.13230899 0.35611978 0 4294967295
0.0093935775 0.49826512 0 4294967295
0.29271743 0.14801174 0 4294967295
0.17976995 0.12258873 0 4294967295
0.21960813 0.17408244 0 4294967295
0.31852788 0.23109953 0 4294967295
0.41091555 0.45316994 0 4294967295
0.24192862 0.075549424 0 4294967295
0.1745812 0.28356957 0 4294967295
0.044633456 0.12804706 0 4294967295
0.066756837 0.32956398 0 4294967295
0.22513679 0.27920642 0 4294967295
0.35706976 0.13813964 0 4294967295
0.43338242 0.25143662 0 4294967295
0.21854094 0.17434677 0 4294967295
0.33722779 0.35084993 0 4294967295
0.030466551 0.34662136 0 4294967295
0.34911504 0.32318398 0 4294967295
0.49463311 0.028884988 0 4294967295
0.44577271 0.21424125 0 4294967295
0.20296744 0.26430058 0 4294967295
0.44534078 0.11388297 0 4294967295
0.21747053 0.1872694 0 4294967295
0.1894324 0.39205173 0 4294967295
0.47083896 0.23406585 0 4294967295
0.020098776 0.037595812 0 4294967295
0.063629813 0.24523556 0 4294967295
0.31680223 0.42069957 0 4294967295
0.3833752 0.25018466 0 4294967295
0.17213619 0.10191613 0 4294967295
0.42453143 0.0093639828 0 4294967295
0.45276603 0.45499799 0 4294967295
0.35598534 0.30188107 0 4294967295
0.27818197 0.35061848 0 4294967295
0.33076608 0.22395468 0 4294967295
0.064859726 0.033733506 0 4294967295
0.48825526 0.010200506 0 4294967295
0.14761648 0.20572579 0 4294967295
0.19746992 0.33704889 0 4294967295
0.097777501 0.1683089 0 4294967295
0.071114726 0.11787628 0 4294967295
0.20590471 0.13474454 0 4294967295
0.36311182 0.022706937 0 4294967295
0.055444099 0.24648704 0 4294967295
0.27289158 0.22758029 0 4294967295
0.34840316 0.19742303 0 4294967295
0.23694427 0.30116922 0 4294967295
0.15242101 0.092929624 0 4294967295
0.1030503 0.430603 0 4294967295
0.44354808 0.43381637 0 4294967295
0.15455766 0.0084078191 0 4294967295
0.46754989 0.14281294 0 4294967295
0.018608324 0.11516636 0 4294967295
0.34853873 0.21607824 0 4294967295
0.45221522 0.44631621 0 4294967295
0.38438714 0.023329958 0 4294967295
0.064192496 0.090291843 0 4294967295
0.1580745 0.42730433 0 4294967295
0.11299878 0.21351859 0 4294967295
0.17379136 0.38589036 0 4294967295
0.44109887 0.022194531 0 4294967295
0.083313398 0.17804316 0 4294967295
0.32336375 0.23573442 0 4294967295
0.27097279 0.42641404 0 4294967295
0.1663374 0.21452087 0 4294967295
0.36023042 0.32089505 0 4294967295
0.22292869 0.32778028 0 4294967295
0.46370798 0.24153702 0 4294967295
0.44294664 0.31224671 0 4294967295
0.45761526 0.3951619 0 4294967295
0.25856292 0.34200239 0 4294967295
0.41849184 0.32275543 0 4294967295
0.43229422 0.076566339 0 4294967295
0.25005975 0.045293007 0 4294967295
0.29008493 0.42385113 0 4294967295
0.43118337 0.23118381 0 4294967295
0.44604564 0.01449677 0 4294967295
0.40922695 0.26940939 0 4294967295
0.25023118 0.18019974 0 4294967295
0.19582343 0.41656858 0 4294967295
0.39472061 0.056053832 0 4294967295
0.23746364 0.11764931 0 4294967295
0.38383412 0.20117162 0 4294967295
0.35918632 0.32678077 0 4294967295
0.013418332 0.31680158 0 4294967295
0.22194266 0.27198127 0 4294967295
0.15880397 0.1404345 0 4294967295
0.094736688 0.091098204 0 4294967295
0.21700084 0.34479645 0 4294967295
0.13639121 0.0070857755 0 4294967295
0.26864755 0.06757459 0 4294967295
0.23826958 0.21469322 0 4294967295
0.082071356 0.14749655 0 4294967295
0.48410261 0.33230254 0 4294967295
0.32769629 0.17992602 0 4294967295
0.24887112 0.22241691 0 4294967295
0.23597986 0.48633474 0 4294967295
0.34006622 0.11981399 0 4294967295
0.18750638 0.19925255 0 4294967295
0.44659474 0.20092471 0 4294967295
0.016054135 0.16853742 0 4294967295
0.47290596 0.17485811 0 4294967295
0.30897191 0.067642651 0 4294967295
0.26595631 0.025972769 0 4294967295
0.41243908 0.40234753 0 4294967295
0.033058543 0.18108666 0 4294967295
0.46992213 0.27132812 0 4294967295
0.39577988 0.051993482 0 4294967295
0.41882467 0.37988248 0 4294967295
0.38429603 0.24652098 0 4294967295
0.0598085 0.13316713 0 4294967295
0.4689379 0.29578835 0 4294967295
0.11950189 0.3090041 0 4294967295
0.41560236 0.30700827 0 4294967295
0.0082566617 0.3621971 0 4294967295
0.0079329666 0.024310797 0 4294967295
0.030734517 0.48083892 0 4294967295
0.19916891 0.33970645 0 4294967295
0.048481584 0.46512523 0 4294967295
0.3656792 0.46092066 0 4294967295
0.36747277 0.39873776 0 4294967295
0.14200732 0.33739489 0 4294967295
0.17006588 0.037787195 0 4294967295
0.38938838 0.088890567 0 4294967295
0.41766965 0.27368438 0 4294967295
0.33541155 0.47747818 0 4294967295
0.40685153 0.30434942 0 4294967295
0.27326652 0.026353423 0 4294967295
0.11335355 0.18886887 0 4294967295
0.33336169 0.12161021 0 4294967295
0.051065966 0.34129465 0 4294967295
0.14592101 0.081800483 0 4294967295
0.32213357 0.34508991 0 4294967295
0.42150691 0.37061515 0 4294967295
0.31021515 0.28718615 0 4294967295
0.33153585 0.17768791 0 4294967295
0.18592389 0.47354317 0 4294967295
0.015082798 0.35598978 0 4294967295
0.011330359 0.40447116 0 4294967295
0.44488034 0.42900002 0 4294967295
0.17815556 0.28029189 0 4294967295
0.4064782 0.085007094 0 4294967295
0.084641322 0.17974471 0 4294967295
0.11136052 0.19799487 0 4294967295
0.36861357 0.44472221 0 4294967295
0.31960508 0.41967955 0 4294967295
0.28601685 0.46552607 0 4294967295
0.0014800248 0.10815043 0 4294967295
0.31061599 0.42298695 0 4294967295
0.47876561 0.12083115 0 4294967295
0.21017309 0.31030142 0 4294967295
0.29851905 0.39609697 0 4294967295
0.28384459 0.31360185 0 4294967295
0.25208673 0.29517496 0 4294967295
0.21807303 0.19696708 0 4294967295
0.22417499 0.39622858 0 4294967295
0.47725895 0.13065317 0 4294967295
0.48123568 0.061900284 0 4294967295
0.31039789 0.092596196 0 4294967295
0.25989515 0.17901145 0 4294967295
0.037318397 0.079500228 0 4294967295
0.098690994 0.32333526 0 4294967295
0.045026314 0.10017102 0 4294967295
0.43148568 0.35564232 0 4294967295
0.023157971 0.41025129 0 4294967295
0.47647345 0.23333105 0 4294967295
0.22055271 0.27499253 0 4294967295
0.12942803 0.0043973187 0 4294967295
0.088594362 0.38151476 0 4294967295
0.29957229 0.30666739 0 4294967295
0.078481838 0.023747263 0 4294967295
0.20289597 0.055740803 0 4294967295
0.15440044 0.18413165 0 4294967295
0.11764109 0.4647983 0 4294967295
0.27672786 0.37753624 0 4294967295
0.14380977 0.31404623 0 4294967295
0.45703647 0.24250077 0 4294967295
0.13738149 0.002062781 0 4294967295
0.34267178 0.068867177 0 4294967295
0.35770509 0.36582977 0 4294967295
0.47911847 0.33417854 0 4294967295
0.099160813 0.19967118 0 4294967295
0.10917106 0.22858883 0 4294967295
0.2040685 0.19776542 0 4294967295
0.1101036 0.0036407716 0 4294967295
0.0044328114 0.18858545 0 4294967295
0.027388034 0.20732878 0 4294967295
0.24432625 0.18178847 0 4294967295
0.39146042 0.36196733 0 4294967295
0.14658678 0.16818827 0 4294967295
0.23950358 0.29039654 0 4294967295
0.48223451 0.19654004 0 4294967295
0.03289732 0.11961601 0 4294967295
0.19860283 0.37556911 0 4294967295
0.18848318 0.056307912 0 4294967295
0.24139887 0.16760164 0 4294967295
0.39048645 0.34055969 0 4294967295
0.36727282 0.49965751 0 4294967295
0.069148511 0.071341306 0 4294967295
0.19742295 0.17925212 0 4294967295
0.074982077 0.20185576 0 4294967295
0.36783755 0.10237011 0 4294967295
0.40918455 0.1121638 0 4294967295
0.28415859 0.30064496 0 4294967295
0.47413114 0.43074536 0 4294967295
0.46883324 0.2136347 0 4294967295
0.22114192 0.45106775 0 4294967295
0.41017473 0.25403923 0 4294967295
0.070683762 0.10877755 0 4294967295
0.12960835 0.25916696 0 4294967295
0.16508546 0.3710072 0 4294967295
0.4267686 0.055571932 0 4294967295
0.2115669 0.2940414 0 4294967295
0.055229455 0.28071541 0 4294967295
0.3653827 0.25265241 0 4294967295
0.45996752 0.44036481 0 4294967295
0.45450819 0.32780507 0 4294967295
0.04273491 0.3636927 0 4294967295
0.43996885 0.32689348 0 4294967295
0.16433768 0.41409999 0 4294967295
0.25763887 0.13317093 0 4294967295
0.12773468 0.47878078 0 4294967295
0.084238686 0.037909418 0 4294967295
0.23282002 0.15492246 0 4294967295
0.14668697 0.36242837 0 4294967295
0.41408941 0.31177244 0 4294967295
0.23343557 0.34085798 0 4294967295
0.36734438 0.44500247 0 4294967295
0.13489939 0.42257383 0 4294967295
0.22571787 0.00028211367 0 4294967295
0.17522624 0.18568538 0 4294967295
0.44064692 0.12973441 0 4294967295
0.013490446 0.48338181 0 4294967295
0.49342713 0.45345929 0 4294967295
0.31027532 0.15776481 0 4294967295
0.36755928 0.067914166 0 4294967295
0.29093572 0.49529397 0 4294967295
0.046694942 0.37517443 0 4294967295
0.033203389 0.27951497 0 4294967295
0.030096876 0.17989036 0 4294967295
0.14194332 0.44418627 0 4294967295
0.4916628 0.37537888 0 4294967295
0.28504428 0.35900718 0 4294967295
0.32038134 0.41994366 0 4294967295
0.28158101 0.046099212 0 4294967295
0.42022577 0.45680726 0 4294967295
0.2317846 0.36087269 0 4294967295
0.08654166 0.24527504 0 4294967295
0.34425449 0.07996878 0 4294967295
0.19873434 0.15452981 0 4294967295
0.23773359 0.066293634 0 4294967295
0.22244398 0.028669331 0 4294967295
0.061587609 0.26913893 0 4294967295
0.40384376 0.094790995 0 4294967295
0.048653875 0.43394062 0 4294967295
0.27468136 0.19059719 0 4294967295
0.37812692 0.26634416 0 4294967295
0.065976076 0.16317117 0 4294967295
0.12535134 0.38635743 0 4294967295
0.083114848 0.40693235 0 4294967295
0.43245664 0.0033406268 0 4294967295
0.36373958 0.16424122 0 4294967295
0.36421332 0.45028126 0 4294967295
0.40951627 0.20846783 0 4294967295
0.030250032 0.10825061 0 4294967295
0.36299765 0.26798362 0 4294967295
0.17454425 0.085441612 0 4294967295
0.29665294 0.23613186 0 4294967295
0.35458052 0.2004967 0 4294967295
0.33092284 0.40323439 0 4294967295
0.13443734 0.10560421 0 4294967295
0.093831599 0.012564245 0 4294967295
0.37194836 0.15980767 0 4294967295
0.17573541 0.4972997 0 4294967295
0.04616509 0.25885028 0 4294967295
0.40423205 0.47862172 0 4294967295
0.26219088 0.26797163 0 4294967295
0.14286295 0.12640421 0 4294967295
0.2182529 0.052379221 0 4294967295
0.33487204 0.24850293 0 4294967295
0.16062984 0.19786967 0 4294967295
0.016486548 0.33517408 0 4294967295
0.28331128 0.3131395 0 4294967295
0.071305938 0.13789181 0 4294967295
0.013636213 0.40222877 0 4294967295
0.041126221 0.14807355 0 4294967295
0.0078329975 0.13495782 0 4294967295
0.1606378 0.37978137 0 4294967295
0.29476547 0.33637321 0 4294967295
0.37708107 0.34093058 0 4294967295
0.095223479 0.28131312 0 4294967295
0.3195523 0.35741436 0 4294967295
0.049284775 0.46241525 0 4294967295
0.48381859 0.26753765 0 4294967295
0.014794476 0.3186906 0 4294967295
0.016040592 0.17542431 0 4294967295
0.016560279 0.032527141 0 4294967295
0.010598388 0.29987156 0 4294967295
0.34566665 0.081904322 0 4294967295
0.43776336 0.35930285 0 4294967295
0.48413309 0.47888958 0 4294967295
0.0073764073 0.4919661 0 4294967295
0.11384741 0.1680142 0 4294967295
0.37174746 0.40861291 0 4294967295
0.0043874178 0.24882855 0 4294967295
0.24954347 0.099610895 0 4294967295
0.030141681 0.069095783 0 4294967295
0.45702526 0.079426453 0 4294967295
0.031511039 0.44084385 0 4294967295
0.34696412 0.046305515 0 4294967295
0.25953445 0.36300471 0 4294967295
0.22172983 0.27609473 0 4294967295
0.39553186 0.23232821 0 4294967295
0.075966299 0.2411985 0 4294967295
0.31423253 0.013729671 0 4294967295
0.10050136 0.29836565 0 4294967295
0.49261928 0.10787776 0 4294967295
0.29033175 0.10646668 0 4294967295
0.27589196 0.16207923 0 4294967295
0.01507958 0.28027937 0 4294967295
0.41090778 0.26462305 0 4294967295
0.37989029 0.44104946 0 4294967295
0.33371884 0.33691555 0 4294967295
0.020475911 0.36522987 0 4294967295
0.2777594 0.36744004 0 4294967295
0.41153538 0.037293855 0 4294967295
0.23044474 0.13326521 0 4294967295
0.31338859 0.12597661 0 4294967295
0.36559343 0.38935488 0 4294967295
0.3671751 0.17982596 0 4294967295
0.40308455 0.46767646 0 4294967295
0.47819158 0.39570382 0 4294967295
0.075554222 0.26852334 0 4294967295
0.0021705094 0.35144618 0 4294967295
0.43060258 0.017250089 0 4294967295
0.13172556 0.34151036 0 4294967295
0.28187314 0.011615847 0 4294967295
0.28255981 0.11559198 0 4294967295
0.3485314 0.30303571 0 4294967295
0.48082185 0.1262908 0 4294967295
0.17047574 0.39235726 0 4294967295
0.16358465 0.40092048 0 4294967295
0.025622461 0.47697324 0 4294967295
0.026897091 0.39121589 0 4294967295
0.36632812 0.3940722 0 4294967295
0.071041837 0.2694127 0 4294967295
0.36174864 0.049233437 0 4294967295
0.16511652 0.43730286 0 4294967295
0.31775677 0.16728704 0 4294967295
0.28874904 0.24835935 0 4294967295
0.18453711 0.42047462 0 4294967295
0.089869693 0.46641028 0 4294967295
0.43209046 0.37242949 0 4294967295
0.082002252 0.28062186 0 4294967295
0.1754652 0.062824108 0 4294967295
0.40691265 0.34594095 0 4294967295
0.45518136 0.070497304 0 4294967295
0.24686143 0.48080382 0 4294967295
0.047470547 0.27375853 0 4294967295
0.37201971 0.41379869 0 4294967295
0.16783072 0.44306153 0 4294967295
0.18321137 0.029579362 0 4294967295
0.492295 0.3483279 0 4294967295
0.46688223 0.31005177 0 4294967295
0.015614924 0.25563127 0 4294967295
0.058411118 0.20015204 0 4294967295
0.1761059 0.14828081 0 4294967295
0.1665623 0.10819636 0 4294967295
0.020710306 0.24856456 0 4294967295
0.38881823 0.19617552 0 4294967295
0.31138867 0.29573089 0 4294967295
0.042116456 0.26657003 0 4294967295
0.36622819 0.28897789 0 4294967295
0.24737385 0.41369873 0 4294967295
0.062736414 0.11939356 0 4294967295
0.32749739 0.23056713 0 4294967295
0.062455099 0.010708776 0 4294967295
0.2601465 0.054750085 0 4294967295
0.35903668 0.22702871 0 4294967295
0.36480185 0.37465158 0 4294967295
0.48266 0.42321298 0 4294967295
0.074803635 0.1587659 0 4294967295
0.071493782 0.24136595 0 4294967295
0.26696226 0.092204086 0 4294967295
0.48993051 0.15578046 0 4294967295
0.28837958 0.30131918 0 4294967295
0.45151135 0.33049604 0 4294967295
0.067889214 0.31773952 0 4294967295
0.11947393 0.31526306 0 4294967295
0.23143825 0.18221034 0 4294967295
0.43465662 0.058935657 0 4294967295
0.41277748 0.49711171 0 4294967295
0.069644436 0.17292397 0 4294967295
0.0518618 0.42868111 0 4294967295
0.39995268 0.41666365 0 4294967295
0.30333269 0.38261268 0 4294967295
0.33987662 0.37813634 0 4294967295
0.041378565 0.4113704 0 4294967295
0.11950228 0.30834082 0 4294967295
0.0035744808 0.10943279 0 4294967295
0.46412128 0.29195407 0 4294967295
0.41075197 0.41563264 0 4294967295
0.12245012 0.47864118 0 4294967295
0.23337217 0.24192406 0 4294967295
0.29390424 0.4648104 0 4294967295
0.4241344 0.22856086 0 4294967295
0.023746073 0.33691189 0 4294967295
0.22567259 0.093390509 0 4294967295
0.0098358374 0.2775344 0 4294967295
0.022071613 0.40978852 0 4294967295
0.19419804 0.32540432 0 4294967295
0.29240119 0.034074657 0 4294967295
0.20354065 0.33377975 0 4294967295
0.44544506 0.32304293 0 4294967295
0.14212057 0.44901952 0 4294967295
0.43247572 0.10624187 0 4294967295
0.24097361 0.34322771 0 4294967295
0.021874499 0.36342373 0 4294967295
0.3218689 0.25524667 0 4294967295
0.10534779 0.11577313 0 4294967295
0.22005709 0.029482193 0 4294967295
0.34433401 0.24380316 0 4294967295
0.36639407 0.070006587 0 4294967295
0.33719367 0.37622991 0 4294967295
0.34754097 0.35926527 0 4294967295
0.28601843 0.041739013 0 4294967295
0.18466958 0.078419611 0 4294967295
0.075813666 0.38821024 0 4294967295
0.41219938 0.021258719 0 4294967295
0.21125317 0.054319944 0 4294967295
0.47027826 0.1437289 0 4294967295
0.16056181 0.21125185 0 4294967295
0.4869566 0.1824363 0 4294967295
0.07467559 0.30882549 0 4294967295
0.43768296 0.18002337 0 4294967295
0.4245986 0.15774004 0 4294967295
0.20950557 0.26893261 0 4294967295
0.4015432 0.075899638 0 4294967295
0.33893922 0.23873687 0 4294967295
0.45212954 0.18648018 0 4294967295
0.098002136 0.23814797 0 4294967295
0.2282192 0.28267172 0 4294967295
0.3165676 0.30403286 0 4294967295
0.17088196 0.22876696 0 4294967295
0.32529157 0.38213512 0 4294967295
0.2830869 0.29556984 0 4294967295
0.025864011 0.4436487 0 4294967295
0.0068216878 0.012820603 0 4294967295
0.12608501 0.081497274 0 4294967295
0.32164609 0.063767985 0 4294967295
0.26152065 0.2462447 0 4294967295
0.22150804 0.47102621 0 4294967295
0.015177314 0.12305123 0 4294967295
0.046925858 0.35411653 0 4294967295
0.36178809 0.49905542 0 4294967295
0.040596701 0.45979023 0 4294967295
0.23720337 0.2688159 0 4294967295
0.5 0.17500976 0.31680322 4294967295
0.5 0.27483055 0.42645901 4294967295
0.5 0.39150843 0.49680528 4294967295
0.5 0.13072969 0.21455747 4294967295
0.5 0.38062188 0.28404987 4294967295
0.5 0.46014389 0.0093831364 4294967295
0.5 0.4541491 0.2498785 4294967295
0.5 0.066917039 0.39290622 4294967295
0.5 0.24404007 0.42023104 4294967295
0.5 0.013806868 0.050711062 4294967295
0.5 0.19701135 0.29427621 4294967295
0.5 0.191697 0.42130667 4294967295
0.5 0.21327379 0.052378204 4294967295
0.5 0.16124623 0.056403425 4294967295
0.5 0.20207685 0.25741521 4294967295
0.5 0.47082192 0.37708661 4294967295
0.5 0.074218422 0.24565248 4294967295
0.5 0.30354562 0.46572685 4294967295
0.5 0.24245776 0.43427533 4294967295
0.5 0.18028431 0.12307965 4294967295
0.5 0.21832517 0.1404282 4294967295
0.5 0.13246278 0.17247428 4294967295
0.5 0.39030668 0.19937982 4294967295
0.5 0.065380491 0.13434675 4294967295
0.5 0.11961088 0.079187356 4294967295
0.5 0.18505782 0.31662223 4294967295
0.5 0.37346357 0.37675482 4294967295
0.5 0.2379289 0.086737365 4294967295
0.5 0.42913303 0.39917511 4294967295
0.5 0.14314079 0.13120988 4294967295
0.5 0.15659033 0.11396272 4294967295
0.5 0.0082964934 0.23080875 4294967295
0.5 0.35961521 0.31184211 4294967295
0.5 0.19653559 0.10207297 4294967295
0.5 0.24611744 0.37681991 4294967295
0.5 0.22515261 0.46444261 4294967295
0.5 0.017248094 0.35761541 4294967295
0.5 0.13691689 0.40755478 4294967295
0.5 0.056995224 0.20229737 4294967295
0.5 0.041901547 0.1766061 4294967295
0.5 0.28148472 0.22695936 4294967295
0.5 0.49322832 0.15494831 4294967295
0.5 0.1037142 0.23115723 4294967295
0.5 0.24168567 0.032847226 4294967295
0.5 0.13033234 0.38482648 4294967295
0.5 0.16405711 0.28692266 4294967295
0.5 0.49878919 0.17235361 4294967295
0.5 0.017731406 0.3584044 4294967295
0.5 0.48419571 0.214267 4294967295
0.5 0.46047735 0.23031317 4294967295
0.5 0.091086887 0.18562998 4294967295
0.5 0.19475578 0.10833498 4294967295
0.5 0.043245375 0.33167267 4294967295
0.5 0.015889773 0.1002406 4294967295
0.5 0.033970036 0.057791322 4294967295
0.5 0.27684671 0.31545475 4294967295
0.5 0.2847507 0.27007502 4294967295
0.5 0.47040308 0.3884649 4294967295
0.5 0.0012322548 0.21208875 4294967295
0.5 0.42131212 0.13156459 4294967295
0.5 0.096915215 0.085369229 4294967295
0.5 0.41848725 0.095704399 4294967295
0.5 0.25772282 0.43621865 4294967295
0.5 0.4541088 0.24191855 4294967295
0.5 0.15048565 0.41458616 4294967295
0.5 0.47223172 0.24157254 4294967295
0.5 0.10021613 0.16698749 4294967295
0.5 0.34990752 0.1434615 4294967295
0.5 0.49866015 0.36579731 4294967295
0.5 0.2437021 0.032630183 4294967295
0.5 0.42358863 0.020548806 4294967295
0.5 0.34808496 0.20833932 4294967295
0.5 0.29062384 0.31848803 4294967295
0.5 0.096804209 0.29185608 4294967295
0.5 0.030576764 0.018116323 4294967295
0.5 0.4234207 0.12749198 4294967295
0.5 0.10348555 0.34190795 4294967295
0.5 0.22319637 0.36120838 4294967295
0.5 0.2781266 0.17730518 4294967295
0.5 0.10312694 0.42861226 4294967295
0.5 0.091891326 0.075358644 4294967295
0.5 0.17018481 0.19210745 4294967295
0.5 0.24234614 0.02009234 4294967295
0.5 0.33556896 0.24100628 4294967295
0.5 0.38588965 0.079271056 4294967295
0.5 0.27363646 0.30947828 4294967295
0.5 0.099819861 0.12172141 4294967295
0.5 0.01781759 0.39044371 4294967295
0.5 0.44020942 0.1146218 4294967295
0.5 0.18229979 0.47078618 4294967295
0.5 0.13273813 0.10572048 4294967295
0.5 0.098278165 0.23622367 4294967295
0.5 0.44762844 0.32147455 4294967295
0.5 0.097432047 0.22575504 4294967295
0.5 0.49877971 0.20055898 4294967295
0.5 0.1543673 0.09067104 4294967295
0.5 0.27591762 0.32455212 4294967295
0.5 0.28277847 0.018263763 4294967295
0.5 0.34464446 0.11834744 4294967295
0.5 0.25927004 0.23053409 4294967295
0.5 0.1976185 0.03290651 4294967295
0.5 0.040012363 0.29743835 4294967295
0.5 0.15462792 0.057829954 4294967295
0.5 0.18788205 0.094837345 4294967295
0.5 0.17245175 0.37018186 4294967295
0.5 0.065623537 0.30518988 4294967295
0.5 0.47590232 0.1639017 4294967295
0.5 0.041413542 0.42353076 4294967295
0.5 0.48537624 0.13884559 4294967295
0.5 0.14928579 0.48415595 4294967295
0.5 0.33940458 0.30365309 4294967295
0.5 0.074827 0.1153222 4294967295
0.5 0.1282052 0.35760549 4294967295
0.5 0.13358596 0.47284964 4294967295
0.5 0.47595292 0.392856 4294967295
0.5 0.20338374 0.17357142 4294967295
0.5 0.42576253 0.2433961 4294967295
0.5 0.47100976 0.080390438 4294967295
0.5 0.30122605 0.15889183 4294967295
0.5 0.17522779 0.47367781 4294967295
0.5 0.029073676 0.24085133 4294967295
0.5 0.27886769 0.00497601 4294967295
0.5 0.40475303 0.32028124 4294967295
0.5 0.42850676 0.39012927 4294967295
0.5 0.45912683 0.077792563 4294967295
0.5 0.37428525 0.29853138 4294967295
0.5 0.38144565 0.44911224 4294967295
0.5 0.41385359 0.0096508553 4294967295
0.5 0.30671772 0.04743956 4294967295
0.5 0.48250049 0.28267065 4294967295
0.5 0.44029558 0.18588424 4294967295
0.5 0.45624205 0.36605808 4294967295
0.5 0.42928034 0.42725182 4294967295
0.5 0.44644853 0.23050641 4294967295
0.5 0.08614365 0.12167632 4294967295
0.5 0.2041842 0.11521733 4294967295
0.5 0.36252764 0.4830519 4294967295
0.5 0.12019334 0.26728067 4294967295
0.5 0.3033331 0.048700113 4294967295
0.5 0.15740995 0.26245993 4294967295
0.5 0.12649268 0.031695187 4294967295
0.5 0.060991328 0.0079383329 4294967295
0.5 0.48080742 0.47484493 4294967295
0.5 0.017589189 0.28752515 4294967295
0.5 0.022284487 8.9690788e-05 4294967295
0.5 0.070195779 0.46258005 4294967295
0.5 0.18597393 0.026437838 4294967295
0.5 0.32863817 0.11525428 4294967295
0.5 0.45368966 0.2750867 4294967295
0.5 0.34576067 0.039833318 4294967295
0.5 0.396763 0.049944885 4294967295
0.5 0.15505065 0.25929067 4294967295
0.5 0.032996777 0.275244 4294967295
0.5 0.026571324 0.33632991 4294967295
0.5 0.32394409 0.18398127 4294967295
0.5 0.098789833 0.45043677 4294967295
0.5 0.21567646 0.15978116 4294967295
0.5 0.45837513 0.19648388 4294967295
0.5 0.13462609 0.47596431 4294967295
0.5 0.48400903 0.15691057 4294967295
0.5 0.47605398 0.054204799 4294967295
0.5 0.11949064 0.16202793 4294967295
0.5 0.080642641 0.44812879 4294967295
0.5 0.27728221 0.034332305 4294967295
0.5 0.22321548 0.12304287 4294967295
0.5 0.074165627 0.11997849 4294967295
0.5 0.17298776 0.22921628 4294967295
0.5 0.37926915 0.20598453 4294967295
0.5 0.0044602649 0.40584046 4294967295
0.5 0.042314433 0.32840437 4294967295
0.5 0.089821741 0.14110427 4294967295
0.5 0.27884114 0.30549818 4294967295
0.5 0.30088541 0.23721626 4294967295
0.5 0.0019820759 0.4355115 4294967295
0.5 0.21318056 0.48599109 4294967295
0.5 0.092422083 0.18923455 4294967295
0.5 0.040195897 0.21191272 4294967295
0.5 0.35126248 0.12083854 4294967295
0.5 0.16004151 0.12854467 4294967295
0.5 0.15517084 0.383257 4294967295
0.5 0.25158754 0.22933647 4294967295
0.5 0.003235481 0.4245753 4294967295
0.5 0.45855275 0.38250461 4294967295
0.5 0.13055985 0.46301299 4294967295
0.5 0.2883451 0.17287427 4294967295
0.5 0.29141736 0.37816682 4294967295
0.5 0.31397852 0.070258513 4294967295
0.5 0.18366502 0.11486396 4294967295
0.5 0.30747476 0.1856471 4294967295
0.5 0.050375469 0.020655332 4294967295
0.5 0.17163819 0.14279754 4294967295
0.5 0.20988989 0.21183409 4294967295
0.5 0.35471028 0.061152358 4294967295
0.5 0.33267263 0.014751778 4294967295
0.5 0.18969703 0.48784348 4294967295
0.5 0.39800876 0.44128457 4294967295
0.5 0.21717994 0.40124425 4294967295
0.5 0.3658599 0.17573267 4294967295
0.5 0.28374887 0.49641973 4294967295
0.5 0.13874568 0.072093964 4294967295
0.5 0.169294 0.43016306 4294967295
0.5 0.45026079 0.48327252 4294967295
0.5 0.00042156735 0.13392583 4294967295
0.5 0.0981365 0.30789635 4294967295
0.5 0.31957293 0.14851196 4294967295
0.5 0.32855168 0.49121112 4294967295
0.5 0.29130951 0.038441557 4294967295
0.5 0.2030452 0.14601979 4294967295
0.5 0.099593915 0.035717838 4294967295
0.5 0.16077156 0.28929093 4294967295
0.5 0.023561308 0.058780331 4294967295
0.5 0.23057552 0.24074124 4294967295
0.5 0.46002457 0.096435398 4294967295
0.5 0.41647393 0.24377345 4294967295
0.5 0.092855126 0.055219598 4294967295
0.5 0.31586742 0.26214913 4294967295
0.5 0.48538265 0.26612821 4294967295
0.5 0.24542166 0.4858042 4294967295
0.5 0.40005404 0.34355816 4294967295
0.5 0.29370055 0.21962695 4294967295
0.5 0.49207014 0.12225223 4294967295
0.5 0.21083806 0.28337964 4294967295
0.5 0.16069379 0.41388327 4294967295
0.5 0.42939943 0.2602877 4294967295
0.5 0.44960111 0.090170979 4294967295
0.5 0.049578644 0.47316241 4294967295
0.5 0.14895131 0.28015417 4294967295
0.5 0.21390367 0.10897589 4294967295
0.5 0.37658957 0.13037758 4294967295
0.5 0.35274935 0.46944469 4294967295
0.5 0.18559718 0.16861676 4294967295
0.5 0.23159382 0.17097983 4294967295
0.5 0.43474498 0.4770155 4294967295
0.5 0.15678404 0.33479899 4294967295
0.5 0.32057363 0.4504846 4294967295
0.5 0.054425944 0.31264377 4294967295
0.5 0.072736822 0.265264 4294967295
0.5 0.096023403 0.23343061 4294967295
0.5 0.17914727 0.025422826 4294967295
0.5 0.49371833 0.12874839 4294967295
0.5 0.11559381 0.043296963 4294967295
0.5 0.10191081 0.26454511 4294967295
0.5 0.32345113 0.31581447 4294967295
0.5 0.37352103 0.2000407 4294967295
0.5 0.44619206 0.22627036 4294967295
0.5 0.16948538 0.13178922 4294967295
0.5 0.39488712 0.40107921 4294967295
0.5 0.30276906 0.3296321 4294967295
0.5 0.37809467 0.45955309 4294967295
0.5 0.1644311 0.19866833 4294967295
0.5 0.4100377 0.21885704 4294967295
0.5 0.011312089 0.4827745 4294967295
0.5 0.48412102 0.10733549 4294967295
0.5 0.21620512 0.16326831 4294967295
0.5 0.13275832 0.20992345 4294967295
0.5 0.29201671 0.24835213 4294967295
0.5 0.25322041 0.39392751 4294967295
0.5 0.012897249 0.076671526 4294967295
0.5 0.20974199 0.38641825 4294967295
0.5 0.27671221 0.15593405 4294967295
0.5 0.11268862 0.4461976 4294967295
0.5 0.28772327 0.0075757476 4294967295
0.5 0.34727681 0.09049233 4294967295
0.5 0.33720785 0.22537148 4294967295
0.5 0.050045416 0.0016389298 4294967295
0.5 0.42403981 0.4600831 4294967295
0.5 0.22049597 0.43535191 4294967295
0.5 0.44285762 0.20461699 4294967295
0.5 0.042687386 0.15906273 4294967295
0.5 0.36788532 0.17544571 4294967295
0.5 0.36898616 0.15990202 4294967295
0.5 0.42379785 0.12220657 4294967295
0.5 0.053829547 0.43669507 4294967295
0.5 0.19887809 0.26357153 4294967295
0.5 0.32311335 0.47559032 4294967295
0.5 0.4195056 0.43580198 4294967295
0.5 0.42178792 0.20722885 4294967295
0.5 0.4433777 0.26906472 4294967295
0.5 0.29772118 0.28058556 4294967295
0.5 0.4944362 0.34776661 4294967295
0.5 0.28222448 0.41847602 4294967295
0.5 0.30784971 0.0027204507 4294967295
0.5 0.35382789 0.25070733 4294967295
0.5 0.20733745 0.39651528 4294967295
0.5 0.40977004 0.075222768 4294967295
0.5 0.071960986 0.27875623 4294967295
0.5 0.2351248 0.49575883 4294967295
0.5 0.4009628 0.28895435 4294967295
0.5 0.4324539 0.099840887 4294967295
0.5 0.052525885 0.25556725 4294967295
0.5 0.075431205 0.47203147 4294967295
0.5 0.19136922 0.49721912 4294967295
0.5 0.17926033 0.13474694 4294967295
0.5 0.26628384 0.47698152 4294967295
0.5 0.4153325 0.26072004 4294967295
0.5 0.32474813 0.19755699 4294967295
0.5 0.17919603 0.13259782 4294967295
0.5 0.20027743 0.033023931 4294967295
0.5 0.38330513 0.40761489 4294967295
0.5 0.4295392 0.29307517 4294967295
0.5 0.48283765 0.0015002023 4294967295
0.5 0.071831398 0.21796246 4294967295
0.5 0.49725902 0.4727942 4294967295
0.5 0.0069167982 0.42971292 4294967295
0.5 0.072635077 0.059442684 4294967295
0.5 0.18528017 0.14806628 4294967295
0.5 0.031474151 0.37664938 4294967295
0.5 0.14528541 0.21073447 4294967295
0.5 0.011396318 0.41156924 4294967295
0.5 0.18771599 0.42672881 4294967295
0.5 0.17228928 0.012464107 4294967295
0.5 0.12428579 0.35148531 4294967295
0.5 0.14506193 0.32456324 4294967295
0.5 0.38450924 0.028367063 4294967295
0.5 0.23217811 0.31404847 4294967295
0.5 0.32144225 0.21501577 4294967295
0.5 0.31554866 0.39327365 4294967295
0.5 0.43297821 0.31280768 4294967295
0.5 0.36606783 0.439895 4294967295
0.5 0.2425206 0.43870291 4294967295
0.5 0.4993377 0.42780077 4294967295
0.5 0.086769201 0.030811846 4294967295
0.5 0.30445015 0.23205461 4294967295
0.5 0.24154632 0.31584647 4294967295
0.5 0.14362386 0.42926231 4294967295
0.5 0.24257529 0.31591314 4294967295
0.5 0.44172642 0.36686108 4294967295
0.5 0.16739844 0.086788349 4294967295
0.5 0.1914243 0.051907688 4294967295
0.5 0.11515541 0.4236024 4294967295
0.5 0.36595616 0.43659765 4294967295
0.5 0.13861817 0.18150482 4294967295
0.5 0.3298713 0.071596384 4294967295
0.5 0.49431249 0.19593914 4294967295
0.5 0.011491399 0.23683311 4294967295
0.5 0.13464206 0.010829095 4294967295
0.5 0.16463387 0.22141126 4294967295
0.5 0.041640941 0.46908402 4294967295
0.5 0.45346588 0.28318727 4294967295
0.5 0.2849305 0.097089723 4294967295
0.5 0.21244958 0.027505793 4294967295
0.5 0.41300285 0.15417601 4294967295
0.5 0.39436686 0.080401294 4294967295
0.5 0.24096435 0.085791171 4294967295
0.5 0.13230899 0.35611978 4294967295
0.5 0.0093935775 0.49826512 4294967295
0.5 0.29271743 0.14801174 4294967295
0.5 0.17976995 0.12258873 4294967295
0.5 0.21960813 0.17408244 4294967295
0.5 0.31852788 0.23109953 4294967295
0.5 0.41091555 0.45316994 4294967295
0.5 0.24192862 0.075549424 4294967295
0.5 0.1745812 0.28356957 4294967295
0.5 0.044633456 0.12804706 4294967295
0.5 0.066756837 0.32956398 4294967295
0.5 0.22513679 0.27920642 4294967295
0.5 0.35706976 0.13813964 4294967295
0.5 0.43338242 0.25143662 4294967295
0.5 0.21854094 0.17434677 4294967295
0.5 0.33722779 0.35084993 4294967295
0.5 0.030466551 0.34662136 4294967295
0.5 0.34911504 0.32318398 4294967295
0.5 0.49463311 0.028884988 4294967295
0.5 0.44577271 0.21424125 4294967295
0.5 0.20296744 0.26430058 4294967295
0.5 0.44534078 0.11388297 4294967295
0.5 0.21747053 0.1872694 4294967295
0.5 0.1894324 0.39205173 4294967295
0.5 0.47083896 0.23406585 4294967295
0.5 0.020098776 0.037595812 4294967295
0.5 0.063629813 0.24523556 4294967295
0.5 0.31680223 0.42069957 4294967295
0.5 0.3833752 0.25018466 4294967295
0.5 0.17213619 0.10191613 4294967295
0.5 0.42453143 0.0093639828 4294967295
0.5 0.45276603 0.45499799 4294967295
0.5 0.35598534 0.30188107 4294967295
0.5 0.27818197 0.35061848 4294967295
0.5 0.33076608 0.22395468 4294967295
0.5 0.064859726 0.033733506 4294967295
0.5 0.48825526 0.010200506 4294967295
0.5 0.14761648 0.20572579 4294967295
0.5 0.19746992 0.33704889 4294967295
0.5 0.097777501 0.1683089 4294967295
0.5 0.071114726 0.11787628 4294967295
0.5 0.20590471 0.13474454 4294967295
0.5 0.36311182 0.022706937 4294967295
0.5 0.055444099 0.24648704 4294967295
0.5 0.27289158 0.22758029 4294967295
0.5 0.34840316 0.19742303 4294967295
0.5 0.23694427 0.30116922 4294967295
0.5 0.15242101 0.092929624 4294967295
0.5 0.1030503 0.430603 4294967295
0.5 0.44354808 0.43381637 4294967295
0.5 0.15455766 0.0084078191 4294967295
0.5 0.46754989 0.14281294 4294967295
0.5 0.018608324 0.11516636 4294967295
0.5 0.34853873 0.21607824 4294967295
0.5 0.45221522 0.44631621 4294967295
0.5 0.38438714 0.023329958 4294967295
0.5 0.064192496 0.090291843 4294967295
0.5 0.1580745 0.42730433 4294967295
0.5 0.11299878 0.21351859 4294967295
0.5 0.17379136 0.38589036 4294967295
0.5 0.44109887 0.022194531 4294967295
0.5 0.083313398 0.17804316 4294967295
0.5 0.32336375 0.23573442 4294967295
0.5 0.27097279 0.42641404 4294967295
0.5 0.1663374 0.21452087 4294967295
0.5 0.36023042 0.32089505 4294967295
0.5 0.22292869 0.32778028 4294967295
0.5 0.46370798 0.24153702 4294967295
0.5 0.44294664 0.31224671 4294967295
0.5 0.45761526 0.3951619 4294967295
0.5 0.25856292 0.34200239 4294967295
0.5 0.41849184 0.32275543 4294967295
0.5 0.43229422 0.076566339 4294967295
0.5 0.25005975 0.045293007 4294967295
0.5 0.29008493 0.42385113 4294967295
0.5 0.43118337 0.23118381 4294967295
0.5 0.44604564 0.01449677 4294967295
0.5 0.40922695 0.26940939 4294967295
0.5 0.25023118 0.18019974 4294967295
0.5 0.19582343 0.41656858 4294967295
0.5 0.39472061 0.056053832 4294967295
0.5 0.23746364 0.11764931 4294967295
0.5 0.38383412 0.20117162 4294967295
0.5 0.35918632 0.32678077 4294967295
0.5 0.013418332 0.31680158 4294967295
0.5 0.22194266 0.27198127 4294967295
0.5 0.15880397 0.1404345 4294967295
0.5 0.094736688 0.091098204 4294967295
0.5 0.21700084 0.34479645 4294967295
0.5 0.13639121 0.0070857755 4294967295
0.5 0.26864755 0.06757459 4294967295
0.5 0.23826958 0.21469322 4294967295
0.5 0.082071356 0.14749655 4294967295
0.5 0.48410261 0.33230254 4294967295
0.5 0.32769629 0.17992602 4294967295
0.5 0.24887112 0.22241691 4294967295
0.5 0.23597986 0.48633474 4294967295
0.5 0.34006622 0.11981399 4294967295
0.5 0.18750638 0.19925255 4294967295
0.5 0.44659474 0.20092471 4294967295
0.5 0.016054135 0.16853742 4294967295
0.5 0.47290596 0.17485811 4294967295
0.5 0.30897191 0.067642651 4294967295
0.5 0.26595631 0.025972769 4294967295
0.5 0.41243908 0.40234753 4294967295
0.5 0.033058543 0.18108666 4294967295
0.5 0.46992213 0.27132812 4294967295
0.5 0.39577988 0.051993482 4294967295
0.5 0.41882467 0.37988248 4294967295
0.5 0.38429603 0.24652098 4294967295
0.5 0.0598085 0.13316713 4294967295
0.5 0.4689379 0.29578835 4294967295
0.5 0.11950189 0.3090041 4294967295
0.5 0.41560236 0.30700827 4294967295
0.5 0.0082566617 0.3621971 4294967295
0.5 0.0079329666 0.024310797 4294967295
0.5 0.030734517 0.48083892 4294967295
0.5 0.19916891 0.33970645 4294967295
0.5 0.048481584 0.46512523 4294967295
0.5 0.3656792 0.46092066 4294967295
0.5 0.36747277 0.39873776 4294967295
0.5 0.14200732 0.33739489 4294967295
0.5 0.17006588 0.037787195 4294967295
0.5 0.38938838 0.088890567 4294967295
0.5 0.41766965 0.27368438 4294967295
0.5 0.33541155 0.47747818 4294967295
0.5 0.40685153 0.30434942 4294967295
0.5 0.27326652 0.026353423 4294967295
0.5 0.11335355 0.18886887 4294967295
0.5 0.33336169 0.12161021 4294967295
0.5 0.051065966 0.34129465 4294967295
0.5 0.14592101 0.081800483 4294967295
0.5 0.32213357 0.34508991 4294967295
0.5 0.42150691 0.37061515 4294967295
0.5 0.31021515 0.28718615 4294967295
0.5 0.33153585 0.17768791 4294967295
0.5 0.18592389 0.47354317 4294967295
0.5 0.015082798 0.35598978 4294967295
0.5 0.011330359 0.40447116 4294967295
0.5 0.44488034 0.42900002 4294967295
0.5 0.17815556 0.28029189 4294967295
0.5 0.4064782 0.085007094 4294967295
0.5 0.084641322 0.17974471 4294967295
0.5 0.11136052 0.19799487 4294967295
0.5 0.36861357 0.44472221 4294967295
0.5 0.31960508 0.41967955 4294967295
0.5 0.28601685 0.46552607 4294967295
0.5 0.0014800248 0.10815043 4294967295
0.5 0.31061599 0.42298695 4294967295
0.5 0.47876561 0.12083115 4294967295
0.5 0.21017309 0.31030142 4294967295
0.5 0.29851905 0.39609697 4294967295
0.5 0.28384459 0.31360185 4294967295
0.5 0.25208673 0.29517496 4294967295
0.5 0.21807303 0.19696708 4294967295
0.5 0.22417499 0.39622858 4294967295
0.5 0.47725895 0.13065317 4294967295
0.5 0.48123568 0.061900284 4294967295
0.5 0.31039789 0.092596196 4294967295
0.5 0.25989515 0.17901145 4294967295
0.5 0.037318397 0.079500228 4294967295
0.5 0.098690994 0.32333526 4294967295
0.5 0.045026314 0.10017102 4294967295
0.5 0.43148568 0.35564232 4294967295
0.5 0.023157971 0.41025129 4294967295
0.5 0.47647345 0.23333105 4294967295
0.5 0.22055271 0.27499253 4294967295
0.5 0.12942803 0.0043973187 4294967295
0.5 0.088594362 0.38151476 4294967295
0.5 0.29957229 0.30666739 4294967295
0.5 0.078481838 0.023747263 4294967295
0.5 0.20289597 0.055740803 4294967295
0.5 0.15440044 0.18413165 4294967295
0.5 0.11764109 0.4647983 4294967295
0.5 0.27672786 0.37753624 4294967295
0.5 0.14380977 0.31404623 4294967295
0.5 0.45703647 0.24250077 4294967295
0.5 0.13738149 0.002062781 4294967295
0.5 0.34267178 0.068867177 4294967295
0.5 0.35770509 0.36582977 4294967295
0.5 0.47911847 0.33417854 4294967295
0.5 0.099160813 0.19967118 4294967295
0.5 0.10917106 0.22858883 4294967295
0.5 0.2040685 0.19776542 4294967295
0.5 0.1101036 0.0036407716 4294967295
0.5 0.0044328114 0.18858545 4294967295
0.5 0.027388034 0.20732878 4294967295
0.5 0.24432625 0.18178847 4294967295
0.5 0.39146042 0.36196733 4294967295
0.5 0.14658678 0.16818827 4294967295
0.5 0.23950358 0.29039654 4294967295
0.5 0.48223451 0.19654004 4294967295
0.5 0.03289732 0.11961601 4294967295
0.5 0.19860283 0.37556911 4294967295
0.5 0.18848318 0.056307912 4294967295
0.5 0.24139887 0.16760164 4294967295
0.5 0.39048645 0.34055969 4294967295
0.5 0.36727282 0.49965751 4294967295
0.5 0.069148511 0.071341306 4294967295
0.5 0.19742295 0.17925212 4294967295
0.5 0.074982077 0.20185576 4294967295
0.5 0.36783755 0.10237011 4294967295
0.5 0.40918455 0.1121638 4294967295
0.5 0.28415859 0.30064496 4294967295
0.5 0.47413114 0.43074536 4294967295
0.5 0.46883324 0.2136347 4294967295
0.5 0.22114192 0.45106775 4294967295
0.5 0.41017473 0.25403923 4294967295
0.5 0.070683762 0.10877755 4294967295
0.5 0.12960835 0.25916696 4294967295
0.5 0.16508546 0.3710072 4294967295
0.5 0.4267686 0.055571932 4294967295
0.5 0.2115669 0.2940414 4294967295
0.5 0.055229455 0.28071541 4294967295
0.5 0.3653827 0.25265241 4294967295
0.5 0.45996752 0.44036481 4294967295
0.5 0.45450819 0.32780507 4294967295
0.5 0.04273491 0.3636927 4294967295
0.5 0.43996885 0.32689348 4294967295
0.5 0.16433768 0.41409999 4294967295
0.5 0.25763887 0.13317093 4294967295
0.5 0.12773468 0.47878078 4294967295
0.5 0.084238686 0.037909418 4294967295
0.5 0.23282002 0.15492246 4294967295
0.5 0.14668697 0.36242837 4294967295
0.5 0.41408941 0.31177244 4294967295
0.5 0.23343557 0.34085798 4294967295
0.5 0.36734438 0.44500247 4294967295
0.5 0.13489939 0.42257383 4294967295
0.5 0.22571787 0.00028211367 4294967295
0.5 0.17522624 0.18568538 4294967295
0.5 0.44064692 0.12973441 4294967295
0.5 0.013490446 0.48338181 4294967295
0.5 0.49342713 0.45345929 4294967295
0.5 0.31027532 0.15776481 4294967295
0.5 0.36755928 0.067914166 4294967295
0.5 0.29093572 0.49529397 4294967295
0.5 0.046694942 0.37517443 4294967295
0.5 0.033203389 0.27951497 4294967295
0.5 0.030096876 0.17989036 4294967295
0.5 0.14194332 0.44418627 4294967295
0.5 0.4916628 0.37537888 4294967295
0.5 0.28504428 0.35900718 4294967295
0.5 0.32038134 0.41994366 4294967295
0.5 0.28158101 0.046099212 4294967295
0.5 0.42022577 0.45680726 4294967295
0.5 0.2317846 0.36087269 4294967295
0.5 0.08654166 0.24527504 4294967295
0.5 0.34425449 0.07996878 4294967295
0.5 0.19873434 0.15452981 4294967295
0.5 0.23773359 0.066293634 4294967295
0.5 0.22244398 0.028669331 4294967295
0.5 0.061587609 0.26913893 4294967295
0.5 0.40384376 0.094790995 4294967295
0.5 0.048653875 0.43394062 4294967295
0.5 0.27468136 0.19059719 4294967295
0.5 0.37812692 0.26634416 4294967295
0.5 0.065976076 0.16317117 4294967295
0.5 0.12535134 0.38635743 4294967295
0.5 0.083114848 0.40693235 4294967295
0.5 0.43245664 0.0033406268 4294967295
0.5 0.36373958 0.16424122 4294967295
0.5 0.36421332 0.45028126 4294967295
0.5 0.40951627 0.20846783 4294967295
0.5 0.030250032 0.10825061 4294967295
0.5 0.36299765 0.26798362 4294967295
0.5 0.17454425 0.085441612 4294967295
0.5 0.29665294 0.23613186 4294967295
0.5 0.35458052 0.2004967 4294967295
0.5 0.33092284 0.40323439 4294967295
0.5 0.13443734 0.10560421 4294967295
0.5 0.093831599 0.012564245 4294967295
0.5 0.37194836 0.15980767 4294967295
0.5 0.17573541 0.4972997 4294967295
0.5 0.04616509 0.25885028 4294967295
0.5 0.40423205 0.47862172 4294967295
0.5 0.26219088 0.26797163 4294967295
0.5 0.14286295 0.12640421 4294967295
0.5 0.2182529 0.052379221 4294967295
0.5 0.33487204 0.24850293 4294967295
0.5 0.16062984 0.19786967 4294967295
0.5 0.016486548 0.33517408 4294967295
0.5 0.28331128 0.3131395 4294967295
0.5 0.071305938 0.13789181 4294967295
0.5 0.013636213 0.40222877 4294967295
0.5 0.041126221 0.14807355 4294967295
0.5 0.0078329975 0.13495782 4294967295
0.5 0.1606378 0.37978137 4294967295
0.5 0.29476547 0.33637321 4294967295
0.5 0.37708107 0.34093058 4294967295
0.5 0.095223479 0.28131312 4294967295
0.5 0.3195523 0.35741436 4294967295
0.5 0.049284775 0.46241525 4294967295
0.5 0.48381859 0.26753765 4294967295
0.5 0.014794476 0.3186906 4294967295
0.5 0.016040592 0.17542431 4294967295
0.5 0.016560279 0.032527141 4294967295
0.5 0.010598388 0.29987156 4294967295
0.5 0.34566665 0.081904322 4294967295
0.5 0.43776336 0.35930285 4294967295
0.5 0.48413309 0.47888958 4294967295
