# .PCD v0.7 - Point Cloud Data file format
VERSION 0.7
FIELDS x y z
SIZE 4 4 4
TYPE F F F
COUNT 1 1 1
WIDTH 1365
HEIGHT 1
VIEWPOINT 0 0 0 1 0 0 0
POINTS 1365
DATA ascii
-0.33829236 0.41775632 -0.019992139
-0.35969248 0.39947891 -0.024464011
-0.38010663 0.38010663 -0.02898539
-0.39947891 0.35969245 -0.033506781
-0.41775626 0.33829245 -0.037978623
-0.43488863 0.31596506 -0.042351965
-0.45082897 0.29277176 -0.046578836
-0.46553361 0.268776 -0.050612953
-0.47896224 0.24404351 -0.054410107
-0.49107814 0.21864203 -0.057928726
-0.50184792 0.19264138 -0.061130214
-0.51124221 0.16611271 -0.063979514
-0.51923531 0.13912871 -0.066445425
-0.52580512 0.11176329 -0.068500921
-0.5309338 0.084091641 -0.070123464
-0.53460717 0.056189492 -0.071295291
-0.53681523 0.028133344 -0.072003558
-0.53755194 -4.699428e-08 -0.072240517
-0.53681523 -0.02813331 -0.072003558
-0.53460717 -0.056189463 -0.071295291
-0.5309338 -0.084091604 -0.070123464
-0.52580512 -0.11176338 -0.068500914
-0.51923531 -0.1391287 -0.066445425
-0.51124227 -0.16611266 -0.063979521
-0.50184798 -0.19264132 -0.061130222
-0.4910782 -0.21864201 -0.057928734
-0.4789623 -0.2440435 -0.054410115
-0.46553361 -0.26877597 -0.050612956
-0.450829 -0.29277176 -0.046578839
-0.43488866 -0.31596503 -0.042351969
-0.41775629 -0.33829242 -0.037978634
-0.39947897 -0.35969245 -0.033506788
-0.38010666 -0.38010663 -0.028985396
-0.35969248 -0.39947891 -0.024464011
-0.33829239 -0.41775632 -0.019992145
-0.31596518 -0.43488854 -0.015618843
-0.29277182 -0.45082897 -0.011391954
-0.26877591 -0.46553361 -0.0073578227
-0.24404356 -0.47896224 -0.0035606802
-0.21864206 -0.49107814 -4.2064046e-05
-0.19264129 -0.50184798 0.0031594411
-0.16611274 -0.51124221 0.0060087326
-0.13912864 -0.51923531 0.0084746452
-0.11176346 -0.52580512 0.010530123
-0.084091678 -0.53093374 0.012152673
-0.056189407 -0.53460717 0.013324506
-0.028133383 -0.53681523 0.014032775
6.4102421e-09 -0.53755194 0.014269732
0.028133396 -0.53681523 0.014032775
0.056189425 -0.53460717 0.013324506
0.084091686 -0.53093374 0.012152673
0.11176321 -0.52580512 0.010530137
0.13912866 -0.51923531 0.0084746443
0.16611275 -0.51124221 0.0060087317
0.1926413 -0.50184798 0.0031594387
0.21864209 -0.49107808 -4.2067277e-05
0.24404334 -0.47896233 -0.0035606502
0.26877591 -0.46553361 -0.0073578227
0.29277182 -0.45082897 -0.011391956
0.315965 -0.43488872 -0.015618806
0.33829239 -0.41775632 -0.019992145
0.35969248 -0.39947891 -0.024464011
0.38010651 -0.38010666 -0.028985377
0.39947897 -0.35969242 -0.033506788
0.4177562 -0.33829251 -0.037978619
0.43488863 -0.31596512 -0.042351954
0.450829 -0.2927717 -0.046578843
0.46553358 -0.26877606 -0.050612945
0.4789623 -0.24404347 -0.054410115
0.4910782 -0.218642 -0.057928734
0.50184792 -0.19264144 -0.061130207
0.51124227 -0.16611266 -0.063979529
0.51923525 -0.1391288 -0.06644541
0.52580512 -0.11176337 -0.068500914
0.5309338 -0.084091589 -0.070123464
0.53460711 -0.056189582 -0.071295276
0.53681523 -0.028133295 -0.072003558
0.53755194 9.3988561e-08 -0.072240517
0.61010498 0 -0.093057014
0.60926884 0.031930428 -0.092751779
0.60676277 0.063773334 -0.09183941
0.60259354 0.095441446 -0.090329915
0.59677273 0.12684795 -0.088239834
0.58931613 0.15790679 -0.085592039
0.5802443 0.1885328 -0.082415558
0.56958199 0.21864206 -0.078745216
0.55735862 0.24815205 -0.074621193
0.54360747 0.27698183 -0.070088685
0.52836645 0.30505249 -0.065197356
0.51167703 0.33228698 -0.060000777
0.49358529 0.35861069 -0.054555912
0.47414061 0.38395149 -0.04892239
0.45339632 0.4082399 -0.043161932
0.43140936 0.43140942 -0.037337687
0.40823984 0.45339638 -0.031513426
0.38395151 0.47414061 -0.025752999
0.35861075 0.49358523 -0.020119479
0.33228698 0.51167703 -0.014674602
0.30505246 0.52836645 -0.0094780251
0.27698186 0.54360747 -0.0045866957
0.24815203 0.55735862 -5.4182259e-05
0.21864209 0.56958199 0.0040698331
0.18853278 0.5802443 0.0077401903
0.1579068 0.58931613 0.010916657
0.12684794 0.59677273 0.013564445
0.095441461 0.60259354 0.015654534
0.063773304 0.60676277 0.017164033
0.031930439 0.60926884 0.018076396
-2.6668534e-08 0.61010498 0.018381633
-0.031930417 0.60926884 0.018076396
-0.063773364 0.60676277 0.017164031
-0.095441431 0.60259354 0.015654536
-0.12684791 0.59677273 0.013564447
-0.15790679 0.58931613 0.010916658
-0.18853277 0.5802443 0.0077401921
-0.21864206 0.56958199 0.0040698359
-0.24815202 0.55735862 -5.4179483e-05
-0.2769818 0.54360747 -0.0045866859
-0.30505252 0.52836633 -0.0094780372
-0.33228698 0.51167703 -0.014674602
-0.35861066 0.49358529 -0.020119464
-0.38395149 0.47414064 -0.025752982
-0.40823996 0.45339632 -0.031513449
-0.43140936 0.43140936 -0.037337687
-0.45339632 0.4082399 -0.043161944
-0.47414058 0.38395154 -0.048922371
-0.49358529 0.35861066 -0.054555912
-0.51167703 0.33228695 -0.060000777
-0.52836639 0.30505252 -0.065197349
-0.54360747 0.27698192 -0.07008867
-0.55735862 0.24815202 -0.074621201
-0.56958199 0.21864206 -0.078745216
-0.5802443 0.18853283 -0.082415558
-0.58931613 0.15790685 -0.085592039
-0.59677273 0.12684789 -0.088239834
-0.60259354 0.095441431 -0.090329915
-0.60676277 0.063773349 -0.09183941
-0.60926884 0.031930484 -0.092751779
-0.61010498 -5.3337068e-08 -0.093057014
-0.60926884 -0.031930443 -0.092751779
-0.60676277 -0.063773319 -0.09183941
-0.60259354 -0.095441386 -0.090329915
-0.59677267 -0.12684801 -0.088239819
-0.58931613 -0.1579068 -0.085592039
-0.5802443 -0.18853278 -0.082415573
-0.56958205 -0.21864201 -0.078745224
-0.55735862 -0.24815196 -0.074621215
-0.54360747 -0.27698189 -0.070088685
-0.52836645 -0.30505249 -0.065197356
-0.51167709 -0.33228695 -0.060000785
-0.49358535 -0.35861063 -0.054555919
-0.47414058 -0.38395151 -0.048922382
-0.45339638 -0.4082399 -0.043161951
-0.43140942 -0.43140936 -0.037337698
-0.40823996 -0.45339632 -0.031513449
-0.38395149 -0.47414061 -0.02575299
-0.35861081 -0.4935852 -0.020119498
-0.33228701 -0.51167703 -0.014674608
-0.30505243 -0.52836645 -0.0094780196
-0.27698195 -0.54360747 -0.0045867097
-0.24815205 -0.55735862 -5.4185031e-05
-0.21864197 -0.5695821 0.0040698512
-0.18853286 -0.5802443 0.0077401819
-0.15790676 -0.58931613 0.010916661
-0.1268481 -0.59677267 0.013564434
-0.095441476 -0.60259354 0.015654532
-0.06377326 -0.60676277 0.017164035
-0.031930529 -0.60926884 0.018076394
7.2754291e-09 -0.61010498 0.018381633
0.031930543 -0.60926884 0.018076394
0.063773267 -0.60676277 0.017164035
0.09544149 -0.60259354 0.015654532
0.12684782 -0.59677273 0.013564453
0.15790677 -0.58931613 0.01091666
0.18853287 -0.5802443 0.0077401805
0.21864197 -0.56958205 0.0040698485
0.24815205 -0.55735862 -5.418919e-05
0.27698171 -0.54360759 -0.004586671
0.30505243 -0.52836645 -0.0094780196
0.33228701 -0.51167703 -0.01467461
0.35861057 -0.49358538 -0.020119449
0.38395149 -0.47414061 -0.02575299
0.40823996 -0.45339632 -0.031513449
0.43140927 -0.43140942 -0.037337672
0.45339638 -0.40823984 -0.043161951
0.47414052 -0.38395166 -0.048922367
0.49358523 -0.35861075 -0.0545559
0.51167709 -0.33228692 -0.060000788
0.52836633 -0.30505258 -0.065197341
0.54360747 -0.27698186 -0.070088685
0.55735862 -0.24815194 -0.074621215
0.56958199 -0.21864215 -0.078745209
0.5802443 -0.18853277 -0.082415573
0.58931613 -0.15790693 -0.085592024
0.59677267 -0.126848 -0.088239819
0.60259354 -0.095441379 -0.090329915
0.60676271 -0.063773446 -0.091839403
0.60926884 -0.031930432 -0.092751779
0.61010498 1.0667414e-07 -0.093057014
0.68098575 0 -0.1159354
0.68005246 0.035640042 -0.11555512
0.67725521 0.071182393 -0.11441845
0.6726017 0.10652964 -0.11253784
0.66610456 0.1415849 -0.1099339
0.65778172 0.17625208 -0.10663513
0.6476559 0.21043617 -0.10267771
0.63575494 0.24404347 -0.098104998
0.62211144 0.27698183 -0.092967063
0.60676277 0.30916104 -0.087320231
0.58975101 0.34049287 -0.081226349
0.57112265 0.37089142 -0.074752174
0.55092907 0.40027338 -0.067968667
0.52922535 0.42855823 -0.060950126
0.50607097 0.45566842 -0.05377344
0.48152959 0.48152965 -0.046517283
0.45566839 0.50607109 -0.03926111
0.42855826 0.52922535 -0.032084461
0.40027344 0.55092901 -0.025065921
0.37089142 0.57112265 -0.018282402
0.34049284 0.58975101 -0.01180823
0.30916107 0.60676277 -0.0057143508
0.27698183 0.62211144 -6.7503155e-05
0.2440435 0.63575494 0.0050704153
0.21043615 0.64765596 0.0096431421
0.1762521 0.65778172 0.013600554
0.14158487 0.66610456 0.01689931
0.10652965 0.6726017 0.019503256
0.071182363 0.67725521 0.02138387
0.03564005 0.68005246 0.02252054
-2.9766831e-08 0.68098575 0.02290082
-0.035640027 0.68005246 0.02252054
-0.071182422 0.67725521 0.021383867
-0.10652963 0.6726017 0.019503258
-0.14158484 0.66610456 0.016899312
-0.17625208 0.65778172 0.013600555
-0.21043614 0.64765596 0.0096431449
-0.24404347 0.63575494 0.0050704191
-0.2769818 0.62211144 -6.7499699e-05
-0.30916098 0.60676277 -0.0057143387
-0.3404929 0.58975089 -0.011808245
-0.37089142 0.57112265 -0.018282402
-0.40027332 0.55092907 -0.025065903
-0.42855817 0.52922535 -0.032084443
-0.45566845 0.50607097 -0.03926114
-0.48152959 0.48152959 -0.046517286
-0.50607103 0.45566842 -0.053773455
-0.52922523 0.42855829 -0.060950104
-0.55092907 0.40027332 -0.067968667
-0.57112265 0.37089139 -0.074752174
-0.58975095 0.3404929 -0.081226341
-0.60676271 0.30916113 -0.087320216
-0.62211144 0.2769818 -0.092967078
-0.63575494 0.24404344 -0.098104998
-0.6476559 0.2104362 -0.10267771
-0.65778172 0.17625213 -0.10663513
-0.66610456 0.14158484 -0.1099339
-0.6726017 0.10652963 -0.11253784
-0.67725521 0.071182415 -0.11441845
-0.68005246 0.035640102 -0.11555512
-0.68098575 -5.9533662e-08 -0.1159354
-0.68005246 -0.035640061 -0.11555512
-0.67725521 -0.07118237 -0.11441845
-0.6726017 -0.10652958 -0.11253784
-0.66610456 -0.14158496 -0.10993388
-0.65778172 -0.1762521 -0.10663513
-0.64765596 -0.21043615 -0.10267773
-0.63575494 -0.24404341 -0.098105013
-0.62211144 -0.27698177 -0.092967093
-0.60676277 -0.3091611 -0.087320231
-0.58975101 -0.34049287 -0.081226349
-0.57112271 -0.37089139 -0.074752182
-0.55092907 -0.40027329 -0.067968674
-0.52922529 -0.42855826 -0.060950119
-0.50607109 -0.45566842 -0.053773463
-0.48152965 -0.48152959 -0.046517298
-0.45566845 -0.50607097 -0.03926114
-0.42855823 -0.52922535 -0.03208445
-0.40027347 -0.55092889 -0.025065945
-0.37089145 -0.57112265 -0.01828241
-0.34049278 -0.58975101 -0.011808223
-0.30916119 -0.60676271 -0.0057143681
-0.27698183 -0.62211144 -6.7506604e-05
-0.24404334 -0.635755 0.0050704377
-0.21043624 -0.6476559 0.0096431319
-0.17625204 -0.65778172 0.013600559
-0.14158505 -0.66610456 0.016899297
-0.10652968 -0.67260164 0.019503253
-0.071182311 -0.67725521 0.021383872
-0.035640154 -0.68005246 0.022520538
8.1206739e-09 -0.68098575 0.02290082
0.035640173 -0.68005246 0.022520538
0.071182325 -0.67725521 0.021383872
0.10652968 -0.67260164 0.019503253
0.14158475 -0.66610456 0.016899319
0.17625205 -0.65778172 0.013600557
0.21043625 -0.6476559 0.00964313
0.24404335 -0.63575494 0.0050704344
0.27698186 -0.62211144 -6.7511792e-05
0.30916089 -0.60676277 -0.0057143196
0.34049278 -0.58975101 -0.011808223
0.37089145 -0.57112265 -0.018282413
0.40027326 -0.55092913 -0.025065886
0.42855823 -0.52922535 -0.03208445
0.45566845 -0.50607097 -0.03926114
0.48152953 -0.48152971 -0.046517264
0.50607109 -0.45566839 -0.053773466
0.52922517 -0.42855835 -0.060950097
0.55092901 -0.40027344 -0.067968659
0.57112271 -0.37089133 -0.074752189
0.58975089 -0.34049296 -0.081226327
0.60676277 -0.30916107 -0.087320231
0.62211144 -0.27698177 -0.092967093
0.63575494 -0.24404353 -0.098104991
0.64765596 -0.21043614 -0.10267773
0.65778166 -0.17625223 -0.10663512
0.66610456 -0.14158493 -0.10993388
0.6726017 -0.10652956 -0.11253784
0.67725515 -0.071182519 -0.11441843
0.68005246 -0.035640046 -0.11555512
0.68098575 1.1906732e-07 -0.1159354
0.75 0 -0.140625
0.74897212 0.039251968 -0.14016373
0.74589145 0.07839635 -0.13878499
0.74076629 0.11732586 -0.13650389
0.73361075 0.15593377 -0.13334543
0.72444439 0.19411428 -0.12934415
0.71329236 0.23176275 -0.12454395
0.7001853 0.26877597 -0.11899743
0.68515909 0.30505249 -0.11276533
0.66825491 0.34049287 -0.10591594
0.64951909 0.375 -0.09852431
0.62900293 0.40847927 -0.090671398
0.60676277 0.44083893 -0.082443275
0.58285952 0.47199029 -0.073930062
0.55735856 0.50184798 -0.065225035
0.53033006 0.53033012 -0.056423604
0.50184792 0.55735862 -0.047622155
0.47199035 0.58285952 -0.038917169
0.44083899 0.60676271 -0.03040396
0.40847927 0.62900293 -0.022175822
0.37499997 0.64951909 -0.01432291
0.3404929 0.66825491 -0.0069312789
0.30505246 0.68515909 -8.1878621e-05
0.268776 0.7001853 0.0061502112
0.23176274 0.71329242 0.011696746
0.1941143 0.72444439 0.016496928
0.15593374 0.73361075 0.020498186
0.11732587 0.74076629 0.023656668
0.078396313 0.74589145 0.025937779
0.039251979 0.74897212 0.027316514
-3.2783539e-08 0.75 0.027777778
-0.039251953 0.74897212 0.027316514
-0.07839638 0.74589145 0.025937773
-0.11732583 0.74076629 0.02365667
-0.15593372 0.73361075 0.02049819
-0.19411428 0.72444439 0.01649693
-0.23176271 0.71329242 0.011696748
-0.26877597 0.7001853 0.0061502149
-0.30505243 0.68515909 -8.187443e-05
-0.34049278 0.66825491 -0.006931264
-0.37500006 0.64951897 -0.014322929
-0.40847927 0.62900293 -0.022175822
-0.44083887 0.60676277 -0.030403938
-0.47199023 0.58285952 -0.038917143
-0.50184798 0.55735856 -0.047622189
-0.53033006 0.53033006 -0.056423608
-0.55735862 0.50184798 -0.06522505
-0.5828594 0.47199038 -0.07393004
-0.60676277 0.44083887 -0.082443275
-0.62900293 0.40847924 -0.090671398
-0.64951903 0.37500006 -0.098524302
-0.66825485 0.34049293 -0.10591593
-0.68515909 0.30505243 -0.11276535
-0.7001853 0.26877594 -0.11899743
-0.71329236 0.23176277 -0.12454395
-0.72444439 0.19411436 -0.12934415
-0.73361075 0.15593371 -0.13334543
-0.74076629 0.11732583 -0.13650389
-0.74589145 0.078396372 -0.13878499
-0.74897212 0.039252035 -0.14016373
-0.75 -6.5567079e-08 -0.140625
-0.74897212 -0.039251991 -0.14016373
-0.74589145 -0.078396328 -0.13878499
-0.74076629 -0.11732578 -0.13650389
-0.73361069 -0.15593384 -0.1333454
-0.72444439 -0.1941143 -0.12934415
-0.71329242 -0.23176274 -0.12454396
-0.70018536 -0.26877588 -0.11899745
-0.68515915 -0.3050524 -0.11276536
-0.66825491 -0.3404929 -0.10591594
-0.64951909 -0.375 -0.09852431
-0.62900293 -0.40847924 -0.090671405
-0.60676277 -0.44083884 -0.082443282
-0.58285946 -0.47199035 -0.073930055
-0.55735862 -0.50184798 -0.065225057
-0.53033012 -0.53033006 -0.056423619
-0.50184798 -0.55735856 -0.047622189
-0.47199029 -0.58285952 -0.038917154
-0.44083905 -0.60676265 -0.030403987
-0.40847933 -0.62900293 -0.022175832
-0.37499994 -0.64951909 -0.014322902
-0.34049299 -0.66825485 -0.0069312993
-0.30505249 -0.68515909 -8.1882812e-05
-0.26877582 -0.70018542 0.0061502382
-0.23176283 -0.71329236 0.011696734
-0.19411424 -0.72444439 0.016496934
-0.15593395 -0.73361069 0.020498171
-0.11732589 -0.74076623 0.023656664
-0.078396253 -0.74589145 0.025937781
-0.039252091 -0.74897212 0.027316511
8.94366e-09 -0.75 0.027777778
0.03925211 -0.74897212 0.027316511
0.078396268 -0.74589145 0.025937781
0.1173259 -0.74076623 0.023656664
0.1559336 -0.73361075 0.020498198
0.19411427 -0.72444439 0.016496932
0.23176284 -0.71329236 0.011696731
0.26877585 -0.70018536 0.006150234
0.30505252 -0.68515909 -8.1889099e-05
0.3404927 -0.66825497 -0.0069312407
0.37499994 -0.64951909 -0.014322902
0.40847933 -0.62900287 -0.022175835
0.44083881 -0.60676283 -0.030403916
0.47199029 -0.58285952 -0.038917154
0.50184798 -0.55735856 -0.047622189
0.53033 -0.53033018 -0.056423582
0.55735862 -0.50184792 -0.065225065
0.58285934 -0.47199047 -0.073930025
0.60676271 -0.44083899 -0.08244326
0.62900293 -0.40847921 -0.090671413
0.64951897 -0.37500012 -0.098524287
0.66825491 -0.3404929 -0.10591594
0.68515915 -0.30505237 -0.11276536
0.7001853 -0.26877606 -0.11899742
0.71329242 -0.23176271 -0.12454397
0.72444433 -0.19411446 -0.12934412
0.73361069 -0.15593383 -0.1333454
0.74076629 -0.11732577 -0.13650389
0.74589139 -0.078396484 -0.13878497
0.74897212 -0.039251972 -0.14016373
0.75 1.3113416e-07 -0.140625
0.81695855 0 -0.16685534
0.81583893 0.042756312 -0.16630803
0.81248319 0.085395426 -0.16467212
0.8069005 0.12780049 -0.16196553
0.79910606 0.16985524 -0.15821792
0.78912139 0.21144444 -0.15347031
0.77697372 0.2524541 -0.14777474
0.7626965 0.29277176 -0.14119364
0.74632877 0.33228698 -0.13379909
0.72791541 0.37089142 -0.1256721
0.7075069 0.40847927 -0.11690173
0.68515909 0.44494754 -0.10758404
0.66093338 0.48019618 -0.097821161
0.6348961 0.51412868 -0.087719999
0.60711849 0.54665196 -0.077391252
0.57767689 0.57767695 -0.066948116
0.54665196 0.60711861 -0.056504965
0.51412874 0.6348961 -0.046176262
0.48019624 0.66093332 -0.036075115
0.44494754 0.68515909 -0.02631221
0.40847924 0.7075069 -0.016994517
0.37089145 0.72791541 -0.0082241483
0.33228695 0.74632883 -9.7151184e-05
0.29277179 0.7626965 0.0072973901
0.25245407 0.77697384 0.013878503
0.21144447 0.78912139 0.019574048
0.16985521 0.79910606 0.024321649
0.12780049 0.8069005 0.028069273
0.085395388 0.81248319 0.030775869
0.042756323 0.81583893 0.032411776
-3.5710393e-08 0.81695855 0.032959078
-0.042756297 0.81583893 0.032411776
-0.085395463 0.81248319 0.030775866
-0.12780046 0.8069005 0.028069275
-0.16985519 0.79910606 0.024321651
-0.21144444 0.78912139 0.01957405
-0.25245404 0.77697384 0.013878507
-0.29277176 0.7626965 0.0072973953
-0.33228695 0.74632883 -9.7146207e-05
-0.37089133 0.72791541 -0.0082241306
-0.40847933 0.70750684 -0.01699454
-0.44494754 0.68515909 -0.02631221
-0.48019615 0.66093338 -0.036075085
-0.51412863 0.63489616 -0.046176232
-0.54665202 0.60711849 -0.056505006
-0.57767689 0.57767689 -0.066948123
-0.60711855 0.54665196 -0.077391274
-0.63489598 0.5141288 -0.087719969
-0.66093338 0.48019615 -0.097821161
-0.68515909 0.44494748 -0.10758404
-0.7075069 0.40847933 -0.11690173
-0.72791535 0.37089151 -0.12567209
-0.74632883 0.33228695 -0.13379911
-0.7626965 0.29277176 -0.14119364
-0.77697372 0.2524541 -0.14777474
-0.78912139 0.2114445 -0.15347031
-0.79910606 0.16985518 -0.15821792
-0.8069005 0.12780046 -0.16196553
-0.81248319 0.085395448 -0.16467212
-0.81583893 0.042756386 -0.16630803
-0.81695855 -7.1420786e-08 -0.16685534
-0.81583893 -0.04275633 -0.16630803
-0.81248319 -0.085395396 -0.16467212
-0.8069005 -0.12780041 -0.16196553
-0.79910606 -0.16985533 -0.15821789
-0.78912139 -0.21144447 -0.15347031
-0.77697384 -0.25245407 -0.14777476
-0.76269662 -0.2927717 -0.14119367
-0.74632883 -0.33228689 -0.13379914
-0.72791541 -0.37089148 -0.1256721
-0.7075069 -0.40847927 -0.11690173
-0.68515915 -0.44494748 -0.10758405
-0.66093338 -0.48019612 -0.097821169
-0.63489604 -0.51412874 -0.087719992
-0.60711861 -0.54665196 -0.077391282
-0.57767695 -0.57767689 -0.066948138
-0.54665202 -0.60711849 -0.056505006
-0.51412868 -0.6348961 -0.046176247
-0.48019633 -0.66093326 -0.036075145
-0.4449476 -0.68515909 -0.026312219
-0.40847921 -0.7075069 -0.016994508
-0.37089157 -0.72791535 -0.0082241725
-0.33228698 -0.74632883 -9.7156153e-05
-0.29277164 -0.76269662 0.0072974227
-0.25245416 -0.77697372 0.013878488
-0.21144439 -0.78912139 0.019574055
-0.16985543 -0.79910606 0.024321629
-0.12780052 -0.8069005 0.028069267
-0.085395321 -0.81248319 0.030775873
-0.042756446 -0.81583893 0.032411773
9.7421342e-09 -0.81695855 0.032959078
0.042756464 -0.81583893 0.032411773
0.085395336 -0.81248319 0.030775873
0.12780052 -0.8069005 0.028069267
0.16985506 -0.79910606 0.024321662
0.21144441 -0.78912139 0.019574052
0.25245419 -0.77697372 0.013878485
0.29277164 -0.76269662 0.0072974176
0.33228701 -0.74632877 -9.7163611e-05
0.37089124 -0.72791553 -0.0082241036
0.40847921 -0.7075069 -0.016994508
0.4449476 -0.68515909 -0.026312225
0.48019606 -0.66093349 -0.036075063
0.51412868 -0.6348961 -0.046176247
0.54665202 -0.60711849 -0.056505006
0.57767683 -0.57767707 -0.066948093
0.60711861 -0.54665196 -0.077391289
0.63489592 -0.51412886 -0.087719962
0.66093332 -0.48019624 -0.097821139
0.68515915 -0.44494745 -0.10758407
0.70750684 -0.40847942 -0.1169017
0.72791541 -0.37089145 -0.1256721
0.74632883 -0.33228686 -0.13379914
0.7626965 -0.29277188 -0.14119364
0.77697384 -0.25245404 -0.14777477
0.78912139 -0.21144465 -0.15347028
0.79910606 -0.1698553 -0.15821789
0.8069005 -0.12780039 -0.16196553
0.81248313 -0.085395575 -0.16467211
0.81583893 -0.042756315 -0.16630803
0.81695855 1.4284157e-07 -0.16685534
0.88167787 0 -0.19433896
0.88046956 0.046143457 -0.19370151
0.87684792 0.092160434 -0.19179614
0.87082297 0.13792482 -0.18864374
0.86241114 0.18331115 -0.18427883
0.85163546 0.22819501 -0.1787492
0.83852541 0.27245346 -0.1721155
0.8231172 0.31596509 -0.16445041
0.80545282 0.35861069 -0.15583785
0.78558075 0.40027338 -0.14637223
0.76355541 0.44083893 -0.13615724
0.73943728 0.48019618 -0.12530479
0.71329242 0.51823723 -0.1139338
0.68519241 0.55485785 -0.10216883
0.65521425 0.58995765 -0.090138778
0.62344038 0.62344044 -0.077975497
0.58995759 0.65521443 -0.0658122
0.55485791 0.68519241 -0.053782202
0.51823729 0.7132923 -0.042017236
0.48019618 0.73943728 -0.030646233
0.44083887 0.76355541 -0.019793775
0.40027338 0.78558075 -0.0095787914
0.35861069 0.80545282 -0.00011315347
0.31596512 0.8231172 0.0084993821
0.27245343 0.83852553 0.016164504
0.22819506 0.85163546 0.022798192
0.1833111 0.86241114 0.028327797
0.13792484 0.87082297 0.032692712
0.092160396 0.87684792 0.035845127
0.046143468 0.88046956 0.03775049
-3.8539362e-08 0.88167787 0.038387943
-0.046143442 0.88046956 0.03775049
-0.092160471 0.87684792 0.03584512
-0.13792479 0.87082297 0.032692712
-0.18331107 0.86241114 0.0283278
-0.22819501 0.85163546 0.022798195
-0.2724534 0.83852553 0.01616451
-0.31596509 0.8231172 0.0084993877
-0.35861066 0.80545282 -0.00011314767
-0.40027329 0.78558075 -0.009578771
-0.44083899 0.76355535 -0.019793801
-0.48019618 0.73943728 -0.030646233
-0.51823723 0.71329242 -0.042017207
-0.55485779 0.68519247 -0.053782165
-0.58995771 0.65521425 -0.065812245
-0.62344038 0.62344038 -0.077975504
-0.65521431 0.58995765 -0.0901388
-0.68519229 0.55485797 -0.10216879
-0.71329242 0.51823723 -0.1139338
-0.73943728 0.48019615 -0.12530479
-0.76355541 0.44083899 -0.13615723
-0.78558064 0.40027344 -0.1463722
-0.80545282 0.35861066 -0.15583788
-0.8231172 0.31596506 -0.16445041
-0.83852541 0.27245349 -0.1721155
-0.85163546 0.2281951 -0.1787492
-0.86241114 0.18331106 -0.18427883
-0.87082297 0.13792479 -0.18864374
-0.87684792 0.092160463 -0.19179614
-0.88046956 0.046143536 -0.19370151
-0.88167787 -7.7078724e-08 -0.19433896
-0.88046956 -0.04614348 -0.19370151
-0.87684792 -0.092160404 -0.19179614
-0.87082297 -0.13792472 -0.18864374
-0.86241102 -0.18331122 -0.1842788
-0.85163546 -0.22819506 -0.1787492
-0.83852553 -0.27245343 -0.17211552
-0.8231172 -0.315965 -0.16445042
-0.80545288 -0.35861057 -0.15583789
-0.78558075 -0.40027344 -0.14637223
-0.76355541 -0.44083893 -0.13615724
-0.73943734 -0.48019615 -0.12530479
-0.71329248 -0.51823711 -0.11393381
-0.68519235 -0.55485791 -0.10216882
-0.65521443 -0.58995765 -0.090138808
-0.62344044 -0.62344038 -0.077975519
-0.58995771 -0.65521425 -0.065812245
-0.55485785 -0.68519241 -0.053782184
-0.51823735 -0.71329224 -0.042017277
-0.48019624 -0.73943728 -0.030646244
-0.44083884 -0.76355541 -0.019793762
-0.4002735 -0.78558064 -0.0095788203
-0.35861069 -0.80545282 -0.00011315926
-0.31596494 -0.82311726 0.0084994202
-0.27245355 -0.83852541 0.016164487
-0.22819497 -0.85163546 0.022798201
-0.18331134 -0.86241102 0.028327774
-0.13792485 -0.87082291 0.032692704
-0.092160322 -0.87684792 0.035845131
-0.046143599 -0.88046956 0.03775049
1.0513903e-08 -0.88167787 0.038387943
0.046143621 -0.88046956 0.03775049
0.092160344 -0.87684792 0.035845131
0.13792486 -0.87082291 0.032692704
0.18331096 -0.86241114 0.028327812
0.22819498 -0.85163546 0.022798197
0.27245355 -0.83852541 0.016164484
0.31596497 -0.8231172 0.0084994137
0.35861072 -0.80545282 -0.00011316795
0.40027314 -0.78558087 -0.0095787393
0.44083884 -0.76355541 -0.019793762
0.48019624 -0.73943722 -0.03064625
0.51823705 -0.71329248 -0.042017177
0.55485785 -0.68519241 -0.053782184
0.58995771 -0.65521425 -0.065812245
0.62344027 -0.6234405 -0.077975467
0.65521443 -0.58995759 -0.090138815
0.68519223 -0.55485809 -0.10216878
0.7132923 -0.51823729 -0.11393378
0.73943734 -0.48019612 -0.1253048
0.76355535 -0.44083911 -0.1361572
0.78558075 -0.40027338 -0.14637223
0.80545288 -0.35861057 -0.15583789
0.8231172 -0.31596518 -0.16445039
0.83852553 -0.2724534 -0.17211553
0.85163534 -0.22819524 -0.17874917
0.86241102 -0.18331119 -0.1842788
0.87082297 -0.1379247 -0.18864374
0.87684792 -0.092160597 -0.19179612
0.88046956 -0.046143461 -0.19370151
0.88167787 1.5415745e-07 -0.19433896
0.94398057 0 -0.22277482
0.94268686 0.049404129 -0.2220441
0.93880939 0.098672837 -0.21985993
0.93235862 0.1476711 -0.21624626
0.92335236 0.19626461 -0.21124268
0.91181517 0.24432014 -0.20490396
0.89777881 0.29170606 -0.1972996
0.88128179 0.33829239 -0.18851294
0.86236918 0.38395149 -0.17864019
0.84109282 0.42855823 -0.16778955
0.8175112 0.47199029 -0.15607989
0.79168868 0.51412868 -0.14363949
0.76369631 0.55485785 -0.1306047
0.73361075 0.5940662 -0.11711827
0.70151418 0.63164634 -0.10332796
0.66749507 0.66749513 -0.089384943
0.63164628 0.70151436 -0.075441897
0.59406626 0.73361075 -0.061651662
0.55485791 0.76369625 -0.048165239
0.51412868 0.79168868 -0.035130419
0.47199023 0.8175112 -0.022690017
0.42855823 0.84109282 -0.010980369
0.38395149 0.86236918 -0.00012971018
0.33829242 0.88128179 0.0097430199
0.29170603 0.89777887 0.018529709
0.24432018 0.91181517 0.026134044
0.19626456 0.92335236 0.032472745
0.14767112 0.93235862 0.037476338
0.098672792 0.93880939 0.041090019
0.049404144 0.94268686 0.043274179
-4.1262702e-08 0.94398057 0.044004902
-0.049404111 0.94268686 0.043274179
-0.098672882 0.93880939 0.041090012
-0.14767107 0.93235862 0.037476342
-0.19626454 0.92335236 0.032472748
-0.24432014 0.91181517 0.026134048
-0.291706 0.89777887 0.018529715
-0.33829239 0.88128179 0.0097430265
-0.38395143 0.86236918 -0.00012970355
-0.42855811 0.84109282 -0.010980345
-0.47199035 0.81751108 -0.022690047
-0.51412868 0.79168868 -0.035130419
-0.55485779 0.76369631 -0.048165202
-0.59406614 0.73361075 -0.061651621
-0.63164639 0.70151418 -0.075441949
-0.66749507 0.66749507 -0.089384951
-0.70151424 0.63164634 -0.10332799
-0.73361057 0.59406632 -0.11711822
-0.76369631 0.55485779 -0.1306047
-0.79168868 0.51412863 -0.14363949
-0.81751108 0.47199035 -0.15607989
-0.84109282 0.42855829 -0.16778952
-0.86236918 0.38395143 -0.17864022
-0.88128179 0.33829236 -0.18851294
-0.89777881 0.29170609 -0.1972996
-0.91181517 0.24432023 -0.20490396
-0.92335236 0.19626452 -0.21124268
-0.93235862 0.14767107 -0.21624626
-0.93880939 0.098672867 -0.21985993
-0.94268686 0.049404211 -0.2220441
-0.94398057 -8.2525403e-08 -0.22277482
-0.94268686 -0.049404155 -0.2220441
-0.93880939 -0.098672815 -0.21985993
-0.93235862 -0.14767101 -0.21624626
-0.92335236 -0.1962647 -0.21124265
-0.91181517 -0.24432018 -0.20490396
-0.89777887 -0.29170603 -0.19729963
-0.88128179 -0.3382923 -0.18851297
-0.8623693 -0.38395137 -0.17864023
-0.84109282 -0.42855826 -0.16778955
-0.8175112 -0.47199029 -0.15607989
-0.7916888 -0.51412863 -0.1436395
-0.76369643 -0.55485773 -0.13060471
-0.73361069 -0.59406626 -0.11711825
-0.70151436 -0.63164634 -0.103328
-0.66749513 -0.66749507 -0.089384973
-0.63164639 -0.70151418 -0.075441949
-0.5940662 -0.73361075 -0.061651643
-0.55485803 -0.76369619 -0.04816528
-0.51412874 -0.79168868 -0.03513043
-0.4719902 -0.8175112 -0.022690004
-0.42855835 -0.84109282 -0.010980402
-0.38395149 -0.86236918 -0.00012971682
-0.33829221 -0.88128185 0.0097430628
-0.29170612 -0.89777881 0.018529689
-0.24432009 -0.91181517 0.026134055
-0.1962648 -0.92335236 0.032472719
-0.14767115 -0.93235856 0.037476331
-0.098672725 -0.93880939 0.041090023
-0.049404286 -0.94268686 0.043274175
1.1256855e-08 -0.94398057 0.044004902
0.049404308 -0.94268686 0.043274175
0.098672733 -0.93880939 0.041090023
0.14767116 -0.93235856 0.037476331
0.19626439 -0.92335236 0.032472763
0.24432012 -0.91181517 0.026134051
0.29170617 -0.89777881 0.018529687
0.33829224 -0.88128179 0.0097430563
0.38395151 -0.86236918 -0.00012972679
0.42855799 -0.841093 -0.010980309
0.4719902 -0.8175112 -0.022690004
0.51412874 -0.79168868 -0.035130437
0.55485767 -0.76369643 -0.048165169
0.5940662 -0.73361075 -0.061651643
0.63164639 -0.70151418 -0.075441949
0.66749495 -0.66749513 -0.089384913
0.70151436 -0.63164628 -0.10332801
0.73361051 -0.59406644 -0.11711822
0.76369625 -0.55485791 -0.13060467
0.7916888 -0.51412857 -0.14363952
0.81751108 -0.47199047 -0.15607986
0.84109282 -0.42855823 -0.16778955
0.8623693 -0.38395134 -0.17864023
0.88128179 -0.33829248 -0.18851292
0.89777887 -0.291706 -0.19729964
0.91181517 -0.24432039 -0.20490392
0.92335236 -0.19626465 -0.21124265
0.93235862 -0.147671 -0.21624626
0.93880928 -0.098673016 -0.2198599
0.94268686 -0.049404133 -0.2220441
0.94398057 1.6505081e-07 -0.22277482
1.003696 0 -0.25185138
1.0023204 0.052529387 -0.25102529
0.99819756 0.1049148 -0.24855603
0.99133885 0.15701264 -0.24447072
0.98176277 0.20868012 -0.23881406
0.96949577 0.25977564 -0.23164801
0.95457155 0.31015912 -0.22305113
0.93703091 0.35969245 -0.21311764
0.91692185 0.4082399 -0.2019563
0.89429963 0.45566842 -0.18968943
0.86922622 0.50184798 -0.17645143
0.84177029 0.54665196 -0.16238731
0.81200707 0.58995765 -0.14765123
0.78001833 0.63164634 -0.13240454
0.74589133 0.67160368 -0.11681432
0.70972019 0.70972025 -0.10105146
0.67160362 0.74589145 -0.085288577
0.63164639 0.78001833 -0.069698438
0.58995771 0.81200707 -0.054451764
0.54665196 0.84177029 -0.03971564
0.50184792 0.86922622 -0.025651518
0.45566842 0.89429963 -0.012413526
0.4082399 0.91692191 -0.00014663996
0.35969248 0.93703091 0.011014679
0.31015909 0.95457155 0.020948207
0.25977564 0.96949577 0.029545059
0.20868009 0.98176277 0.036711089
0.15701266 0.99133885 0.042367749
0.10491475 0.99819756 0.046453085
0.052529402 1.0023204 0.048922323
-4.3872944e-08 1.003696 0.049748421
-0.052529372 1.0023204 0.048922323
-0.10491484 0.99819756 0.046453077
-0.15701261 0.99133885 0.042367753
-0.20868006 0.98176277 0.036711093
-0.25977564 0.96949577 0.029545063
-0.31015906 0.95457155 0.020948213
-0.35969245 0.93703091 0.011014686
-0.40823984 0.91692191 -0.00014663245
-0.45566833 0.89429963 -0.0124135
-0.50184798 0.8692261 -0.025651552
-0.54665196 0.84177029 -0.03971564
-0.58995759 0.81200707 -0.054451723
-0.63164622 0.78001833 -0.069698393
-0.67160374 0.74589133 -0.085288636
-0.70972019 0.70972019 -0.10105147
-0.74589145 0.67160368 -0.11681435
-0.78001809 0.63164639 -0.13240449
-0.81200707 0.58995759 -0.14765123
-0.84177029 0.54665196 -0.16238731
-0.86922616 0.50184798 -0.17645141
-0.89429951 0.45566851 -0.1896894
-0.91692191 0.40823984 -0.20195633
-0.93703091 0.35969242 -0.21311764
-0.95457155 0.31015915 -0.22305113
-0.96949577 0.25977573 -0.23164801
-0.98176277 0.20868003 -0.23881406
-0.99133885 0.15701261 -0.24447072
-0.99819756 0.10491483 -0.24855603
-1.0023204 0.052529477 -0.25102529
-1.003696 -8.7745889e-08 -0.25185138
-1.0023204 -0.052529417 -0.25102529
-0.99819756 -0.10491476 -0.24855603
-0.99133885 -0.15701255 -0.24447072
-0.98176271 -0.20868021 -0.23881403
-0.96949577 -0.25977564 -0.23164801
-0.95457155 -0.31015909 -0.22305116
-0.93703091 -0.35969236 -0.21311767
-0.91692191 -0.40823981 -0.20195636
-0.89429963 -0.45566845 -0.18968943
-0.86922622 -0.50184798 -0.17645143
-0.84177029 -0.54665196 -0.16238733
-0.81200713 -0.58995754 -0.14765124
-0.78001821 -0.63164639 -0.13240452
-0.74589145 -0.67160368 -0.11681437
-0.70972025 -0.70972019 -0.10105149
-0.67160374 -0.74589133 -0.085288636
-0.63164634 -0.78001833 -0.069698416
-0.58995783 -0.81200683 -0.054451812
-0.54665208 -0.84177029 -0.039715655
-0.50184786 -0.86922622 -0.025651503
-0.4556686 -0.89429951 -0.012413563
-0.4082399 -0.91692191 -0.00014664746
-0.35969228 -0.93703097 0.011014727
-0.31015921 -0.95457155 0.020948185
-0.25977558 -0.96949577 0.029545071
-0.20868036 -0.98176271 0.03671106
-0.1570127 -0.99133873 0.042367741
-0.10491467 -0.99819756 0.046453089
-0.052529555 -1.0023204 0.048922319
1.1968954e-08 -1.003696 0.049748421
0.052529577 -1.0023204 0.048922319
0.1049147 -0.99819756 0.046453089
0.1570127 -0.99133873 0.042367741
0.20867991 -0.98176277 0.036711108
0.25977558 -0.96949577 0.029545067
0.31015924 -0.95457155 0.020948181
0.35969231 -0.93703091 0.011014719
0.40823996 -0.91692185 -0.00014665871
0.45566815 -0.89429975 -0.012413458
0.50184786 -0.86922622 -0.025651503
0.54665208 -0.84177017 -0.039715663
0.58995748 -0.81200719 -0.054451685
0.63164634 -0.78001833 -0.069698416
0.67160374 -0.74589133 -0.085288636
0.70972008 -0.70972031 -0.10105143
0.74589145 -0.67160362 -0.11681437
0.78001809 -0.63164651 -0.13240448
0.81200707 -0.58995771 -0.1476512
0.84177029 -0.5466519 -0.16238734
0.8692261 -0.50184816 -0.17645139
0.89429963 -0.45566842 -0.18968943
0.91692191 -0.40823978 -0.20195636
0.93703091 -0.35969257 -0.21311763
0.95457155 -0.31015906 -0.22305118
0.96949571 -0.25977585 -0.23164797
0.98176271 -0.2086802 -0.23881403
0.99133885 -0.15701252 -0.24447072
0.99819756 -0.10491499 -0.248556
1.0023204 -0.052529395 -0.25102529
1.003696 1.7549178e-07 -0.25185138
1.0606602 0 -0.28125003
1.0592066 0.055510674 -0.2803275
1.0548499 0.11086918 -0.27757001
1.0476018 0.16592383 -0.27300781
1.0374823 0.22052367 -0.26669085
1.0245191 0.27451906 -0.25868833
1.0087478 0.32776207 -0.24908793
0.99021161 0.38010666 -0.23799489
0.96896136 0.43140942 -0.22553068
0.94505525 0.48152965 -0.21183191
0.91855878 0.53033012 -0.19704863
0.88954449 0.57767695 -0.18134281
0.85809213 0.62344044 -0.16488656
0.82428777 0.66749513 -0.14786014
0.7882241 0.70972025 -0.13045008
0.75 0.75000012 -0.11284722
0.70972019 0.78822422 -0.095244318
0.66749513 0.82428777 -0.077834345
0.6234405 0.85809213 -0.060807928
0.57767695 0.88954449 -0.044351652
0.53033006 0.91855878 -0.028645823
0.48152971 0.94505525 -0.013862559
0.43140936 0.96896142 -0.00016375726
0.38010666 0.99021161 0.012300423
0.32776201 1.0087478 0.023393493
0.27451912 1.0245191 0.032993861
0.22052363 1.0374823 0.04099638
0.16592383 1.0476018 0.047313344
0.11086914 1.0548499 0.051875561
0.055510685 1.0592066 0.054633033
-4.6362928e-08 1.0606602 0.055555563
-0.055510651 1.0592066 0.054633033
-0.11086923 1.0548499 0.051875554
-0.1659238 1.0476018 0.047313347
-0.2205236 1.0374823 0.040996384
-0.27451906 1.0245191 0.032993864
-0.32776198 1.0087478 0.023393501
-0.38010666 0.99021161 0.012300432
-0.4314093 0.96896142 -0.00016374887
-0.48152956 0.94505525 -0.01386253
-0.53033018 0.9185586 -0.028645862
-0.57767695 0.88954449 -0.044351652
-0.62344038 0.85809213 -0.06080788
-0.66749501 0.82428789 -0.077834293
-0.70972031 0.7882241 -0.095244385
-0.75 0.75 -0.11284722
-0.78822416 0.70972025 -0.13045011
-0.82428771 0.66749525 -0.14786009
-0.85809213 0.62344038 -0.16488656
-0.88954449 0.57767689 -0.18134281
-0.91855872 0.53033018 -0.19704862
-0.94505513 0.48152974 -0.21183187
-0.96896142 0.4314093 -0.22553071
-0.99021161 0.38010663 -0.23799489
-1.0087478 0.32776207 -0.24908793
-1.0245191 0.27451918 -0.25868833
-1.0374823 0.22052358 -0.26669085
-1.0476018 0.1659238 -0.27300781
-1.0548499 0.11086922 -0.27757001
-1.0592066 0.055510763 -0.2803275
-1.0606602 -9.2725855e-08 -0.28125003
-1.0592066 -0.055510696 -0.2803275
-1.0548499 -0.11086915 -0.27757001
-1.0476018 -0.16592371 -0.27300781
-1.0374823 -0.22052376 -0.26669082
-1.0245191 -0.27451912 -0.25868833
-1.0087478 -0.32776201 -0.24908796
-0.99021167 -0.38010651 -0.23799492
-0.96896142 -0.43140927 -0.22553076
-0.94505525 -0.48152974 -0.21183191
-0.91855878 -0.53033012 -0.19704863
-0.88954461 -0.57767689 -0.18134283
-0.85809219 -0.62344033 -0.16488659
-0.82428777 -0.66749513 -0.14786012
-0.78822422 -0.70972025 -0.13045013
-0.75000012 -0.75 -0.11284725
-0.70972031 -0.7882241 -0.095244385
-0.66749513 -0.82428777 -0.077834316
-0.62344062 -0.85809195 -0.060807981
-0.57767707 -0.88954449 -0.044351667
-0.53033006 -0.91855878 -0.028645806
-0.48152983 -0.94505513 -0.013862601
-0.43140942 -0.96896142 -0.00016376564
-0.38010645 -0.99021173 0.012300477
-0.32776213 -1.0087478 0.023393469
-0.274519 -1.0245191 0.032993872
-0.22052392 -1.0374823 0.040996347
-0.16592388 -1.0476017 0.047313333
-0.11086905 -1.0548499 0.051875565
-0.055510849 -1.0592066 0.054633029
1.2648247e-08 -1.0606602 0.055555563
0.055510875 -1.0592066 0.054633029
0.11086908 -1.0548499 0.051875565
0.16592389 -1.0476017 0.047313333
0.22052345 -1.0374823 0.040996399
0.27451903 -1.0245191 0.032993868
0.32776219 -1.0087478 0.023393465
0.38010648 -0.99021167 0.012300469
0.43140942 -0.96896136 -0.00016377821
0.48152941 -0.94505537 -0.013862483
0.53033006 -0.91855878 -0.028645806
0.57767707 -0.88954443 -0.044351675
0.62344027 -0.85809231 -0.060807839
0.66749513 -0.82428777 -0.077834316
0.70972031 -0.7882241 -0.095244385
0.74999988 -0.75000018 -0.11284717
0.78822422 -0.70972019 -0.13045014
0.82428765 -0.66749537 -0.14786008
0.85809213 -0.6234405 -0.16488653
0.88954461 -0.57767689 -0.18134284
0.9185586 -0.5303303 -0.19704859
0.94505525 -0.48152971 -0.21183191
0.96896142 -0.43140924 -0.22553076
0.99021161 -0.38010675 -0.23799488
1.0087478 -0.32776198 -0.24908797
1.0245191 -0.27451932 -0.25868827
1.0374823 -0.22052374 -0.26669082
1.0476018 -0.16592371 -0.27300781
1.0548497 -0.11086939 -0.27756998
1.0592066 -0.055510674 -0.2803275
1.0606602 1.8545171e-07 -0.28125003
1.1147172 0 -0.31064868
1.1131896 0.058339801 -0.30962971
1.1086109 0.11651969 -0.306584
1.1009934 0.17438021 -0.30154493
1.0903581 0.23176277 -0.29456767
1.0767342 0.28851008 -0.28572863
1.0601591 0.3444666 -0.27512473
1.0406783 0.39947897 -0.26287216
1.0183449 0.45339638 -0.24910508
0.99322039 0.50607109 -0.23397438
0.96537352 0.55735862 -0.21764584
0.93488055 0.60711861 -0.20029831
0.90182531 0.65521443 -0.18212192
0.86629808 0.70151436 -0.16331574
0.82839632 0.74589145 -0.14408584
0.78822416 0.78822422 -0.12464297
0.74589145 0.82839644 -0.10520007
0.70151436 0.86629808 -0.085970253
0.65521443 0.90182519 -0.067164093
0.60711861 0.93488055 -0.048987664
0.55735862 0.96537352 -0.031640127
0.50607109 0.99322039 -0.015311591
0.45339632 1.018345 -0.00018087456
0.399479 1.0406783 0.013586168
0.34446657 1.0601592 0.025838781
0.28851008 1.0767342 0.03644266
0.23176274 1.0903581 0.045281671
0.17438023 1.1009934 0.052258935
0.11651964 1.1086109 0.057298038
0.058339819 1.1131896 0.060343742
-4.8725838e-08 1.1147172 0.061362702
-0.058339778 1.1131896 0.060343742
-0.11651974 1.1086109 0.057298031
-0.17438018 1.1009934 0.052258942
-0.23176268 1.0903581 0.045281675
-0.28851008 1.0767342 0.036442664
-0.34446654 1.0601592 0.025838789
-0.39947897 1.0406783 0.013586177
-0.45339632 1.018345 -0.0001808653
-0.50607097 0.99322039 -0.015311559
-0.55735868 0.9653734 -0.031640172
-0.60711861 0.93488055 -0.048987664
-0.65521431 0.90182531 -0.067164041
-0.70151424 0.8662982 -0.085970201
-0.74589157 0.82839632 -0.10520014
-0.78822416 0.78822416 -0.12464298
-0.82839644 0.74589145 -0.14408587
-0.8662979 0.70151448 -0.16331568
-0.90182531 0.65521431 -0.18212192
-0.93488055 0.60711849 -0.20029831
-0.96537352 0.55735868 -0.21764582
-0.99322033 0.50607115 -0.23397434
-1.018345 0.45339632 -0.24910511
-1.0406783 0.39947891 -0.26287216
-1.0601591 0.34446663 -0.27512473
-1.0767342 0.28851014 -0.28572863
-1.0903581 0.23176266 -0.29456767
-1.1009934 0.17438018 -0.30154493
-1.1086109 0.11651972 -0.306584
-1.1131896 0.058339901 -0.30962971
-1.1147172 -9.7451675e-08 -0.31064868
-1.1131896 -0.058339827 -0.30962971
-1.1086109 -0.11651965 -0.306584
-1.1009934 -0.17438009 -0.30154493
-1.090358 -0.23176286 -0.29456761
-1.0767342 -0.28851008 -0.28572863
-1.0601592 -0.34446657 -0.27512476
-1.0406783 -0.39947885 -0.26287219
-1.018345 -0.45339623 -0.24910516
-0.99322039 -0.50607109 -0.23397438
-0.96537352 -0.55735862 -0.21764584
-0.93488061 -0.60711849 -0.20029832
-0.90182531 -0.65521425 -0.18212193
-0.86629796 -0.70151436 -0.16331573
-0.82839644 -0.74589145 -0.14408588
-0.78822422 -0.78822416 -0.12464301
-0.74589157 -0.82839632 -0.10520014
-0.70151436 -0.86629808 -0.085970223
-0.65521455 -0.90182501 -0.067164153
-0.60711861 -0.93488055 -0.048987683
-0.55735856 -0.96537352 -0.031640112
-0.50607121 -0.99322033 -0.015311638
-0.45339638 -1.018345 -0.00018088383
-0.39947873 -1.0406783 0.013586229
-0.34446669 -1.0601591 0.025838753
-0.28850999 -1.0767342 0.036442671
-0.23176302 -1.090358 0.045281634
-0.17438027 -1.1009933 0.052258927
-0.11651956 -1.1086109 0.057298042
-0.058339979 -1.1131896 0.060343739
1.3292871e-08 -1.1147172 0.061362702
0.058340013 -1.1131896 0.060343739
0.11651957 -1.1086109 0.057298042
0.17438029 -1.1009933 0.052258927
0.23176253 -1.0903581 0.045281693
0.28851002 -1.0767342 0.036442667
0.34446675 -1.0601591 0.025838749
0.39947879 -1.0406783 0.013586219
0.45339641 -1.0183449 -0.00018089771
0.50607079 -0.99322057 -0.015311508
0.55735856 -0.96537352 -0.031640112
0.60711861 -0.93488055 -0.04898769
0.65521419 -0.90182537 -0.067163989
0.70151436 -0.86629808 -0.085970223
0.74589157 -0.82839632 -0.10520014
0.78822398 -0.78822422 -0.12464292
0.82839644 -0.74589145 -0.1440859
0.8662979 -0.7015146 -0.16331567
0.90182519 -0.65521443 -0.18212189
0.93488061 -0.60711849 -0.20029834
0.9653734 -0.55735886 -0.21764579
0.99322039 -0.50607109 -0.23397438
1.018345 -0.4533962 -0.24910516
1.0406783 -0.39947909 -0.26287213
1.0601592 -0.34446654 -0.27512479
1.0767342 -0.28851032 -0.28572857
1.090358 -0.23176284 -0.29456761
1.1009934 -0.17438009 -0.30154493
1.1086107 -0.1165199 -0.30658397
1.1131896 -0.058339801 -0.30962971
1.1147172 1.9490335e-07 -0.31064868
1.165719 0 -0.33972517
1.1641214 0.06100902 -0.33861083
1.1593331 0.12185081 -0.33528003
1.1513671 0.18235864 -0.32976931
1.1402452 0.24236661 -0.32213899
1.125998 0.30171028 -0.31247261
1.1086645 0.36022699 -0.3008762
1.0882924 0.41775632 -0.28747678
1.0649372 0.47414061 -0.27242112
1.0386631 0.52922535 -0.25587422
1.0095422 0.58285952 -0.23801734
0.97765422 0.6348961 -0.21904609
0.9430865 0.68519241 -0.1991684
0.9059338 0.73361075 -0.17860198
0.8662979 0.78001833 -0.15757217
0.82428777 0.82428777 -0.13630946
0.78001821 0.86629808 -0.11504672
0.73361075 0.9059338 -0.094017006
0.68519247 0.94308639 -0.073450595
0.6348961 0.97765422 -0.053572871
0.58285946 1.0095422 -0.034601621
0.52922535 1.0386631 -0.016744746
0.47414058 1.0649374 -0.00019780429
0.41775632 1.0882924 0.014857824
0.36022696 1.1086646 0.028257271
0.30171031 1.125998 0.039853662
0.24236655 1.1402452 0.049520001
0.18235865 1.1513671 0.057150334
0.12185077 1.1593331 0.062661089
0.061009042 1.1641214 0.065991871
-5.0955194e-08 1.165719 0.06710621
-0.061009001 1.1641214 0.065991871
-0.12185086 1.1593331 0.062661082
-0.18235861 1.1513671 0.057150338
-0.24236652 1.1402452 0.049520005
-0.30171028 1.125998 0.03985367
-0.3602269 1.1086646 0.028257281
-0.41775632 1.0882924 0.014857834
-0.47414058 1.0649374 -0.00019779417
-0.52922523 1.0386631 -0.016744711
-0.58285958 1.0095422 -0.034601666
-0.6348961 0.97765422 -0.053572871
-0.68519235 0.9430865 -0.073450543
-0.73361063 0.90593386 -0.094016947
-0.78001833 0.8662979 -0.1150468
-0.82428777 0.82428777 -0.13630947
-0.86629796 0.78001833 -0.15757219
-0.90593374 0.73361087 -0.17860192
-0.9430865 0.68519235 -0.1991684
-0.97765422 0.63489598 -0.21904609
-1.0095422 0.58285958 -0.23801732
-1.0386631 0.52922541 -0.25587416
-1.0649374 0.47414058 -0.27242115
-1.0882924 0.41775629 -0.28747678
-1.1086645 0.36022702 -0.3008762
-1.125998 0.30171037 -0.31247261
-1.1402452 0.24236651 -0.32213899
-1.1513671 0.18235861 -0.32976931
-1.1593331 0.12185085 -0.33528003
-1.1641214 0.061009124 -0.33861083
-1.165719 -1.0191039e-07 -0.33972517
-1.1641214 -0.061009049 -0.33861083
-1.1593331 -0.12185077 -0.33528003
-1.1513671 -0.18235852 -0.32976931
-1.1402452 -0.2423667 -0.32213894
-1.125998 -0.30171031 -0.31247261
-1.1086646 -0.36022696 -0.30087623
-1.0882925 -0.4177562 -0.28747684
-1.0649374 -0.47414047 -0.27242121
-1.0386631 -0.52922541 -0.25587422
-1.0095422 -0.58285952 -0.23801734
-0.97765428 -0.63489598 -0.2190461
-0.9430865 -0.68519229 -0.19916841
-0.90593374 -0.73361075 -0.17860195
-0.86629808 -0.78001833 -0.15757222
-0.82428777 -0.82428777 -0.1363095
-0.78001833 -0.8662979 -0.1150468
-0.73361075 -0.9059338 -0.094016977
-0.68519258 -0.94308627 -0.073450662
-0.63489616 -0.97765422 -0.053572893
-0.5828594 -1.0095422 -0.034601603
-0.52922553 -1.0386631 -0.016744796
-0.47414061 -1.0649374 -0.00019781441
-0.41775611 -1.0882926 0.014857889
-0.36022708 -1.1086645 0.028257241
-0.30171019 -1.125998 0.039853677
-0.24236687 -1.1402452 0.04951996
-0.18235868 -1.1513669 0.057150323
-0.12185067 -1.1593331 0.062661096
-0.061009213 -1.1641214 0.065991871
1.3901059e-08 -1.165719 0.06710621
0.061009243 -1.1641214 0.065991871
0.12185068 -1.1593331 0.062661096
0.18235871 -1.1513669 0.057150323
0.24236634 -1.1402452 0.049520027
0.30171022 -1.125998 0.039853673
0.36022714 -1.1086645 0.028257236
0.41775614 -1.0882925 0.014857879
0.47414064 -1.0649372 -0.00019782961
0.52922505 -1.0386634 -0.016744655
0.5828594 -1.0095422 -0.034601603
0.63489616 -0.9776541 -0.053572904
0.68519223 -0.94308662 -0.073450491
0.73361075 -0.9059338 -0.094016977
0.78001833 -0.8662979 -0.1150468
0.82428765 -0.82428789 -0.13630942
0.86629808 -0.78001821 -0.15757222
0.90593362 -0.73361099 -0.17860189
0.94308639 -0.68519247 -0.19916835
0.97765428 -0.63489592 -0.21904612
1.0095422 -0.58285969 -0.23801728
1.0386631 -0.52922535 -0.25587422
1.0649374 -0.47414044 -0.27242121
1.0882924 -0.41775647 -0.28747678
1.1086646 -0.3602269 -0.30087626
1.125998 -0.30171055 -0.31247255
1.1402452 -0.24236669 -0.32213894
1.1513671 -0.1823585 -0.32976931
1.159333 -0.12185103 -0.33528
1.1641214 -0.061009023 -0.33861083
1.165719 2.0382078e-07 -0.33972517
1.2135254 0 -0.36816099
1.2118623 0.063511014 -0.36695337
1.2068777 0.12684795 -0.36334381
1.198585 0.18983722 -0.35737181
1.1870071 0.25230613 -0.3491028
1.1721755 0.31408349 -0.33862734
1.1541312 0.37499997 -0.32606027
1.1329235 0.43488863 -0.31153929
1.1086106 0.49358523 -0.29522344
1.081259 0.55092901 -0.27729151
1.0509439 0.60676271 -0.25793996
1.017748 0.66093332 -0.23738077
0.98176271 0.7132923 -0.21583928
0.94308639 0.76369625 -0.19355139
0.90182501 0.81200707 -0.17076133
0.85809207 0.85809213 -0.14771889
0.81200695 0.90182519 -0.12467641
0.76369631 0.94308639 -0.10188646
0.71329242 0.98176265 -0.079598591
0.66093332 1.017748 -0.058057051
0.60676265 1.0509439 -0.037497863
0.55092907 1.081259 -0.018146321
0.4935852 1.1086106 -0.00021436099
0.43488863 1.1329235 0.016101459
0.37499994 1.1541313 0.030622475
0.31408352 1.1721755 0.043189514
0.25230607 1.1870071 0.053664945
0.18983723 1.198585 0.061933957
0.12684789 1.2068777 0.067905977
0.063511029 1.2118623 0.071515553
-5.3044879e-08 1.2135254 0.072723158
-0.063510992 1.2118623 0.071515553
-0.126848 1.2068777 0.06790597
-0.18983719 1.198585 0.061933961
-0.25230604 1.1870071 0.053664953
-0.31408349 1.1721755 0.043189518
-0.37499991 1.1541313 0.030622482
-0.43488863 1.1329235 0.01610147
-0.4935852 1.1086106 -0.00021435002
-0.55092889 1.081259 -0.018146282
-0.60676277 1.0509437 -0.037497912
-0.66093332 1.017748 -0.058057051
-0.71329224 0.98176271 -0.079598531
-0.76369619 0.9430865 -0.10188639
-0.81200713 0.90182501 -0.1246765
-0.85809207 0.85809207 -0.14771891
-0.90182507 0.81200707 -0.17076138
-0.94308627 0.76369643 -0.19355133
-0.98176271 0.71329224 -0.21583928
-1.017748 0.66093326 -0.23738077
-1.0509439 0.60676277 -0.25793993
-1.081259 0.55092907 -0.27729148
-1.1086106 0.4935852 -0.29522347
-1.1329235 0.4348886 -0.31153929
-1.1541312 0.375 -0.32606027
-1.1721755 0.31408358 -0.33862734
-1.1870071 0.25230601 -0.3491028
-1.198585 0.18983719 -0.35737181
-1.2068777 0.12684798 -0.36334381
-1.2118623 0.063511118 -0.36695337
-1.2135254 -1.0608976e-07 -0.36816099
-1.2118623 -0.063511051 -0.36695337
-1.2068777 -0.12684791 -0.36334381
-1.198585 -0.18983707 -0.35737181
-1.187007 -0.25230622 -0.34910277
-1.1721755 -0.31408352 -0.33862734
-1.1541313 -0.37499994 -0.3260603
-1.1329236 -0.43488848 -0.31153935
-1.1086107 -0.49358511 -0.29522353
-1.081259 -0.55092907 -0.27729151
-1.0509439 -0.60676271 -0.25793996
-1.0177481 -0.66093326 -0.2373808
-0.98176277 -0.71329218 -0.2158393
-0.94308633 -0.76369631 -0.19355138
-0.90182519 -0.81200707 -0.17076141
-0.85809213 -0.85809207 -0.14771894
-0.81200713 -0.90182501 -0.1246765
