ply
format ascii 1.0
comment PCL generated
element vertex 1378
property float x
property float y
property float z
element camera 0
property float view_px
property float view_py
property float view_pz
property float x_axisx
property float x_axisy
property float x_axisz
property float y_axisx
property float y_axisy
property float y_axisz
property float z_axisx
property float z_axisy
property float z_axisz
property float focal
property float scalex
property float scaley
property float centerx
property float centery
property int viewportx
property int viewporty
property float k1
property float k2
end_header
-0.15155131 -0.10222267 0.98748165
-0.14974421 -0.10485201 0.98857063
-0.14789149 -0.10744943 0.9896735
-0.14599371 -0.11001416 0.99078894
-0.14405146 -0.11254531 0.99191564
-0.14206532 -0.11504225 0.99305218
-0.14003594 -0.11750409 0.99419713
-0.13796386 -0.11993017 0.99534923
-0.1358498 -0.12231971 0.99650693
-0.13369434 -0.12467196 0.99766892
-0.13149813 -0.12698628 0.99883378
-0.1292619 -0.12926188 1
-0.12698627 -0.13149814 1.0011662
-0.12467198 -0.13369432 1.002331
-0.12231971 -0.13584977 1.0034931
-0.11993016 -0.13796388 1.0046508
-0.11750408 -0.14003596 1.0058029
-0.11504224 -0.14206533 1.0069479
-0.11254533 -0.14405145 1.0080844
-0.11001417 -0.14599368 1.0092111
-0.10744949 -0.14789145 1.0103265
-0.104852 -0.14974421 1.0114294
-0.10222265 -0.15155132 1.0125183
-0.099562168 -0.15331227 1.013592
-0.096871346 -0.15502651 1.0146492
-0.09415102 -0.15669352 1.0156884
-0.091401942 -0.15831286 1.0167086
-0.088625096 -0.15988392 1.0177084
-0.085821256 -0.16140628 1.0186867
-0.082991272 -0.16287948 1.0196421
-0.080135934 -0.16430309 1.0205737
-0.077256262 -0.16567662 1.0214802
-0.074353054 -0.1669997 1.0223606
-0.071427196 -0.1682719 1.0232136
-0.06847959 -0.16949284 1.0240383
-0.065511033 -0.17066218 1.0248339
-0.062522613 -0.17177951 1.0255991
-0.059515141 -0.1728445 1.0263332
-0.056489535 -0.17385685 1.0270351
-0.053446732 -0.17481625 1.0277041
-0.050387565 -0.17572242 1.0283395
-0.047313128 -0.17657503 1.0289402
-0.044224277 -0.17737387 1.0295057
-0.04112196 -0.17811868 1.0300353
-0.038007114 -0.17880921 1.0305282
-0.034880605 -0.1794453 1.0309839
-0.03174356 -0.18002672 1.031402
-0.028596845 -0.18055329 1.0317817
-0.025441417 -0.18102488 1.0321227
-0.02227824 -0.18144132 1.0324247
-0.019108189 -0.18180251 1.0326871
-0.015932407 -0.1821083 1.0329096
-0.012751771 -0.18235862 1.033092
-0.0095672477 -0.1825534 1.0332342
-0.0063798139 -0.18269256 1.0333359
-0.0031903484 -0.18277608 1.033397
2.1799149e-09 -0.18280393 1.0334172
0.0031903526 -0.18277608 1.033397
0.0063797305 -0.18269256 1.0333359
0.0095672533 -0.1825534 1.0332342
0.012751773 -0.18235862 1.033092
0.015932411 -0.1821083 1.0329096
0.019108195 -0.18180251 1.0326871
0.022278156 -0.18144134 1.0324247
0.025441419 -0.18102488 1.0321227
0.028596846 -0.18055329 1.0317817
0.031743564 -0.18002671 1.031402
0.034880612 -0.1794453 1.0309839
0.038007032 -0.17880923 1.0305282
0.041121963 -0.17811866 1.0300353
0.044224281 -0.17737387 1.0295057
0.047313131 -0.17657503 1.0289402
0.050387565 -0.17572242 1.0283395
0.053446651 -0.17481628 1.0277042
0.056489542 -0.17385685 1.0270351
0.059515145 -0.1728445 1.0263332
0.06252262 -0.1717795 1.0255991
0.06551104 -0.17066216 1.0248339
0.068479508 -0.16949286 1.0240384
0.071427204 -0.1682719 1.0232136
0.074353054 -0.16699968 1.0223606
0.077256262 -0.16567662 1.0214802
0.080135942 -0.16430309 1.0205737
0.082991198 -0.16287951 1.0196422
0.085821263 -0.16140628 1.0186867
0.088625103 -0.15988392 1.0177084
0.091401942 -0.15831286 1.0167086
0.094150946 -0.15669356 1.0156884
0.096871354 -0.15502651 1.0146492
0.099562168 -0.15331225 1.013592
0.10222265 -0.15155131 1.0125183
0.104852 -0.14974421 1.0114294
0.10744941 -0.14789151 1.0103265
0.11001417 -0.14599368 1.0092111
0.11254533 -0.14405145 1.0080844
0.11504224 -0.14206533 1.0069479
0.11750408 -0.14003594 1.0058029
0.11993013 -0.13796389 1.0046508
0.12231971 -0.13584977 1.0034931
0.12467198 -0.13369432 1.002331
0.12698627 -0.13149814 1.0011662
0.12926187 -0.12926191 1
0.13149811 -0.12698629 0.99883378
0.13369435 -0.12467196 0.99766892
0.1358498 -0.1223197 0.99650693
0.13796386 -0.11993017 0.99534923
0.14003593 -0.11750412 0.99419719
0.1420653 -0.11504228 0.99305218
0.14405146 -0.11254531 0.99191564
0.14599371 -0.11001414 0.99078894
0.14789148 -0.10744946 0.9896735
0.14974418 -0.10485204 0.98857063
0.15155129 -0.1022227 0.98748171
0.15331227 -0.099562138 0.98640794
0.15502653 -0.096871316 0.98535085
0.15669353 -0.09415099 0.98431152
0.15831283 -0.091401994 0.98329139
0.15988393 -0.088625073 0.98229152
0.16140628 -0.085821226 0.98131329
0.1628795 -0.082991242 0.98035783
0.16430306 -0.080135986 0.97942626
0.16567659 -0.077256307 0.9785198
0.16699971 -0.074353024 0.9776395
0.1682719 -0.071427166 0.97678643
0.16949284 -0.06847956 0.97596163
0.17066215 -0.065511093 0.97516614
0.17177948 -0.062522665 0.97440088
0.17284451 -0.059515111 0.97366685
0.17385687 -0.056489505 0.97296488
0.17481625 -0.053446703 0.97229582
0.17572239 -0.050387613 0.97166055
0.17657502 -0.047313176 0.9710598
0.17737389 -0.044224247 0.97049427
0.17811868 -0.04112193 0.96996474
0.17880921 -0.038007088 0.96947181
0.1794453 -0.03488066 0.96901608
0.18002671 -0.031743616 0.96859807
0.1805533 -0.028596813 0.96821827
0.18102488 -0.025441386 0.96787727
0.18144132 -0.02227821 0.96757537
0.1818025 -0.019108247 0.96731299
0.18210828 -0.015932463 0.96709043
0.18235862 -0.012751739 0.96690792
0.1825534 -0.0095672198 0.96676576
0.18269256 -0.0063797836 0.96666414
0.18277608 -0.0031904052 0.9666031
0.18280393 3.1962454e-08 0.96658272
0.15679274 0 0.97541606
0.15676886 0.0027364106 0.97543103
0.15669723 0.0054719876 0.97547591
0.15657786 0.0082058981 0.97555071
0.15641081 0.010937308 0.97565526
0.1561961 0.013665387 0.97578955
0.15593383 0.016389305 0.97595328
0.15562403 0.019108228 0.97614628
0.15526685 0.021821331 0.97636837
0.15486237 0.02452779 0.97661924
0.1544107 0.027226774 0.97689861
0.15391201 0.029917466 0.97720617
0.15336645 0.032599047 0.97754145
0.15277416 0.035270691 0.97790408
0.15213533 0.037931599 0.97829366
0.15145016 0.040580947 0.97870964
0.15071885 0.043217935 0.97915161
0.14994165 0.045841761 0.97961897
0.14911875 0.048451625 0.98011118
0.14825045 0.051046722 0.9806276
0.14733699 0.053626269 0.98116761
0.14637864 0.056189492 0.98173058
0.1453757 0.058735602 0.98231578
0.14432847 0.061263807 0.98292255
0.14323729 0.063773349 0.98355013
0.14210248 0.066263475 0.98419774
0.14092438 0.068733416 0.98486459
0.13970336 0.071182415 0.98554993
0.13843977 0.073609732 0.98625284
0.13713403 0.076014623 0.98697251
0.1357865 0.078396372 0.98770803
0.13439761 0.080754235 0.98845851
0.13296779 0.083087489 0.98922312
0.13149746 0.085395448 0.99000078
0.12998708 0.087677389 0.99079067
0.1284371 0.089932621 0.99159181
0.12684798 0.092160463 0.99240315
0.12522025 0.094360225 0.99322373
0.12355436 0.09653125 0.99405259
0.12185085 0.098672867 0.99488872
0.12011021 0.10078443 0.99573106
0.11833298 0.10286529 0.99657857
0.1165197 0.10491483 0.99743026
0.11467095 0.10693239 0.99828511
0.11278727 0.10891739 0.99914205
0.11086921 0.11086922 1
0.10891739 0.11278726 1.0008579
0.1069324 0.11467095 1.0017149
0.10491481 0.11651972 1.0025697
0.10286529 0.11833298 1.0034214
0.10078443 0.12011021 1.004269
0.098672882 0.12185085 1.0051113
0.09653125 0.12355436 1.0059474
0.094360225 0.12522025 1.0067762
0.092160463 0.12684798 1.0075969
0.089932621 0.1284371 1.0084082
0.087677389 0.12998706 1.0092093
0.085395448 0.13149746 1.0099992
0.083087489 0.13296779 1.0107769
0.080754235 0.13439761 1.0115415
0.078396365 0.1357865 1.012292
0.076014623 0.13713403 1.0130275
0.07360974 0.13843977 1.0137472
0.071182415 0.13970336 1.0144501
0.068733416 0.14092438 1.0151354
0.066263467 0.14210248 1.0158023
0.063773349 0.14323731 1.0164499
0.061263815 0.14432847 1.0170774
0.058735602 0.1453757 1.0176842
0.056189496 0.14637864 1.0182694
0.053626277 0.14733699 1.0188324
0.051046722 0.14825045 1.0193725
0.048451617 0.14911877 1.0198889
0.045841776 0.14994164 1.020381
0.043217942 0.15071885 1.0208484
0.040580951 0.15145016 1.0212903
0.037931599 0.15213533 1.0217063
0.035270691 0.15277416 1.0220959
0.032599039 0.15336645 1.0224586
0.029917475 0.15391201 1.0227939
0.02722678 0.1544107 1.0231013
0.024527792 0.15486237 1.0233808
0.021821331 0.15526685 1.0236316
0.019108227 0.15562403 1.0238537
0.016389297 0.15593383 1.0240468
0.013665399 0.1561961 1.0242105
0.010937314 0.15641081 1.0243447
0.0082059009 0.15657786 1.0244493
0.0054719876 0.15669723 1.0245241
0.0027364071 0.15676886 1.024569
-6.8536283e-09 0.15679274 1.0245839
-0.002736402 0.15676886 1.024569
-0.0054719821 0.15669723 1.0245241
-0.0082058962 0.15657786 1.0244493
-0.010937309 0.15641081 1.0243447
-0.013665391 0.1561961 1.0242105
-0.01638931 0.15593383 1.0240468
-0.019108221 0.15562403 1.0238537
-0.021821328 0.15526685 1.0236316
-0.024527784 0.15486237 1.0233808
-0.027226776 0.1544107 1.0231013
-0.029917471 0.15391201 1.0227939
-0.032599036 0.15336645 1.0224586
-0.035270683 0.15277416 1.0220959
-0.037931591 0.15213533 1.0217063
-0.040580947 0.15145016 1.0212903
-0.043217935 0.15071885 1.0208484
-0.045841768 0.14994164 1.020381
-0.048451614 0.14911877 1.0198889
-0.051046718 0.14825045 1.0193725
-0.053626269 0.14733699 1.0188324
-0.056189492 0.14637864 1.0182694
-0.058735602 0.1453757 1.0176842
-0.061263811 0.14432847 1.0170774
-0.063773341 0.14323731 1.0164499
-0.066263489 0.14210248 1.0158023
-0.068733409 0.14092438 1.0151354
-0.0711824 0.13970336 1.0144501
-0.073609732 0.13843977 1.0137472
-0.076014623 0.13713403 1.0130275
-0.07839638 0.13578649 1.012292
-0.08075422 0.13439761 1.0115415
-0.083087504 0.13296777 1.0107769
-0.085395448 0.13149746 1.0099992
-0.087677374 0.12998708 1.0092093
-0.089932621 0.12843709 1.0084082
-0.092160448 0.12684798 1.0075969
-0.094360232 0.12522024 1.0067762
-0.09653125 0.12355436 1.0059474
-0.098672859 0.12185086 1.0051113
-0.10078444 0.1201102 1.004269
-0.10286529 0.11833298 1.0034214
-0.10491483 0.1165197 1.0025697
-0.10693239 0.11467095 1.0017149
-0.10891738 0.11278727 1.0008579
-0.11086921 0.11086921 1
-0.11278725 0.1089174 0.99914205
-0.11467095 0.10693239 0.99828511
-0.1165197 0.10491483 0.99743026
-0.11833298 0.10286529 0.99657857
-0.1201102 0.10078444 0.99573106
-0.12185083 0.098672882 0.99488872
-0.12355437 0.09653125 0.99405259
-0.12522024 0.094360232 0.99322373
-0.12684798 0.092160448 0.99240315
-0.12843709 0.089932621 0.99159181
-0.12998706 0.087677404 0.99079067
-0.13149746 0.08539544 0.99000078
-0.13296777 0.083087504 0.98922312
-0.13439761 0.08075422 0.98845851
-0.1357865 0.07839638 0.98770803
-0.13713403 0.076014623 0.98697245
-0.13843977 0.073609732 0.98625284
-0.13970335 0.07118243 0.98554993
-0.14092438 0.068733409 0.98486459
-0.14210248 0.066263489 0.98419774
-0.14323731 0.063773341 0.98355013
-0.14432847 0.061263811 0.98292255
-0.1453757 0.058735609 0.98231578
-0.14637864 0.056189492 0.98173058
-0.14733697 0.053626288 0.98116761
-0.14825045 0.051046718 0.9806276
-0.14911875 0.048451632 0.98011118
-0.14994164 0.045841783 0.97961897
-0.15071885 0.043217935 0.97915161
-0.15145016 0.040580962 0.97870964
-0.15213533 0.037931591 0.97829366
-0.15277416 0.035270702 0.97790408
-0.15336645 0.032599032 0.97754145
-0.15391201 0.029917467 0.97720617
-0.1544107 0.027226795 0.97689861
-0.15486237 0.024527784 0.97661924
-0.15526685 0.021821344 0.97636837
-0.15562403 0.019108219 0.97614628
-0.15593383 0.016389308 0.97595328
-0.15619609 0.01366541 0.97578955
-0.15641081 0.010937308 0.97565526
-0.15657786 0.008205913 0.97555071
-0.15669723 0.0054719807 0.97547591
-0.15676886 0.0027364187 0.97543103
-0.15679274 -1.3707257e-08 0.97541606
-0.15676886 -0.0027364087 0.97543103
-0.15669723 -0.0054719709 0.97547591
-0.15657786 -0.0082059028 0.97555071
-0.15641081 -0.010937298 0.97565526
-0.1561961 -0.013665399 0.97578955
-0.15593383 -0.016389299 0.97595328
-0.15562403 -0.019108208 0.97614628
-0.15526685 -0.021821331 0.97636837
-0.15486237 -0.024527773 0.97661924
-0.1544107 -0.02722678 0.97689861
-0.15391201 -0.02991746 0.97720617
-0.15336645 -0.032599062 0.97754145
-0.15277416 -0.035270691 0.97790408
-0.15213533 -0.037931584 0.97829366
-0.15145016 -0.040580951 0.97870964
-0.15071885 -0.043217927 0.97915161
-0.14994164 -0.045841776 0.97961897
-0.14911877 -0.048451617 0.98011118
-0.14825046 -0.051046707 0.9806276
-0.14733699 -0.053626277 0.98116761
-0.14637864 -0.056189477 0.98173058
-0.1453757 -0.058735602 0.98231578
-0.14432847 -0.0612638 0.98292255
-0.14323732 -0.063773334 0.98355013
-0.14210248 -0.066263475 0.98419774
-0.14092439 -0.068733402 0.98486459
-0.13970336 -0.071182422 0.98554993
-0.13843977 -0.073609725 0.98625284
-0.13713402 -0.076014638 0.98697251
-0.1357865 -0.078396372 0.98770803
-0.13439763 -0.080754213 0.98845851
-0.13296779 -0.083087489 0.98922312
-0.13149747 -0.08539544 0.99000078
-0.12998706 -0.087677397 0.99079067
-0.1284371 -0.089932613 0.99159181
-0.126848 -0.092160441 0.99240315
-0.12522025 -0.094360232 0.99322373
-0.12355438 -0.096531242 0.99405259
-0.12185085 -0.098672882 0.99488872
-0.12011021 -0.10078443 0.99573106
-0.11833298 -0.10286529 0.99657857
-0.11651972 -0.10491483 0.99743026
-0.11467096 -0.10693237 0.99828511
-0.11278726 -0.10891739 0.99914205
-0.11086922 -0.11086921 1
-0.10891738 -0.11278727 1.0008579
-0.1069324 -0.11467095 1.0017149
-0.10491483 -0.1165197 1.0025697
-0.10286529 -0.11833298 1.0034214
-0.10078442 -0.12011023 1.004269
-0.098672867 -0.12185085 1.0051113
-0.09653125 -0.12355436 1.0059474
-0.094360247 -0.12522024 1.0067762
-0.092160493 -0.12684797 1.0075969
-0.089932606 -0.1284371 1.0084082
-0.087677389 -0.12998708 1.0092093
-0.085395463 -0.13149746 1.0099992
-0.083087519 -0.13296777 1.0107769
-0.080754265 -0.1343976 1.0115415
-0.07839635 -0.1357865 1.012292
-0.076014623 -0.13713403 1.0130275
-0.073609747 -0.13843977 1.0137472
-0.071182445 -0.13970335 1.0144501
-0.068733387 -0.14092439 1.0151354
-0.066263467 -0.14210248 1.0158023
-0.063773349 -0.14323731 1.0164499
-0.061263815 -0.14432847 1.0170774
-0.058735628 -0.1453757 1.0176842
-0.056189463 -0.14637865 1.0182694
-0.053626265 -0.14733699 1.0188324
-0.051046722 -0.14825045 1.0193725
-0.048451636 -0.14911875 1.0198889
-0.045841791 -0.14994162 1.020381
-0.043217912 -0.15071887 1.0208484
-0.040580936 -0.15145016 1.0212903
-0.037931602 -0.15213533 1.0217063
-0.03527071 -0.15277416 1.0220959
-0.03259908 -0.15336645 1.0224586
-0.029917443 -0.15391202 1.0227939
-0.027226765 -0.15441072 1.0231013
-0.024527799 -0.15486236 1.0233808
-0.021821355 -0.15526685 1.0236316
-0.019108268 -0.15562403 1.0238537
-0.016389284 -0.15593383 1.0240468
-0.013665383 -0.1561961 1.0242105
-0.01093732 -0.1564108 1.0243447
-0.0082059242 -0.15657786 1.0244493
-0.0054720296 -0.15669723 1.0245241
-0.0027363934 -0.15676886 1.024569
1.8697346e-09 -0.15679274 1.0245839
0.0027363971 -0.15676886 1.024569
0.0054719583 -0.15669723 1.0245241
0.0082059279 -0.15657786 1.0244493
0.010937324 -0.1564108 1.0243447
0.013665387 -0.1561961 1.0242105
0.016389288 -0.15593383 1.0240468
0.019108197 -0.15562403 1.0238537
0.021821359 -0.15526685 1.0236316
0.024527799 -0.15486236 1.0233808
0.027226768 -0.1544107 1.0231013
0.029917445 -0.15391202 1.0227939
0.03259901 -0.15336645 1.0224586
0.035270717 -0.15277414 1.0220959
0.037931606 -0.15213533 1.0217063
0.040580943 -0.15145016 1.0212903
0.043217912 -0.15071887 1.0208484
0.045841727 -0.14994167 1.0203811
0.04845164 -0.14911875 1.0198889
0.051046729 -0.14825045 1.0193725
0.053626265 -0.14733699 1.0188324
0.05618947 -0.14637864 1.0182694
0.058735561 -0.1453757 1.0176842
0.061263822 -0.14432847 1.0170774
0.063773356 -0.14323729 1.0164499
0.066263467 -0.14210248 1.0158023
0.068733387 -0.14092439 1.0151354
0.07118237 -0.13970336 1.0144501
0.073609754 -0.13843977 1.0137472
0.07601463 -0.13713403 1.0130275
0.07839635 -0.1357865 1.012292
0.080754206 -0.13439763 1.0115415
0.083087519 -0.13296777 1.0107769
0.085395463 -0.13149744 1.0099992
0.087677389 -0.12998706 1.0092093
0.089932606 -0.1284371 1.0084082
0.092160434 -0.12684801 1.0075969
0.094360247 -0.12522024 1.0067762
0.09653125 -0.12355436 1.0059474
0.098672867 -0.12185085 1.0051113
0.10078442 -0.12011021 1.004269
0.10286526 -0.118333 1.0034214
0.10491483 -0.1165197 1.0025697
0.1069324 -0.11467094 1.0017149
0.10891739 -0.11278727 1.0008579
0.11086918 -0.11086923 1
0.11278723 -0.10891742 0.99914205
0.11467098 -0.10693237 0.99828511
0.11651972 -0.10491481 0.99743026
0.11833298 -0.10286529 0.99657857
0.1201102 -0.10078445 0.99573106
0.12185082 -0.098672904 0.99488872
0.12355438 -0.096531242 0.99405259
0.12522025 -0.094360225 0.99322373
0.12684798 -0.092160463 0.99240315
0.12843707 -0.089932643 0.99159181
0.12998705 -0.087677419 0.99079072
0.13149747 -0.085395433 0.99000078
0.13296779 -0.083087489 0.98922312
0.1343976 -0.080754235 0.98845851
0.13578649 -0.078396395 0.98770803
0.13713405 -0.076014601 0.98697245
0.13843977 -0.073609725 0.98625284
0.13970336 -0.071182415 0.98554993
0.14092438 -0.068733424 0.98486459
0.14210248 -0.066263504 0.98419774
0.14323732 -0.063773334 0.98355013
0.14432847 -0.061263792 0.98292255
0.1453757 -0.058735602 0.98231578
0.14637864 -0.056189515 0.98173058
0.14733697 -0.05362631 0.98116761
0.14825046 -0.051046699 0.98062754
0.14911877 -0.048451614 0.98011118
0.14994164 -0.045841768 0.97961897
0.15071884 -0.043217961 0.97915161
0.15145016 -0.040580984 0.9787097
0.15213533 -0.037931576 0.97829366
0.15277416 -0.035270687 0.97790408
0.15336645 -0.032599054 0.97754145
0.15391201 -0.02991749 0.97720617
0.1544107 -0.027226817 0.97689861
0.15486237 -0.02452777 0.97661924
0.15526685 -0.021821331 0.97636837
0.15562403 -0.019108241 0.97614628
0.15593381 -0.016389333 0.97595328
0.15619609 -0.013665433 0.97578955
0.15641081 -0.010937294 0.97565526
0.15657786 -0.008205899 0.97555071
0.15669723 -0.0054720039 0.97547591
0.15676886 -0.0027364423 0.97543103
0.15679274 2.7414513e-08 0.97541606
0.13073382 0 0.98290867
0.13071391 0.0022816197 0.9829191
0.13065419 0.0045625446 0.98295033
0.13055465 0.0068420796 0.98300231
0.13041537 0.0091195293 0.98307502
0.13023633 0.011394202 0.9831683
0.13001764 0.013665405 0.98328215
0.12975934 0.015932444 0.98341638
0.12946153 0.018194631 0.98357075
0.12912427 0.020451277 0.98374516
0.12874767 0.022701688 0.98393941
0.12833187 0.024945188 0.98415321
0.12787697 0.027181089 0.98438627
0.12738311 0.029408708 0.98463839
0.12685046 0.031627372 0.98490924
0.12627918 0.033836402 0.9851985
0.12566942 0.036035124 0.9855057
0.12502137 0.038222868 0.98583066
0.12433524 0.04039897 0.9861728
0.12361124 0.042562764 0.98653185
0.1228496 0.044713598 0.9869073
0.12205054 0.046850808 0.98729867
0.12121429 0.04897375 0.98770553
0.12034111 0.051081769 0.98812735
0.11943128 0.053174235 0.98856366
0.11848509 0.055250499 0.98901391
0.11750278 0.057309933 0.98947752
0.11648469 0.05935191 0.98995399
0.11543112 0.061375812 0.99044263
0.11434238 0.063381016 0.99094296
0.11321881 0.065366909 0.99145436
0.11206076 0.067332894 0.99197608
0.11086856 0.069278367 0.99250764
0.1096426 0.07120274 0.99304831
0.10838325 0.073105425 0.99359745
0.10709088 0.074985839 0.99415439
0.10576588 0.076843411 0.99471849
0.10440867 0.078677572 0.99528897
0.10301965 0.08048778 0.99586523
0.10159926 0.082273461 0.99644649
0.10014792 0.08403407 0.99703211
0.098666064 0.085769102 0.99762136
0.097154148 0.087477997 0.99821347
0.09561266 0.089160241 0.99880779
0.094042048 0.090815343 0.99940354
0.092442766 0.092442773 1
0.090815343 0.094042033 1.0005965
0.089160249 0.09561266 1.0011922
0.087477997 0.09715417 1.0017866
0.085769102 0.098666064 1.0023787
0.08403407 0.10014792 1.0029678
0.082273468 0.10159926 1.0035535
0.08048778 0.10301965 1.0041348
0.078677572 0.10440867 1.004711
0.076843418 0.10576587 1.0052816
0.074985839 0.10709088 1.0058455
0.073105425 0.10838324 1.0064025
0.07120274 0.1096426 1.0069517
0.069278367 0.11086856 1.0074923
0.067332894 0.11206076 1.0080239
0.065366901 0.11321881 1.0085456
0.063381009 0.11434238 1.009057
0.061375815 0.11543112 1.0095574
0.059351914 0.11648469 1.010046
0.057309933 0.11750278 1.0105225
0.055250496 0.11848509 1.0109861
0.053174227 0.11943129 1.0114363
0.051081784 0.12034111 1.0118726
0.048973754 0.12121429 1.0122945
0.046850815 0.12205054 1.0127014
0.044713601 0.1228496 1.0130928
0.042562764 0.12361124 1.0134681
0.04039897 0.12433525 1.0138272
0.038222879 0.12502137 1.0141693
0.036035128 0.12566942 1.0144943
0.033836406 0.12627918 1.0148015
0.031627372 0.12685046 1.0150907
0.029408708 0.12738311 1.0153615
0.027181085 0.12787697 1.0156137
0.024945198 0.12833187 1.0158468
0.022701696 0.12874767 1.0160606
0.020451277 0.12912427 1.0162548
0.018194631 0.12946153 1.0164292
0.015932441 0.12975934 1.0165837
0.0136654 0.13001764 1.0167178
0.011394211 0.13023633 1.0168316
0.0091195349 0.13041537 1.016925
0.0068420819 0.13055465 1.0169977
0.0045625446 0.13065419 1.0170497
0.0022816167 0.13071391 1.0170809
-5.7145568e-09 0.13073382 1.0170913
-0.0022816125 0.13071391 1.0170809
-0.00456254 0.13065419 1.0170497
-0.0068420768 0.13055465 1.0169977
-0.0091195311 0.13041537 1.016925
-0.011394206 0.13023633 1.0168316
-0.013665411 0.13001764 1.0167178
-0.015932437 0.12975934 1.0165837
-0.018194627 0.12946153 1.0164292
-0.020451272 0.12912427 1.0162548
-0.022701692 0.12874767 1.0160606
-0.024945192 0.12833187 1.0158468
-0.027181081 0.12787697 1.0156137
-0.029408704 0.12738311 1.0153615
-0.031627372 0.12685046 1.0150907
-0.033836402 0.12627918 1.0148015
-0.036035124 0.12566942 1.0144943
-0.038222875 0.12502137 1.0141693
-0.040398967 0.12433525 1.0138272
-0.04256276 0.12361124 1.0134681
-0.044713598 0.1228496 1.0130928
-0.046850808 0.12205054 1.0127014
-0.04897375 0.12121429 1.0122945
-0.051081777 0.12034111 1.0118726
-0.053174224 0.11943129 1.0114363
-0.055250503 0.11848508 1.0109861
-0.057309933 0.11750278 1.0105225
-0.059351899 0.11648469 1.010046
-0.061375812 0.11543112 1.0095574
-0.063381001 0.11434238 1.009057
-0.065366916 0.1132188 1.0085456
-0.067332886 0.11206076 1.0080239
-0.069278374 0.11086856 1.0074923
-0.07120274 0.1096426 1.0069517
-0.07310541 0.10838325 1.0064025
-0.074985839 0.10709088 1.0058455
-0.076843396 0.10576588 1.0052816
-0.07867758 0.10440867 1.004711
-0.080487773 0.10301965 1.0041348
-0.082273446 0.10159928 1.0035535
-0.084034085 0.10014792 1.0029678
-0.085769095 0.098666064 1.0023787
-0.087478004 0.097154148 1.0017865
-0.089160241 0.09561266 1.0011922
-0.090815328 0.094042048 1.0005965
-0.092442766 0.092442766 1
-0.094042026 0.09081535 0.99940354
-0.09561266 0.089160241 0.99880779
-0.097154155 0.087477997 0.99821347
-0.098666064 0.085769095 0.99762136
-0.10014792 0.084034085 0.99703211
-0.10159925 0.082273468 0.99644649
-0.10301965 0.080487773 0.99586523
-0.10440867 0.07867758 0.99528897
-0.10576588 0.076843396 0.99471849
-0.10709088 0.074985839 0.99415439
-0.10838324 0.07310544 0.99359751
-0.1096426 0.07120274 0.99304831
-0.11086856 0.069278374 0.99250764
-0.11206076 0.067332886 0.99197608
-0.1132188 0.065366916 0.99145436
-0.11434238 0.063381001 0.99094296
-0.11543112 0.061375812 0.99044263
-0.11648469 0.059351921 0.98995399
-0.11750278 0.057309933 0.98947752
-0.11848508 0.055250503 0.98901391
-0.11943129 0.053174224 0.98856366
-0.12034111 0.051081777 0.98812735
-0.12121428 0.048973761 0.98770553
-0.12205054 0.046850808 0.98729867
-0.1228496 0.044713609 0.9869073
-0.12361124 0.04256276 0.98653185
-0.12433524 0.040398978 0.9861728
-0.12502137 0.038222887 0.98583066
-0.12566942 0.036035124 0.9855057
-0.12627918 0.033836413 0.9851985
-0.12685046 0.031627368 0.98490924
-0.12738311 0.029408718 0.98463839
-0.12787697 0.027181078 0.98438627
-0.12833187 0.024945188 0.98415321
-0.12874767 0.022701705 0.98393941
-0.12912427 0.020451272 0.98374516
-0.12946153 0.01819464 0.98357075
-0.12975934 0.015932437 0.98341638
-0.13001764 0.01366541 0.98328215
-0.13023633 0.011394221 0.9831683
-0.13041537 0.0091195293 0.98307502
-0.13055465 0.0068420917 0.98300231
-0.13065419 0.0045625386 0.98295033
-0.13071391 0.0022816265 0.9829191
-0.13073382 -1.1429114e-08 0.98290867
-0.13071391 -0.0022816181 0.9829191
-0.13065419 -0.0045625302 0.98295033
-0.13055465 -0.0068420833 0.98300231
-0.13041537 -0.0091195209 0.98307502
-0.13023633 -0.011394212 0.9831683
-0.13001764 -0.0136654 0.98328215
-0.12975934 -0.015932428 0.98341638
-0.12946153 -0.018194631 0.98357075
-0.12912427 -0.020451263 0.98374516
-0.12874767 -0.022701696 0.98393941
-0.12833187 -0.024945185 0.98415321
-0.12787697 -0.0271811 0.98438627
-0.12738311 -0.029408708 0.98463839
-0.12685046 -0.031627361 0.98490924
-0.12627918 -0.033836406 0.9851985
-0.12566942 -0.036035117 0.9855057
-0.12502137 -0.038222879 0.98583066
-0.12433525 -0.04039897 0.9861728
-0.12361126 -0.042562753 0.98653185
-0.1228496 -0.044713601 0.9869073
-0.12205054 -0.046850801 0.98729867
-0.12121429 -0.048973754 0.98770553
-0.12034112 -0.051081765 0.98812735
-0.1194313 -0.05317422 0.98856366
-0.11848509 -0.055250499 0.98901391
-0.11750278 -0.057309922 0.98947752
-0.11648469 -0.059351914 0.98995399
-0.11543112 -0.061375804 0.99044263
-0.11434237 -0.063381024 0.99094296
-0.11321881 -0.065366909 0.99145436
-0.11206076 -0.067332879 0.99197608
-0.11086856 -0.069278367 0.99250764
-0.10964261 -0.07120274 0.99304831
-0.10838324 -0.073105425 0.99359745
-0.10709088 -0.074985832 0.99415439
-0.10576589 -0.076843396 0.99471849
-0.10440867 -0.07867758 0.99528897
-0.10301967 -0.080487758 0.99586523
-0.10159925 -0.082273468 0.99644649
-0.10014792 -0.08403407 0.99703211
-0.098666064 -0.085769109 0.99762136
-0.09715417 -0.087477997 0.99821347
-0.095612675 -0.089160234 0.99880779
-0.094042033 -0.090815343 0.99940354
-0.092442773 -0.092442766 1
-0.090815328 -0.094042048 1.0005965
-0.089160249 -0.09561266 1.0011922
-0.087478004 -0.097154148 1.0017865
-0.085769102 -0.098666064 1.0023787
-0.08403407 -0.10014793 1.0029678
-0.082273461 -0.10159926 1.0035535
-0.08048778 -0.10301965 1.0041348
-0.078677595 -0.10440867 1.004711
-0.076843433 -0.10576586 1.0052814
-0.074985825 -0.10709088 1.0058455
-0.073105425 -0.10838325 1.0064025
-0.071202748 -0.1096426 1.0069517
-0.069278389 -0.11086856 1.0074923
-0.067332923 -0.11206074 1.0080239
-0.065366894 -0.11321881 1.0085456
-0.063381016 -0.11434238 1.009057
-0.061375819 -0.11543112 1.0095574
-0.059351932 -0.11648469 1.010046
-0.057309911 -0.11750278 1.0105225
-0.055250488 -0.11848509 1.0109861
-0.053174235 -0.11943129 1.0114363
-0.051081784 -0.12034111 1.0118726
-0.048973776 -0.12121428 1.0122944
-0.046850786 -0.12205055 1.0127014
-0.04471359 -0.12284961 1.0130928
-0.042562772 -0.12361124 1.0134681
-0.040398985 -0.12433524 1.0138272
-0.038222894 -0.12502137 1.0141693
-0.036035106 -0.12566942 1.0144943
-0.033836395 -0.12627918 1.0148015
-0.031627376 -0.12685046 1.0150907
-0.029408727 -0.12738311 1.0153615
-0.027181121 -0.12787697 1.0156137
-0.02494517 -0.12833187 1.0158468
-0.022701684 -0.12874769 1.0160606
-0.020451281 -0.12912425 1.0162548
-0.018194649 -0.12946153 1.0164292
-0.015932476 -0.12975934 1.0165837
-0.013665388 -0.13001764 1.0167178
-0.011394199 -0.13023633 1.0168316
-0.0091195395 -0.13041535 1.016925
-0.0068421015 -0.13055465 1.0169977
-0.0045625791 -0.13065419 1.0170497
-0.0022816053 -0.13071391 1.0170809
1.5589852e-09 -0.13073382 1.0170913
0.0022816083 -0.13071391 1.0170809
0.00456252 -0.13065419 1.0170497
0.0068421043 -0.13055465 1.0169977
0.0091195423 -0.13041535 1.016925
0.011394202 -0.13023633 1.0168316
0.013665391 -0.13001764 1.0167178
0.015932418 -0.12975934 1.0165837
0.018194653 -0.12946153 1.0164292
0.020451283 -0.12912425 1.0162548
0.022701684 -0.12874767 1.0160606
0.024945173 -0.12833187 1.0158468
0.027181063 -0.12787697 1.0156137
0.029408731 -0.12738311 1.0153615
0.031627379 -0.12685046 1.0150907
0.033836395 -0.12627918 1.0148015
0.036035106 -0.12566942 1.0144943
0.038222838 -0.12502138 1.0141693
0.040398989 -0.12433524 1.0138272
0.042562775 -0.12361124 1.0134681
0.044713594 -0.1228496 1.0130928
0.046850789 -0.12205054 1.0127014
0.048973724 -0.12121429 1.0122945
0.051081788 -0.12034111 1.0118726
0.053174242 -0.11943128 1.0114363
0.055250488 -0.11848509 1.0109861
0.057309918 -0.11750278 1.0105225
0.059351876 -0.1164847 1.010046
0.061375819 -0.11543112 1.0095574
0.063381016 -0.11434238 1.009057
0.065366894 -0.11321881 1.0085456
0.067332864 -0.11206077 1.0080239
0.069278389 -0.11086856 1.0074923
0.071202748 -0.1096426 1.0069517
0.073105425 -0.10838324 1.0064025
0.074985825 -0.10709088 1.0058455
0.076843388 -0.10576589 1.0052816
0.078677595 -0.10440867 1.004711
0.08048778 -0.10301965 1.0041348
0.082273461 -0.10159926 1.0035535
0.08403407 -0.10014792 1.0029678
0.085769072 -0.098666087 1.0023787
0.087478004 -0.097154148 1.0017865
0.089160249 -0.095612645 1.0011922
0.090815336 -0.094042048 1.0005965
0.092442751 -0.092442781 1
0.094042026 -0.090815365 0.99940354
0.095612682 -0.089160234 0.99880779
0.09715417 -0.087477997 0.99821347
0.098666064 -0.085769109 0.99762136
0.1001479 -0.084034093 0.99703211
0.10159924 -0.082273483 0.99644655
0.10301967 -0.080487758 0.99586523
0.10440867 -0.078677572 0.99528897
0.10576587 -0.076843418 0.99471849
0.10709086 -0.074985854 0.99415445
0.10838322 -0.073105454 0.99359751
0.10964261 -0.071202725 0.99304831
0.11086856 -0.069278367 0.99250764
0.11206075 -0.067332901 0.99197608
0.1132188 -0.065366931 0.99145436
0.11434239 -0.063380986 0.99094296
0.11543112 -0.061375797 0.99044263
0.11648469 -0.059351914 0.98995399
0.11750277 -0.057309944 0.98947752
0.11848506 -0.055250522 0.98901391
0.1194313 -0.053174213 0.98856366
0.12034112 -0.051081765 0.98812735
0.12121429 -0.048973754 0.98770553
0.12205054 -0.046850827 0.98729867
0.1228496 -0.044713628 0.9869073
0.12361126 -0.042562753 0.98653185
0.12433525 -0.040398967 0.9861728
0.12502137 -0.038222875 0.98583066
0.1256694 -0.036035143 0.98550576
0.12627916 -0.033836432 0.9851985
0.12685047 -0.031627357 0.98490924
0.12738311 -0.029408706 0.98463839
0.12787697 -0.027181098 0.98438627
0.12833187 -0.024945209 0.98415321
0.12874767 -0.022701724 0.98393941
0.12912427 -0.020451261 0.98374516
0.12946153 -0.018194629 0.98357075
0.12975934 -0.015932456 0.98341638
0.13001764 -0.01366543 0.98328215
0.13023633 -0.01139424 0.9831683
0.13041537 -0.0091195181 0.98307502
0.13055465 -0.0068420805 0.98300231
0.13065419 -0.0045625581 0.98295033
0.13071391 -0.0022816462 0.9829191
0.13073382 2.2858227e-08 0.98290867
0.1046347 0 0.98905158
0.10461877 0.0018261273 0.98905826
0.10457097 0.0036516984 0.98907822
0.10449131 0.0054761576 0.98911154
0.10437983 0.0072989482 0.98915815
0.10423654 0.0091195144 0.98921794
0.10406151 0.010937305 0.98929083
0.10385478 0.012751764 0.98937678
0.1036164 0.014562337 0.98947573
0.10334648 0.016368475 0.98958743
0.10304508 0.018169627 0.98971182
0.10271227 0.019965243 0.98984879
0.10234819 0.021754779 0.9899981
0.10195293 0.023537686 0.99015963
0.1015266 0.025313426 0.99033314
0.10106937 0.027081454 0.99051839
0.10058133 0.028841235 0.99071521
0.10006267 0.030592225 0.99092335
0.099513516 0.032333903 0.99114251
0.098934054 0.034065723 0.99137253
0.098324463 0.035787176 0.99161303
0.097684912 0.037497725 0.99186373
0.097015612 0.039196853 0.99212438
0.096316755 0.040884037 0.99239457
0.09558855 0.042558771 0.99267405
0.094831258 0.044220537 0.99296248
0.094045058 0.045868836 0.99325949
0.093230203 0.047503162 0.99356467
0.092386961 0.049123019 0.99387771
0.091515578 0.050727911 0.9941982
0.090616316 0.052317351 0.99452579
0.089689448 0.053890862 0.99486005
0.088735268 0.055447951 0.99520051
0.087754041 0.056988146 0.99554688
0.086746104 0.058510982 0.99589866
0.085711733 0.060016003 0.9962554
0.084651254 0.061502732 0.99661678
0.083564997 0.062970735 0.99698222
0.082453266 0.06441956 0.99735135
0.081316441 0.065848753 0.9977237
0.080154836 0.067257889 0.99809885
0.078968816 0.068646543 0.99847627
0.077758729 0.070014291 0.99885559
0.076524973 0.071360692 0.99923629
0.075267911 0.072685376 0.99961793
0.073987909 0.073987916 1
0.072685376 0.075267911 1.0003821
0.0713607 0.076524973 1.0007638
0.070014276 0.077758744 1.0011444
0.068646543 0.078968808 1.0015237
0.067257889 0.080154836 1.0019011
0.06584876 0.081316441 1.0022763
0.06441956 0.082453266 1.0026487
0.062970735 0.083564997 1.0030178
0.06150274 0.084651247 1.0033833
0.060016003 0.085711733 1.0037446
0.058510982 0.086746097 1.0041014
0.056988146 0.087754041 1.0044532
0.055447951 0.088735268 1.0047995
0.053890862 0.089689448 1.0051399
0.052317347 0.090616316 1.0054742
0.050727911 0.091515578 1.0058018
0.049123019 0.092386961 1.0061222
0.047503162 0.093230203 1.0064353
0.045868836 0.094045058 1.0067406
0.044220537 0.094831258 1.0070375
0.042558767 0.095588565 1.0073259
0.040884044 0.096316755 1.0076054
0.039196856 0.097015612 1.0078757
0.037497729 0.097684912 1.0081363
0.03578718 0.098324463 1.008387
0.034065723 0.098934054 1.0086274
0.032333903 0.099513516 1.0088575
0.030592233 0.10006267 1.0090766
0.028841238 0.10058133 1.0092847
0.027081456 0.10106937 1.0094817
0.025313426 0.1015266 1.0096669
0.023537686 0.10195293 1.0098404
0.021754775 0.10234819 1.0100019
0.01996525 0.10271227 1.0101511
0.01816963 0.10304508 1.0102881
0.016368477 0.10334648 1.0104126
0.014562337 0.1036164 1.0105243
0.012751761 0.10385478 1.0106232
0.010937301 0.10406151 1.0107092
0.0091195218 0.10423654 1.0107821
0.0072989515 0.10437983 1.0108418
0.005476159 0.10449131 1.0108885
0.0036516984 0.10457097 1.0109217
0.0018261251 0.10461877 1.0109417
-4.5737285e-09 0.1046347 1.0109484
-0.0018261217 0.10461877 1.0109417
-0.0036516949 0.10457097 1.0109217
-0.0054761558 0.10449131 1.0108885
-0.0072989487 0.10437983 1.0108418
-0.0091195181 0.10423654 1.0107821
-0.01093731 0.10406151 1.0107092
-0.012751756 0.10385478 1.0106232
-0.014562335 0.1036164 1.0105243
-0.016368473 0.10334648 1.0104126
-0.018169627 0.10304508 1.0102881
-0.019965246 0.10271227 1.0101511
-0.021754771 0.10234819 1.0100019
-0.023537681 0.10195293 1.0098404
-0.025313422 0.1015266 1.0096669
-0.027081454 0.10106937 1.0094817
-0.028841235 0.10058133 1.0092847
-0.030592231 0.10006267 1.0090766
-0.032333896 0.099513516 1.0088575
-0.034065723 0.098934054 1.0086274
-0.035787176 0.098324463 1.008387
-0.037497725 0.097684912 1.0081363
-0.039196853 0.097015612 1.0078757
-0.04088404 0.096316755 1.0076054
-0.042558759 0.095588565 1.0073259
-0.044220544 0.094831243 1.0070375
-0.045868833 0.094045058 1.0067406
-0.047503151 0.093230203 1.0064353
-0.049123019 0.092386961 1.0061222
-0.050727904 0.091515578 1.0058018
-0.052317359 0.090616308 1.0054742
-0.053890847 0.089689448 1.0051399
-0.055447955 0.08873526 1.0047995
-0.056988146 0.087754041 1.0044532
-0.058510974 0.086746104 1.0041014
-0.060016003 0.085711725 1.0037446
-0.061502729 0.084651254 1.0033833
-0.062970743 0.083564989 1.0030178
-0.064419553 0.082453266 1.0026487
-0.065848745 0.081316449 1.0022763
-0.067257896 0.080154836 1.0019011
-0.068646535 0.078968816 1.0015237
-0.070014298 0.077758729 1.0011444
-0.071360692 0.076524973 1.0007638
-0.072685368 0.075267911 1.0003821
-0.073987909 0.073987909 1
-0.075267904 0.072685383 0.99961793
-0.076524973 0.071360692 0.99923629
-0.077758737 0.070014291 0.99885559
-0.078968816 0.068646535 0.99847627
-0.080154836 0.067257896 0.99809885
-0.081316426 0.065848768 0.9977237
-0.082453273 0.064419553 0.99735135
-0.083564989 0.062970743 0.99698222
-0.084651254 0.061502729 0.99661672
-0.085711725 0.060016003 0.9962554
-0.086746097 0.058510996 0.99589866
-0.087754041 0.056988142 0.99554688
-0.08873526 0.055447955 0.99520051
-0.089689448 0.053890847 0.99486005
-0.090616316 0.052317359 0.99452579
-0.091515578 0.050727904 0.9941982
-0.092386961 0.049123019 0.99387771
-0.093230203 0.047503173 0.99356467
-0.094045058 0.045868833 0.99325949
-0.094831243 0.044220544 0.99296248
-0.095588565 0.042558759 0.99267405
-0.096316755 0.04088404 0.99239457
-0.097015604 0.03919686 0.99212438
-0.097684912 0.037497722 0.99186373
-0.098324448 0.035787184 0.99161303
-0.098934054 0.034065723 0.99137253
-0.099513516 0.032333907 0.99114251
-0.10006267 0.030592242 0.99092335
-0.10058133 0.028841235 0.99071521
-0.10106937 0.027081463 0.99051839
-0.1015266 0.025313422 0.99033314
-0.10195293 0.023537695 0.99015963
-0.10234819 0.02175477 0.9899981
-0.10271227 0.019965244 0.98984879
-0.10304508 0.018169638 0.98971182
-0.10334648 0.016368473 0.98958743
-0.1036164 0.014562344 0.98947573
-0.10385478 0.012751756 0.98937678
-0.10406151 0.010937308 0.98929083
-0.10423653 0.0091195293 0.98921794
-0.10437983 0.0072989482 0.98915815
-0.10449131 0.005476167 0.98911154
-0.10457097 0.0036516939 0.98907822
-0.10461877 0.0018261328 0.98905826
-0.1046347 -9.147457e-09 0.98905158
-0.10461877 -0.0018261261 0.98905826
-0.10457097 -0.0036516872 0.98907822
-0.10449131 -0.0054761604 0.98911154
-0.10437983 -0.0072989408 0.98915815
-0.10423654 -0.0091195228 0.98921794
-0.10406151 -0.010937301 0.98929083
-0.10385478 -0.01275175 0.98937678
-0.1036164 -0.014562337 0.98947573
-0.10334648 -0.016368464 0.98958743
-0.10304508 -0.01816963 0.98971182
-0.10271227 -0.019965239 0.98984879
-0.10234818 -0.02175479 0.9899981
-0.10195293 -0.023537686 0.99015963
-0.1015266 -0.025313418 0.99033314
-0.10106937 -0.027081456 0.99051839
-0.10058133 -0.028841227 0.99071521
-0.10006267 -0.030592233 0.99092335
-0.099513516 -0.032333903 0.99114251
-0.098934062 -0.034065716 0.99137253
-0.098324463 -0.03578718 0.99161303
-0.097684912 -0.037497714 0.99186373
-0.097015612 -0.039196856 0.99212438
-0.096316755 -0.040884033 0.99239457
-0.095588565 -0.042558756 0.99267405
-0.094831258 -0.044220537 0.99296248
-0.094045058 -0.045868829 0.99325949
-0.093230203 -0.047503166 0.99356467
-0.092386961 -0.049123015 0.99387771
-0.091515571 -0.050727919 0.9941982
-0.090616316 -0.052317351 0.99452579
-0.089689456 -0.053890843 0.99486005
-0.088735268 -0.055447951 0.99520051
-0.087754048 -0.056988142 0.99554688
-0.086746097 -0.058510993 0.99589866
-0.085711733 -0.060015999 0.9962554
-0.084651262 -0.061502725 0.99661672
-0.083564997 -0.062970743 0.99698222
-0.082453281 -0.064419545 0.99735135
-0.081316434 -0.06584876 0.9977237
-0.080154836 -0.067257889 0.99809885
-0.078968808 -0.06864655 0.99847627
-0.077758744 -0.070014291 0.99885559
-0.076524988 -0.071360685 0.99923629
-0.075267911 -0.072685376 0.99961793
-0.073987916 -0.073987909 1
-0.072685368 -0.075267911 1.0003821
-0.0713607 -0.076524973 1.0007638
-0.070014298 -0.077758729 1.0011444
-0.068646543 -0.078968816 1.0015237
-0.067257881 -0.080154851 1.0019011
-0.065848753 -0.081316441 1.0022763
-0.06441956 -0.082453266 1.0026487
-0.06297075 -0.083564982 1.0030178
-0.061502755 -0.084651239 1.0033833
-0.060015991 -0.08571174 1.0037446
-0.058510982 -0.086746104 1.0041014
-0.05698815 -0.087754041 1.0044532
-0.055447958 -0.08873526 1.0047995
-0.053890884 -0.089689434 1.0051399
-0.052317344 -0.090616316 1.0054742
-0.050727911 -0.091515578 1.0058018
-0.049123026 -0.092386961 1.0061222
-0.047503181 -0.093230203 1.0064353
-0.045868818 -0.094045058 1.0067406
-0.044220529 -0.094831258 1.0070375
-0.042558771 -0.095588565 1.0073259
-0.040884048 -0.096316755 1.0076054
-0.039196871 -0.097015604 1.0078757
-0.037497707 -0.09768492 1.0081363
-0.035787169 -0.098324463 1.008387
-0.034065731 -0.098934054 1.0086274
-0.03233391 -0.099513516 1.0088575
-0.030592248 -0.10006265 1.0090766
-0.028841218 -0.10058134 1.0092847
-0.027081449 -0.10106937 1.0094817
-0.025313431 -0.1015266 1.0096669
-0.023537699 -0.10195293 1.0098404
-0.021754803 -0.10234818 1.0100019
-0.019965228 -0.10271227 1.0101511
-0.018169623 -0.10304508 1.0102881
-0.016368479 -0.10334647 1.0104126
-0.014562353 -0.1036164 1.0105243
-0.012751789 -0.10385478 1.0106232
-0.010937292 -0.10406151 1.0107092
-0.0091195125 -0.10423654 1.0107821
-0.0072989557 -0.10437982 1.0108418
-0.0054761749 -0.10449131 1.0108885
-0.0036517265 -0.10457097 1.0109217
-0.0018261159 -0.10461877 1.0109417
1.2477563e-09 -0.1046347 1.0109484
0.0018261184 -0.10461877 1.0109417
0.0036516788 -0.10457097 1.0109217
0.0054761777 -0.10449131 1.0108885
0.0072989576 -0.10437982 1.0108418
0.0091195144 -0.10423654 1.0107821
0.010937294 -0.10406151 1.0107092
0.012751741 -0.10385478 1.0106232
0.014562353 -0.1036164 1.0105243
0.016368482 -0.10334647 1.0104126
0.018169623 -0.10304508 1.0102881
0.019965231 -0.10271227 1.0101511
0.021754757 -0.10234819 1.0100019
0.023537703 -0.10195293 1.0098404
0.025313431 -0.1015266 1.0096669
0.027081452 -0.10106937 1.0094817
0.028841218 -0.10058134 1.0092847
0.030592203 -0.10006268 1.0090767
0.032333914 -0.099513516 1.0088575
0.034065735 -0.098934054 1.0086274
0.035787173 -0.098324463 1.008387
0.03749771 -0.097684912 1.0081363
0.039196827 -0.097015619 1.0078757
0.040884048 -0.096316755 1.0076054
0.042558774 -0.09558855 1.0073259
0.044220529 -0.094831258 1.0070375
0.045868821 -0.094045058 1.0067406
0.047503136 -0.093230218 1.0064353
0.049123034 -0.092386961 1.0061222
0.050727915 -0.091515578 1.0058018
0.052317344 -0.090616316 1.0054742
0.053890839 -0.089689463 1.0051399
0.055447966 -0.08873526 1.0047995
0.05698815 -0.087754041 1.0044532
0.058510982 -0.086746097 1.0041014
0.060015991 -0.08571174 1.0037446
0.061502717 -0.084651269 1.0033833
0.06297075 -0.083564982 1.0030178
0.06441956 -0.082453266 1.0026487
0.065848753 -0.081316441 1.0022763
0.067257881 -0.080154836 1.0019011
0.06864652 -0.07896883 1.0015237
0.070014298 -0.077758729 1.0011444
0.0713607 -0.076524973 1.0007638
0.072685376 -0.075267911 1.0003821
0.073987901 -0.073987916 1
0.075267896 -0.072685391 0.99961793
0.076524995 -0.071360685 0.99923629
0.077758744 -0.070014276 0.99885559
0.078968808 -0.06864655 0.99847627
0.080154829 -0.067257904 0.99809885
0.081316426 -0.065848783 0.9977237
0.082453281 -0.064419545 0.99735135
0.083564997 -0.062970735 0.99698222
0.084651247 -0.06150274 0.99661678
0.085711718 -0.060016014 0.9962554
0.086746089 -0.058511011 0.99589866
0.087754048 -0.056988135 0.99554688
0.088735268 -0.055447951 0.99520051
0.089689441 -0.053890865 0.99486005
0.090616308 -0.05231737 0.99452579
0.091515593 -0.050727893 0.9941982
0.092386961 -0.049123012 0.99387771
0.093230203 -0.047503162 0.99356467
0.094045043 -0.045868844 0.99325949
0.094831243 -0.044220559 0.99296248
0.095588565 -0.042558752 0.99267405
0.096316755 -0.040884029 0.99239457
0.097015612 -0.039196856 0.99212438
0.097684912 -0.037497737 0.99186373
0.098324448 -0.035787202 0.99161303
0.098934062 -0.034065716 0.99137253
0.099513516 -0.032333896 0.99114251
0.10006267 -0.030592231 0.99092335
0.10058133 -0.02884125 0.99071521
0.10106936 -0.027081478 0.99051839
0.10152662 -0.025313411 0.99033314
0.10195293 -0.023537686 0.99015963
0.10234818 -0.021754786 0.9899981
0.10271227 -0.019965261 0.98984879
0.10304508 -0.018169655 0.98971188
0.10334648 -0.016368464 0.98958743
0.1036164 -0.014562336 0.98947573
0.10385478 -0.012751772 0.98937678
0.10406151 -0.010937325 0.98929083
0.10423653 -0.009119546 0.98921794
0.10437983 -0.007298938 0.98915815
0.10449131 -0.0054761581 0.98911154
0.10457097 -0.0036517095 0.98907822
0.10461877 -0.0018261487 0.98905826
0.1046347 1.8294914e-08 0.98905158
0.078504071 0 0.99383712
0.07849212 0.0013700849 0.99384087
0.078456253 0.0027397526 0.99385214
0.078396484 0.0041085859 0.99387085
0.078312844 0.005476167 0.99389708
0.07820534 0.0068420805 0.99393076
0.078074023 0.0082059102 0.99397177
0.077918917 0.0095672403 0.99402016
0.077740073 0.010925656 0.99407583
0.077537559 0.012280744 0.99413872
0.077311419 0.01363209 0.99420875
0.077061728 0.014979284 0.99428588
0.076788574 0.016321916 0.99436992
0.076492019 0.017659573 0.99446082
0.076172166 0.018991854 0.99455851
0.075829111 0.02031835 0.99466276
0.075462952 0.021638656 0.99477357
0.075073816 0.022952368 0.99489075
0.074661806 0.024259094 0.99501413
0.074227057 0.025558427 0.99514359
0.073769704 0.026849974 0.99527895
0.073289864 0.028133344 0.9954201
0.07278771 0.029408146 0.99556679
0.072263375 0.030673984 0.9957189
0.071717039 0.031930484 0.99587619
0.07114885 0.033177257 0.99603856
0.070558995 0.034413919 0.99620575
0.069947645 0.035640102 0.99637753
0.069314979 0.036855429 0.99655378
0.068661213 0.038059529 0.99673414
0.067986518 0.039252035 0.99691856
0.067291126 0.040432587 0.99710667
0.066575229 0.041600823 0.99729836
0.065839052 0.042756386 0.99749333
0.065082833 0.043898918 0.99769133
0.064306773 0.045028087 0.99789214
0.063511126 0.046143536 0.99809557
0.062696144 0.047244929 0.99830127
0.061862051 0.048331939 0.99850905
0.061009124 0.049404211 0.99871868
0.060137615 0.050461441 0.9989298
0.059247777 0.051503308 0.99914229
0.05833989 0.052529477 0.99935579
0.057414241 0.053539649 0.99957007
0.056471106 0.054533511 0.99978495
0.055510763 0.055510763 1
0.054533511 0.056471102 1.0002151
0.053539652 0.057414241 1.0004299
0.052529477 0.058339901 1.0006442
0.051503308 0.059247773 1.0008577
0.050461441 0.060137615 1.0010701
0.049404219 0.061009124 1.0012814
0.048331939 0.061862051 1.001491
0.047244929 0.062696144 1.0016987
0.046143539 0.063511118 1.0019045
0.045028087 0.064306773 1.0021079
0.043898918 0.065082826 1.0023086
0.042756386 0.065839052 1.0025066
0.041600823 0.066575229 1.0027016
0.040432587 0.067291126 1.0028933
0.039252035 0.067986518 1.0030814
0.038059525 0.068661213 1.0032659
0.036855433 0.069314979 1.0034462
0.035640106 0.069947645 1.0036224
0.034413919 0.070558995 1.0037943
0.033177253 0.07114885 1.0039614
0.03193048 0.071717039 1.0041238
0.030673988 0.072263375 1.004281
0.029408148 0.07278771 1.0044332
0.028133348 0.073289864 1.0045799
0.026849974 0.073769704 1.004721
0.025558427 0.074227057 1.0048565
0.02425909 0.074661814 1.0049859
0.022952374 0.075073816 1.0051093
0.021638658 0.075462952 1.0052264
0.020318352 0.075829111 1.0053372
0.018991854 0.076172166 1.0054415
0.017659573 0.076492019 1.0055392
0.016321911 0.076788574 1.0056301
0.014979288 0.077061728 1.0057142
0.013632093 0.077311419 1.0057912
0.012280744 0.077537559 1.0058613
0.010925656 0.077740073 1.0059241
0.0095672384 0.077918917 1.0059798
0.0082059074 0.078074023 1.0060282
0.0068420852 0.07820534 1.0060693
0.0054761702 0.078312844 1.0061029
0.0041085873 0.078396484 1.0061291
0.0027397526 0.078456253 1.0061479
0.0013700832 0.07849212 1.0061592
-3.4315222e-09 0.078504071 1.0061629
-0.0013700806 0.07849212 1.0061592
-0.0027397498 0.078456253 1.0061479
-0.0041085845 0.078396484 1.0061291
-0.0054761674 0.078312844 1.0061029
-0.0068420824 0.07820534 1.0060693
-0.0082059139 0.078074023 1.0060282
-0.0095672356 0.077918917 1.0059798
-0.010925652 0.077740073 1.0059241
-0.012280742 0.077537559 1.0058613
-0.01363209 0.077311419 1.0057912
-0.014979285 0.077061728 1.0057142
-0.016321909 0.076788574 1.0056301
-0.017659569 0.076492019 1.0055392
-0.018991852 0.076172166 1.0054415
-0.02031835 0.075829111 1.0053372
-0.021638656 0.075462952 1.0052264
-0.022952374 0.075073816 1.0051093
-0.024259089 0.074661814 1.0049859
-0.025558423 0.074227057 1.0048565
-0.026849974 0.073769704 1.004721
-0.028133344 0.073289864 1.0045799
-0.029408146 0.07278771 1.0044332
-0.030673988 0.072263375 1.004281
-0.031930476 0.071717039 1.0041238
-0.03317726 0.07114885 1.0039614
-0.034413919 0.070558995 1.0037943
-0.035640094 0.069947645 1.0036224
-0.036855429 0.069314979 1.0034462
-0.038059525 0.068661213 1.0032659
-0.039252043 0.067986518 1.0030814
-0.040432584 0.067291126 1.0028933
-0.041600823 0.066575222 1.0027016
-0.042756386 0.065839052 1.0025066
-0.043898918 0.065082833 1.0023086
-0.045028087 0.064306766 1.0021079
-0.046143532 0.063511126 1.0019045
-0.047244936 0.062696137 1.0016987
-0.048331931 0.061862051 1.001491
-0.049404204 0.061009131 1.0012814
-0.050461449 0.060137607 1.0010701
-0.051503301 0.059247777 1.0008577
-0.052529484 0.05833989 1.0006442
-0.053539649 0.057414241 1.0004299
-0.054533504 0.056471106 1.0002151
-0.055510763 0.055510763 1
-0.056471102 0.054533519 0.99978495
-0.057414241 0.053539649 0.99957007
-0.058339894 0.052529477 0.99935579
-0.059247777 0.051503301 0.99914229
-0.060137607 0.050461449 0.9989298
-0.061009113 0.049404223 0.99871868
-0.061862055 0.048331931 0.99850905
-0.062696137 0.047244936 0.99830127
-0.063511126 0.046143532 0.99809557
-0.064306766 0.045028087 0.99789214
-0.065082818 0.043898929 0.99769133
-0.065839052 0.042756379 0.99749333
