# .PCD v0.7 - Point Cloud Data file format
VERSION 0.7
FIELDS x y z rgba
SIZE 4 4 4 4
TYPE F F F U
COUNT 1 1 1 1
WIDTH 1365
HEIGHT 1
VIEWPOINT 0 0 0 1 0 0 0
POINTS 1365
DATA ascii
0.18380088 0 0.21985336 4294967295
0.77839059 0 0.62279129 4294967295
0.073637858 0 0.4614889 4294967295
0.40897804 0 0.4599365 4294967295
0.60182691 0 0.83553255 4294967295
0.56332672 0 0.20223233 4294967295
0.80322671 0 0.67256016 4294967295
0.071322009 0 0.96255112 4294967295
0.47516388 0 0.384509 4294967295
0.3582353 0 0.93085426 4294967295
0.91685092 0 0.10324357 4294967295
0.90089637 0 0.87560433 4294967295
0.19177188 0 0.92140472 4294967295
0.92867768 0 0.08965499 4294967295
0.82092565 0 0.9683947 4294967295
0.5087989 0 0.0047265128 4294967295
0.18824805 0 0.28718945 4294967295
0.62751782 0 0.26188591 4294967295
0.74867839 0 0.036495876 4294967295
0.72182244 0 0.35050526 4294967295
0.87202847 0 0.28514919 4294967295
0.55273759 0 0.67525512 4294967295
0.95770937 0 0.62405962 4294967295
0.63780624 0 0.43287322 4294967295
0.0085686147 0 0.99604154 4294967295
0.36372748 0 0.92541951 4294967295
0.099285118 0 0.26462382 4294967295
0.8010239 0 0.29105699 4294967295
0.18602854 0 0.72970158 4294967295
0.38071197 0 0.006954181 4294967295
0.69809628 0 0.88951087 4294967295
0.011680694 0 0.88634431 4294967295
0.17670034 0 0.63919854 4294967295
0.14823025 0 0.92537868 4294967295
0.67569441 0 0.8700527 4294967295
0.27588397 0 0.54772282 4294967295
0.15520187 0 0.82862157 4294967295
0.22297797 0 0.11291121 4294967295
0.45268115 0 0.86078423 4294967295
0.54578441 0 0.46124977 4294967295
0.85682577 0 0.90951192 4294967295
0.38666928 0 0.95611089 4294967295
0.17413574 0 0.18769316 4294967295
0.24716787 0 0.36016428 4294967295
0.91739476 0 0.62787986 4294967295
0.36711848 0 0.61549103 4294967295
0.51739073 0 0.37879917 4294967295
0.50183535 0 0.69409108 4294967295
0.017997678 0 0.6500656 4294967295
0.61946976 0 0.69369209 4294967295
0.5201183 0 0.89535373 4294967295
0.2414149 0 0.67532015 4294967295
0.7239753 0 0.46439287 4294967295
0.78823137 0 0.17665642 4294967295
0.3251771 0 0.33401579 4294967295
0.63790619 0 0.18200286 4294967295
0.24352768 0 0.024575494 4294967295
0.13811374 0 0.41766343 4294967295
0.21226867 0 0.38528159 4294967295
0.77782774 0 0.12966339 4294967295
0.013161464 0 0.14494619 4294967295
0.74515438 0 0.53055221 4294967295
0.52374536 0 0.24698974 4294967295
0.22464326 0 0.54174304 4294967295
0.89705533 0 0.84411299 4294967295
0.2354351 0 0.41717359 4294967295
0.73946673 0 0.47685 4294967295
0.092493735 0 0.463442 4294967295
0.94124287 0 0.88072509 4294967295
0.64009845 0 0.26641998 4294967295
0.21474086 0 0.27800465 4294967295
0.44842285 0 0.45826855 4294967295
0.30258015 0 0.58653659 4294967295
0.87593198 0 0.51484883 4294967295
0.97181815 0 0.65375972 4294967295
0.64451218 0 0.98497963 4294967295
0.79870588 0 0.38966662 4294967295
0.51553184 0 0.32245123 4294967295
0.63665634 0 0.74017507 4294967295
0.86419427 0 0.53371167 4294967295
0.58428812 0 0.099629343 4294967295
0.9508853 0 0.32375485 4294967295
0.57647938 0 0.043379009 4294967295
0.78719687 0 0.51772225 4294967295
0.92410409 0 0.4272953 4294967295
0.7841422 0 0.13884495 4294967295
0.70529991 0 0.23256506 4294967295
0.59711349 0 0.0078800842 4294967295
0.81910163 0 0.4730455 4294967295
0.52272886 0 0.79091978 4294967295
0.1268052 0 0.1672411 4294967295
0.77589941 0 0.92551106 4294967295
0.55690771 0 0.29143128 4294967295
0.24796231 0 0.19356406 4294967295
0.031606358 0 0.11215656 4294967295
0.72727573 0 0.61589444 4294967295
0.21178591 0 0.67816097 4294967295
0.93964928 0 0.78826523 4294967295
0.72153997 0 0.72684616 4294967295
0.30598748 0 0.64564407 4294967295
0.15414146 0 0.090129703 4294967295
0.78448904 0 0.8594414 4294967295
0.32269475 0 0.38160256 4294967295
0.86732149 0 0.14179638 4294967295
0.85464805 0 0.39005038 4294967295
0.93271619 0 0.98145324 4294967295
0.55729145 0 0.7086156 4294967295
0.90696436 0 0.11419917 4294967295
4.6877656e-05 0 0.15492666 4294967295
0.30776322 0 0.031653233 4294967295
0.26708323 0 0.035038944 4294967295
0.64754772 0 0.47886911 4294967295
0.71319991 0 0.58719701 4294967295
0.26713437 0 0.43473995 4294967295
0.31404316 0 0.57312185 4294967295
0.080384038 0 0.46818462 4294967295
0.66325158 0 0.86487311 4294967295
0.32762602 0 0.9859463 4294967295
0.24647565 0 0.19494751 4294967295
0.12774271 0 0.10112372 4294967295
0.58499789 0 0.060458876 4294967295
0.082576975 0 0.14228934 4294967295
0.7690745 0 0.98954129 4294967295
0.25648853 0 0.76912135 4294967295
0.14446796 0 0.56425172 4294967295
0.80077457 0 0.41155118 4294967295
0.59929067 0 0.4483223 4294967295
0.89042032 0 0.31249061 4294967295
0.035519294 0 0.15755467 4294967295
0.74723059 0 0.34956247 4294967295
0.73067653 0 0.82761461 4294967295
0.81774706 0 0.39392811 4294967295
0.69248772 0 0.14537311 4294967295
0.37987444 0 0.93896335 4294967295
0.34032062 0 0.50761712 4294967295
0.040087067 0 0.92531848 4294967295
0.56807601 0 0.12266404 4294967295
0.067607827 0 0.33715048 4294967295
0.11220535 0 0.32409635 4294967295
0.10627186 0 0.25667331 4294967295
0.8883481 0 0.90704644 4294967295
0.66822451 0 0.48763877 4294967295
0.35536873 0 0.55864477 4294967295
0.80012941 0 0.39088804 4294967295
0.71619946 0 0.54735994 4294967295
0.7404505 0 0.44687602 4294967295
0.37497455 0 0.55819756 4294967295
0.8408041 0 0.067462258 4294967295
0.70357066 0 0.22067854 4294967295
0.0064256033 0 0.043891281 4294967295
0.72829568 0 0.046512671 4294967295
0.96920979 0 0.29637167 4294967295
0.16917671 0 0.036817595 4294967295
0.63352215 0 0.28138205 4294967295
0.36091393 0 0.73979402 4294967295
0.53805536 0 0.24926203 4294967295
0.64684045 0 0.20627986 4294967295
0.73690081 0 0.0022092196 4294967295
0.76492465 0 0.53703022 4294967295
0.39309725 0 0.48112413 4294967295
0.084390171 0 0.13354775 4294967295
0.92800015 0 0.45936474 4294967295
0.69174534 0 0.76880425 4294967295
0.52682698 0 0.395316 4294967295
0.98948282 0 0.5332526 4294967295
0.43920729 0 0.7177785 4294967295
0.57976526 0 0.40841708 4294967295
0.014150155 0 0.74894196 4294967295
0.44523466 0 0.6476723 4294967295
0.030324029 0 0.80614859 4294967295
0.38746634 0 0.5683794 4294967295
0.055410642 0 0.03430682 4294967295
0.77465928 0 0.79231143 4294967295
0.036516041 0 0.53958392 4294967295
0.32934165 0 0.42961329 4294967295
0.020708058 0 0.41373184 4294967295
0.56316108 0 0.94870818 4294967295
0.87309659 0 0.25490642 4294967295
0.71751243 0 0.39992356 4294967295
0.65022242 0 0.70699525 4294967295
0.93317616 0 0.089429721 4294967295
0.42477372 0 0.51294142 4294967295
0.49784678 0 0.4389239 4294967295
0.26188338 0 0.94308144 4294967295
0.086596213 0 0.29220742 4294967295
0.74923003 0 0.47406256 4294967295
0.86058682 0 0.80464071 4294967295
0.50836939 0 0.6352461 4294967295
0.59695214 0 0.5448854 4294967295
0.17483 0 0.92629379 4294967295
0.97449875 0 0.19553807 4294967295
0.34002563 0 0.53765976 4294967295
0.14424627 0 0.2131222 4294967295
0.79256618 0 0.86175871 4294967295
0.61304575 0 0.4427886 4294967295
0.56875396 0 0.54622191 4294967295
0.53221834 0 0.99352771 4294967295
0.059163313 0 0.030065117 4294967295
0.43245161 0 0.32104671 4294967295
0.97314656 0 0.5190478 4294967295
0.61325413 0 0.72237664 4294967295
0.99311036 0 0.47384092 4294967295
0.5270173 0 0.50147974 4294967295
0.109087 0 0.12396947 4294967295
0.046365187 0 0.28391701 4294967295
0.050263274 0 0.020863917 4294967295
0.47945508 0 0.39028892 4294967295
0.55852371 0 0.62370133 4294967295
0.60341114 0 0.35108989 4294967295
0.48546007 0 0.21645686 4294967295
0.7938785 0 0.054214042 4294967295
0.76267874 0 0.32609683 4294967295
0.047741756 0 0.82184207 4294967295
0.35616195 0 0.48019338 4294967295
0.14288878 0 0.32930854 4294967295
0.99924117 0 0.75614291 4294967295
0.051685151 0 0.99235153 4294967295
0.22998381 0 0.57870245 4294967295
0.49383134 0 0.3390708 4294967295
0.70267195 0 0.54019654 4294967295
0.62298781 0 0.75293523 4294967295
0.56106043 0 0.10244289 4294967295
0.14322412 0 0.11958414 4294967295
0.72614425 0 0.74663526 4294967295
0.47067404 0 0.21160428 4294967295
0.96309209 0 0.26455253 4294967295
0.26581833 0 0.72577089 4294967295
0.59064937 0 0.3135601 4294967295
0.54761297 0 0.94681138 4294967295
0.79375345 0 0.69050175 4294967295
0.27611989 0 0.79299462 4294967295
0.44664463 0 0.32780504 4294967295
0.78534621 0 0.67662841 4294967295
0.90650749 0 0.27917752 4294967295
0.015699239 0 0.60917944 4294967295
0.81937402 0 0.63868707 4294967295
0.36211467 0 0.38043445 4294967295
0.74112993 0 0.50533879 4294967295
0.5000186 0 0.46727416 4294967295
0.25197405 0 0.97069263 4294967295
0.67887843 0 0.21506613 4294967295
0.23524518 0 0.94469678 4294967295
0.94083703 0 0.82589459 4294967295
0.25825688 0 0.48844996 4294967295
0.77270591 0 0.05201032 4294967295
0.17895171 0 0.048825812 4294967295
0.84500498 0 0.62559634 4294967295
0.37663084 0 0.63035113 4294967295
0.30222479 0 0.28313836 4294967295
0.90952867 0 0.31792402 4294967295
0.89231783 0 0.7289027 4294967295
0.9566111 0 0.25443247 4294967295
0.10933715 0 0.69774103 4294967295
0.75977129 0 0.60935575 4294967295
0.16501518 0 0.011745296 4294967295
0.58004838 0 0.84389365 4294967295
0.22681144 0 0.81529355 4294967295
0.78859043 0 0.16764845 4294967295
0.64118814 0 0.046847288 4294967295
0.65609843 0 0.41389409 4294967295
0.098857611 0 0.83505011 4294967295
0.46271989 0 0.94386256 4294967295
0.46064648 0 0.83935076 4294967295
0.57421368 0 0.76287127 4294967295
0.12248909 0 0.48374236 4294967295
0.080795266 0 0.014806895 4294967295
0.21264507 0 0.037406337 4294967295
0.26923937 0 0.3219822 4294967295
0.73514736 0 0.029010629 4294967295
0.93133795 0 0.90016252 4294967295
0.040755928 0 0.51138633 4294967295
0.74405617 0 0.26756737 4294967295
0.32667992 0 0.5326466 4294967295
0.4352158 0 0.96786809 4294967295
0.57949388 0 0.091314226 4294967295
0.38176215 0 0.67835146 4294967295
0.92636436 0 0.84448206 4294967295
0.62221402 0 0.38701084 4294967295
0.68383276 0 0.19642775 4294967295
0.14988209 0 0.80632186 4294967295
0.68017012 0 0.23067737 4294967295
0.82112879 0 0.89281517 4294967295
0.26808369 0 0.090368137 4294967295
0.21479739 0 0.0032310467 4294967295
0.11937876 0 0.14613536 4294967295
0.90339357 0 0.16013469 4294967295
0.65752172 0 0.64744973 4294967295
0.42770204 0 0.98420167 4294967295
0.1800963 0 0.86291784 4294967295
0.9520697 0 0.75959015 4294967295
0.9542321 0 0.33383188 4294967295
0.43794164 0 0.88059646 4294967295
0.17831393 0 0.060155675 4294967295
0.2676073 0 0.86214668 4294967295
0.25658342 0 0.41748938 4294967295
0.66846859 0 0.93675351 4294967295
0.64816678 0 0.48959735 4294967295
0.82956868 0 0.91625047 4294967295
0.57996547 0 0.044366084 4294967295
0.91948152 0 0.69934422 4294967295
0.19050145 0 0.82287508 4294967295
0.85947895 0 0.84802318 4294967295
0.47032478 0 0.28718099 4294967295
0.83222479 0 0.65042108 4294967295
0.15009885 0 0.78429455 4294967295
0.41001126 0 0.10433093 4294967295
0.11812641 0 0.8479529 4294967295
0.98492742 0 0.29644033 4294967295
0.90810859 0 0.25253469 4294967295
0.15858704 0 0.164692 4294967295
0.6700241 0 0.82705563 4294967295
0.10144553 0 0.31819081 4294967295
0.31665295 0 0.93101424 4294967295
0.23444127 0 0.89661843 4294967295
0.9753803 0 0.15392277 4294967295
0.5959627 0 0.16588177 4294967295
0.97679782 0 0.45544162 4294967295
0.013904924 0 0.44712263 4294967295
0.74262261 0 0.84612972 4294967295
0.097543731 0 0.89272141 4294967295
0.63042426 0 0.50755501 4294967295
0.99705237 0 0.74855065 4294967295
0.35550791 0 0.98197979 4294967295
0.044991009 0 0.2636165 4294967295
0.23451445 0 0.20357805 4294967295
0.42830852 0 0.90453851 4294967295
0.030633664 0 0.52975404 4294967295
0.22272934 0 0.34728661 4294967295
0.46076828 0 0.45717061 4294967295
0.24390507 0 0.43614858 4294967295
0.6110934 0 0.83986777 4294967295
0.60203034 0 0.58789122 4294967295
0.29530936 0 0.61593527 4294967295
0.035013843 0 0.037931956 4294967295
0.46206501 0 0.13255757 4294967295
0.93065339 0 0.092489272 4294967295
0.64011258 0 0.92770576 4294967295
0.84103996 0 0.99562049 4294967295
0.90968555 0 0.88603097 4294967295
0.25923699 0 0.1442 4294967295
0.089609005 0 0.68754548 4294967295
0.048738517 0 0.12024267 4294967295
0.21729955 0 0.27146786 4294967295
0.4675293 0 0.6780678 4294967295
0.72863847 0 0.71143436 4294967295
0.11421642 0 0.33973187 4294967295
0.55130213 0 0.71624678 4294967295
0.92762309 0 0.8466115 4294967295
0.33218205 0 0.96263689 4294967295
0.88454342 0 0.79424703 4294967295
0.095194489 0 0.81519681 4294967295
0.88673633 0 0.73530704 4294967295
0.74290258 0 0.72777629 4294967295
0.73092753 0 0.65258813 4294967295
0.61380726 0 0.99016452 4294967295
0.79678816 0 0.70341623 4294967295
0.67771006 0 0.84552664 4294967295
0.82365894 0 0.89500958 4294967295
0.11699452 0 0.29118821 4294967295
0.57307744 0 0.84563303 4294967295
0.0026225774 0 0.68729383 4294967295
0.18536486 0 0.55392468 4294967295
0.40354061 0 0.11298794 4294967295
0.40053615 0 0.73572266 4294967295
0.075624853 0 0.2850796 4294967295
0.52996969 0 0.17081934 4294967295
0.10027642 0 0.41670603 4294967295
0.90612638 0 0.84317905 4294967295
0.14448231 0 0.63705397 4294967295
0.49576718 0 0.75828958 4294967295
0.62721848 0 0.2925553 4294967295
0.4617058 0 0.30492857 4294967295
0.13808197 0 0.28536472 4294967295
0.19993816 0 0.2550765 4294967295
0.57655293 0 0.77301556 4294967295
0.1007095 0 0.57917553 4294967295
0.46030942 0 0.28607437 4294967295
0.1331002 0 0.86385 4294967295
0.39906231 0 0.53363633 4294967295
0.59957266 0 0.47468716 4294967295
0.81871593 0 0.12954238 4294967295
0.6455065 0 0.9189924 4294967295
0.54624844 0 0.55163288 4294967295
0.76217139 0 0.69073075 4294967295
0.18868686 0 0.25793856 4294967295
0.4490203 0 0.81590533 4294967295
0.5504939 0 0.91072613 4294967295
0.12083392 0 0.68857586 4294967295
0.19609082 0 0.32077208 4294967295
0.94365233 0 0.77264374 4294967295
0.093787655 0 0.044361852 4294967295
0.35181928 0 0.55409706 4294967295
0.33043623 0 0.48491946 4294967295
0.41794711 0 0.72949851 4294967295
0.018555829 0 0.017519783 4294967295
0.20418566 0 0.83727181 4294967295
0.14706217 0 0.84969217 4294967295
0.75626415 0 0.69331062 4294967295
0.40132505 0 0.51843554 4294967295
0.38404134 0 0.59001189 4294967295
0.7763741 0 0.83306164 4294967295
0.40591726 0 0.326868 4294967295
0.74378777 0 0.52675116 4294967295
0.015443869 0 0.93987858 4294967295
0.84752327 0 0.95909625 4294967295
0.71252233 0 0.94131094 4294967295
0.0034580794 0 0.064341582 4294967295
0.495408 0 0.33389428 4294967295
0.54926103 0 0.91335511 4294967295
0.063392811 0 0.56781685 4294967295
0.93087488 0 0.26757848 4294967295
0.40508866 0 0.077937052 4294967295
0.11727063 0 0.16135281 4294967295
0.77124763 0 0.5185957 4294967295
0.67978835 0 0.15528898 4294967295
0.10860759 0 0.45616248 4294967295
0.98835063 0 0.51452488 4294967295
0.78303051 0 0.73213834 4294967295
0.041276045 0 0.79847437 4294967295
0.67201692 0 0.88879931 4294967295
0.75757056 0 0.38453922 4294967295
0.83011025 0 0.76102865 4294967295
0.44888079 0 0.32551822 4294967295
0.094922967 0 0.99814188 4294967295
0.23887332 0 0.15831578 4294967295
0.56595874 0 0.1697482 4294967295
0.42589426 0 0.9710474 4294967295
0.24768525 0 0.54316485 4294967295
0.13240021 0 0.018932901 4294967295
0.061760552 0 0.81218857 4294967295
0.17422189 0 0.17036815 4294967295
0.26835108 0 0.1625725 4294967295
0.68489301 0 0.051381573 4294967295
0.89471084 0 0.72616905 4294967295
0.84985596 0 0.56672776 4294967295
0.61496836 0 0.60742652 4294967295
0.951267 0 0.44507858 4294967295
0.3684552 0 0.4001478 4294967295
0.7705968 0 0.46337816 4294967295
0.39828965 0 0.0094701331 4294967295
0.62169397 0 0.96424842 4294967295
0.17921834 0 0.047588196 4294967295
0.93529582 0 0.42690361 4294967295
0.59075308 0 0.06769602 4294967295
0.44583648 0 0.65251362 4294967295
0.8798846 0 0.62005836 4294967295
0.82288176 0 0.14823568 4294967295
0.78263086 0 0.50777477 4294967295
0.19961725 0 0.6773417 4294967295
0.23394382 0 0.049473193 4294967295
0.24406949 0 0.84891218 4294967295
0.65689975 0 0.19533648 4294967295
0.29399076 0 0.025354931 4294967295
0.59548426 0 0.064587571 4294967295
0.48873311 0 0.99377394 4294967295
0.074057706 0 0.11042705 4294967295
0.9580223 0 0.25327605 4294967295
0.15801525 0 0.89331812 4294967295
0.68017966 0 0.74876833 4294967295
0.96101409 0 0.12601613 4294967295
0.40128195 0 0.84089875 4294967295
0.7460745 0 0.22416371 4294967295
0.98913443 0 0.52870536 4294967295
0.73193848 0 0.18875165 4294967295
0.2060471 0 0.9658823 4294967295
0.23822485 0 0.4501166 4294967295
0.81479448 0 0.89512455 4294967295
0.64545304 0 0.10878523 4294967295
0.92047948 0 0.24093734 4294967295
0.17337281 0 0.40921262 4294967295
0.23471124 0 0.2474305 4294967295
0.51963967 0 0.19273356 4294967295
0.50070655 0 0.67765492 4294967295
0.086051658 0 0.18088618 4294967295
0.42642322 0 0.047065783 4294967295
0.30690232 0 0.82770514 4294967295
0.88796449 0 0.052976813 4294967295
0.051868878 0 0.87709892 4294967295
0.58168221 0 0.78380734 4294967295
0.065850563 0 0.78772926 4294967295
0.74968964 0 0.30407542 4294967295
0.23784588 0 0.56448412 4294967295
0.19919997 0 0.88329893 4294967295
0.67326939 0 0.11967947 4294967295
0.12423627 0 0.8466422 4294967295
0.5288921 0 0.35894752 4294967295
0.094072677 0 0.048531741 4294967295
0.5516811 0 0.59477925 4294967295
0.72618663 0 0.63773274 4294967295
0.7756654 0 0.15260987 4294967295
0.68479854 0 0.082567729 4294967295
0.98031503 0 0.57276303 4294967295
0.13554454 0 0.032183923 4294967295
0.44986194 0 0.71722674 4294967295
0.81599128 0 0.5157125 4294967295
0.50495601 0 0.56568092 4294967295
0.81978792 0 0.7428019 4294967295
0.13016507 0 0.018987888 4294967295
0.62610084 0 0.80343443 4294967295
0.13866736 0 0.75033712 4294967295
0.65007657 0 0.66755944 4294967295
0.10928464 0 0.74414927 4294967295
0.71609122 0 0.66096574 4294967295
0.33892852 0 0.44227785 4294967295
0.29869846 0 0.11459392 4294967295
0.59488773 0 0.98349696 4294967295
0.19716166 0 0.57520276 4294967295
0.55625999 0 0.33270621 4294967295
0.60738665 0 0.0061219512 4294967295
0.049932931 0 0.42337796 4294967295
0.52183443 0 0.55488896 4294967295
0.98905891 0 0.34162235 4294967295
0.29769084 0 0.11922396 4294967295
0.36061025 0 0.92379171 4294967295
0.92265838 0 0.49927762 4294967295
0.67412883 0 0.57273501 4294967295
0.16683707 0 0.78341347 4294967295
0.31688425 0 0.88292825 4294967295
0.44437915 0 0.65581274 4294967295
0.3252061 0 0.74307764 4294967295
0.77040672 0 0.92009377 4294967295
0.7265746 0 0.96756834 4294967295
0.49529654 0 0.28283462 4294967295
0.30027455 0 0.10268322 4294967295
0.28895655 0 0.35020748 4294967295
0.52606118 0 0.81079102 4294967295
0.90509641 0 0.51512009 4294967295
0.15241338 0 0.20278728 4294967295
0.63434404 0 0.51302361 4294967295
0.12657897 0 0.55700243 4294967295
0.012301262 0 0.80070776 4294967295
0.12973741 0 0.17913833 4294967295
0.58412123 0 0.44662166 4294967295
0.062066585 0 0.028500382 4294967295
0.10243443 0 0.38727269 4294967295
0.77157801 0 0.87284112 4294967295
0.30736646 0 0.49815261 4294967295
0.84040946 0 0.80266303 4294967295
0.7809872 0 0.14068402 4294967295
0.90534621 0 0.069943771 4294967295
0.49089149 0 0.43140742 4294967295
0.8807348 0 0.39598793 4294967295
0.94652748 0 0.033148173 4294967295
0.59877521 0 0.58087152 4294967295
0.54617178 0 0.72535419 4294967295
0.13787393 0 0.55847305 4294967295
0.52606195 0 0.26761132 4294967295
0.73761141 0 0.11018317 4294967295
0.71423298 0 0.79967797 4294967295
0.13868356 0 0.81666744 4294967295
0.18695067 0 0.91026157 4294967295
0.68950856 0 0.49431714 4294967295
0.40841416 0 0.52991802 4294967295
0.29698014 0 0.18940136 4294967295
0.67060202 0 0.2023264 4294967295
0.25934514 0 0.16149352 4294967295
0.63373381 0 0.14007993 4294967295
0.55748147 0 0.58026129 4294967295
0.1732281 0 0.15625666 4294967295
0.16113281 0 0.71939993 4294967295
0.88161081 0 0.29900676 4294967295
0.27787298 0 0.40767279 4294967295
0.56661808 0 0.015484393 4294967295
0.51785594 0 0.28085107 4294967295
0.81516236 0 0.6565395 4294967295
0.097518496 0 0.002113048 4294967295
0.56680107 0 0.78702706 4294967295
0.49643019 0 0.9752152 4294967295
0.31694505 0 0.79341036 4294967295
0.16461658 0 0.9875471 4294967295
0.99573672 0 0.42396173 4294967295
0.14904059 0 0.62947053 4294967295
0.56404167 0 0.70652205 4294967295
0.20973186 0 0.73726976 4294967295
0.86277872 0 0.37086469 4294967295
0.45666966 0 0.74438953 4294967295
0.66987145 0 0.73454267 4294967295
0.15206234 0 0.23648952 4294967295
0.75002706 0 0.6699183 4294967295
0.5173406 0 0.56518942 4294967295
0.3264578 0 0.6148591 4294967295
0.56730247 0 0.89325887 4294967295
0.40188611 0 0.063732654 4294967295
0.86847407 0 0.71883118 4294967295
0.85714298 0 0.033090658 4294967295
0.70637822 0 0.85287976 4294967295
0.45705238 0 0.8554188 4294967295
0.48235029 0 0.021094022 4294967295
0.56194091 0 0.69208217 4294967295
0.75836378 0 0.4247196 4294967295
0.062946834 0 0.21503343 4294967295
0.16910917 0 0.73281825 4294967295
0.94957608 0 0.32117149 4294967295
0.96930778 0 0.69960314 4294967295
0.99108982 0 0.48664838 4294967295
0.26479253 0 0.31754762 4294967295
0.10150745 0 0.83209503 4294967295
0.21080647 0 0.50339359 4294967295
0.89582765 0 0.079280548 4294967295
0.22222473 0 0.7529707 4294967295
0.11237121 0 0.92860293 4294967295
0.6058504 0 0.56942356 4294967295
0.78402179 0 0.088200703 4294967295
0.59051758 0 0.34596267 4294967295
0.78028286 0 0.34888136 4294967295
0.77068228 0 0.84322971 4294967295
0.56391478 0 0.93979144 4294967295
0.57604796 0 0.51349086 4294967295
0.26096293 0 0.54535574 4294967295
0.213094 0 0.25205272 4294967295
0.032004088 0 0.47788653 4294967295
0.56960034 0 0.13351154 4294967295
0.30998155 0 0.78040683 4294967295
0.63690507 0 0.20580922 4294967295
0.85968739 0 0.85912985 4294967295
0.95877987 0 0.97205859 4294967295
0.78773278 0 0.56463027 4294967295
0.54148215 0 0.57175457 4294967295
0.65283102 0 0.13199976 4294967295
0.91771722 0 0.43311384 4294967295
0.48088112 0 0.68839949 4294967295
0.27634352 0 0.04479593 4294967295
0.62819093 0 0.85239148 4294967295
0.55828679 0 0.88915384 4294967295
0.39774719 0 0.77138078 4294967295
0.14120659 0 0.42975128 4294967295
0.24926732 0 0.71080697 4294967295
0.56326282 0 0.55924886 4294967295
0.49121377 0 0.20016792 4294967295
0.7650581 0 0.35090113 4294967295
0.059297748 0 0.72383797 4294967295
0.32295969 0 0.84703052 4294967295
0.28846827 0 0.86444187 4294967295
0.41878507 0 0.94129926 4294967295
0.9964416 0 0.33650228 4294967295
0.3744131 0 0.47732273 4294967295
0.024901785 0 0.6507566 4294967295
0.52211869 0 0.65309268 4294967295
0.50314808 0 0.080405474 4294967295
0.54224658 0 0.9008953 4294967295
0.85178626 0 0.68345314 4294967295
0.33064657 0 0.1010536 4294967295
0.39426011 0 0.89390939 4294967295
0.66030246 0 0.88547385 4294967295
0.094077319 0 0.42536056 4294967295
0.23637499 0 0.15337506 4294967295
0.14919853 0 0.5593347 4294967295
0.00040559098 0 0.43766677 4294967295
0.42377651 0 0.41919068 4294967295
0.37896603 0 0.42021814 4294967295
0.75569296 0 0.75337917 4294967295
0.89754087 0 0.78059477 4294967295
0.40413576 0 0.41965953 4294967295
0.43368745 0 0.90728384 4294967295
0.50006503 0 0.97593403 4294967295
0.80817914 0 0.35185128 4294967295
0.65938717 0 0.13882573 4294967295
0.45290488 0 0.05364728 4294967295
0.032735117 0 0.11320734 4294967295
0.93912113 0 0.12681243 4294967295
0.5385679 0 0.17549613 4294967295
0.28018749 0 0.68776643 4294967295
0.7348308 0 0.2805931 4294967295
0.12543321 0 0.15860732 4294967295
0.69978374 0 0.50439924 4294967295
0.57882547 0 0.45547673 4294967295
0.25777841 0 0.47636631 4294967295
0.23607148 0 0.66191417 4294967295
0.89602584 0 0.66975892 4294967295
0.56919801 0 0.39609084 4294967295
0.64569294 0 0.37737718 4294967295
0.74794215 0 0.30508012 4294967295
0.51620293 0 0.200847 4294967295
0.3587274 0 0.54893804 4294967295
0.31405434 0 0.29784855 4294967295
0.67575043 0 0.85262221 4294967295
0.47334468 0 0.95593798 4294967295
0.54038864 0 0.20817548 4294967295
0.23653105 0 0.66582185 4294967295
0.36678278 0 0.93631482 4294967295
0.17022111 0 0.94560826 4294967295
0.39179152 0 0.4279995 4294967295
0.42197457 0 0.62786299 4294967295
0.089913659 0 0.31800041 4294967295
0.29762194 0 0.65911168 4294967295
0.71409124 0 0.94331491 4294967295
0.036488853 0 0.46203336 4294967295
0.24839503 0 0.55269176 4294967295
0.66288036 0 0.60712242 4294967295
0.10162976 0 0.97693473 4294967295
0.904971 0 0.77738023 4294967295
0.82955694 0 0.37831566 4294967295
0.73331815 0 0.36994559 4294967295
0.58649117 0 0.96984923 4294967295
0.035767451 0 0.95327395 4294967295
0.90616405 0 0.20598856 4294967295
0.89888215 0 0.29795554 4294967295
0.63398808 0 0.32085672 4294967295
0.92581856 0 0.72390169 4294967295
0.63885713 0 0.22344051 4294967295
0.3830134 0 0.35294837 4294967295
0.16675541 0 0.41950226 4294967295
0.81498176 0 0.41515043 4294967295
0.97219402 0 0.47786212 4294967295
0.022272879 0 0.073823765 4294967295
0.45479685 0 0.92724389 4294967295
0.85120398 0 0.28435379 4294967295
0.30555952 0 0.58452213 4294967295
0.65429938 0 0.89205068 4294967295
0.55437136 0 0.69006681 4294967295
0.84532458 0 0.46053538 4294967295
0.8960554 0 0.74420679 4294967295
0.75849092 0 0.53004342 4294967295
0.065063514 0 0.68430948 4294967295
0.25394514 0 0.70392066 4294967295
0.90775001 0 0.63695854 4294967295
0.05686903 0 0.074505441 4294967295
0.056460787 0 0.87185079 4294967295
0.48965588 0 0.028654784 4294967295
0.34971291 0 0.51192874 4294967295
0.10247855 0 0.80450976 4294967295
0.43917263 0 0.95368254 4294967295
0.088863552 0 0.74473214 4294967295
0.53820467 0 0.74316293 4294967295
0.63678282 0 0.092576049 4294967295
0.43322977 0 0.48210743 4294967295
0.55311143 0 0.32928514 4294967295
0.22631422 0 0.31160238 4294967295
0.85932857 0 0.29137772 4294967295
0.9959119 0 0.11327373 4294967295
0.99529839 0 0.90366191 4294967295
0.75023228 0 0.052167408 4294967295
0.97816736 0 0.80669308 4294967295
0.9240182 0 0.46782324 4294967295
0.83534783 0 0.27373111 4294967295
0.979752 0 0.9378264 4294967295
0.078240886 0 0.41892463 4294967295
0.89150894 0 0.16710444 4294967295
0.16365677 0 0.42971361 4294967295
0.91026735 0 0.8004396 4294967295
0.52228963 0 0.34349713 4294967295
0.28254703 0 0.075401083 4294967295
0.67278224 0 0.50886124 4294967295
0.38700345 0 0.53211087 4294967295
0.80023897 0 0.38291535 4294967295
0.64538461 0 0.79553735 4294967295
0.28657725 0 0.39561686 4294967295
0.84770477 0 0.26474461 4294967295
0.20230992 0 0.77172297 4294967295
0.73256785 0 0.037657771 4294967295
0.045454077 0 0.71231985 4294967295
0.97548419 0 0.12369496 4294967295
0.13124444 0 0.86699307 4294967295
0.29079941 0 0.29490122 4294967295
0.29670671 0 0.20106676 4294967295
0.095340818 0 0.81899637 4294967295
0.54456389 0 0.37788785 4294967295
0.89439744 0 0.21734616 4294967295
0.88674909 0 0.28140089 4294967295
0.749457 0 0.68698806 4294967295
0.66431624 0 0.39484161 4294967295
0.48252544 0 0.95089346 4294967295
0.79045844 0 0.33023018 4294967295
0.21563809 0 0.99276841 4294967295
0.10195314 0 0.94820595 4294967295
0.03042616 0 0.14740722 4294967295
0.66052574 0 0.0059103272 4294967295
0.27110219 0 0.79177016 4294967295
0.87290341 0 0.56190157 4294967295
0.086671397 0 0.16961011 4294967295
0.76296836 0 0.18201222 4294967295
0.98860645 0 0.30753222 4294967295
0.55990005 0 0.88300389 4294967295
0.52487838 0 0.44664916 4294967295
0.16440479 0 0.27433538 4294967295
0.13363725 0 0.82872105 4294967295
0.669177 0 0.61616266 4294967295
0.77961451 0 0.45963547 4294967295
0.94639283 0 0.99525261 4294967295
0.45240384 0 0.048346005 4294967295
0.94345856 0 0.48282999 4294967295
0.19575323 0 0.6039843 4294967295
0.48874032 0 0.46685541 4294967295
0.39575446 0 0.36164373 4294967295
0.028756982 0 0.48242587 4294967295
0.53125387 0 0.79172534 4294967295
0.66443807 0 0.51986033 4294967295
0.099257544 0 0.22433814 4294967295
0.40286425 0 0.62413591 4294967295
0.67098731 0 0.56726903 4294967295
0.8984713 0 0.80462456 4294967295
0.39599007 0 0.56764829 4294967295
0.42078725 0 0.1756046 4294967295
0.027283765 0 0.36718011 4294967295
0.17085721 0 0.4796876 4294967295
0.41552612 0 0.11431574 4294967295
0.96251762 0 0.61127931 4294967295
0.71830004 0 0.45125794 4294967295
0.078134738 0 0.11405448 4294967295
0.81290168 0 0.10689172 4294967295
0.59648031 0 0.34415555 4294967295
0.89861703 0 0.26091841 4294967295
0.86401588 0 0.99787456 4294967295
0.48525655 0 0.26688012 4294967295
0.62201053 0 0.15624389 4294967295
0.83414918 0 0.52048182 4294967295
0.96086848 0 0.23013923 4294967295
0.088130146 0 0.38165569 4294967295
0.40574384 0 0.11541391 4294967295
0.7488358 0 0.57660103 4294967295
0.59510154 0 0.16436191 4294967295
0.69091678 0 0.55761909 4294967295
0.77564126 0 0.40921679 4294967295
0.0088770539 0 0.85377598 4294967295
0.52327126 0 0.82177871 4294967295
0.96066773 0 0.11975161 4294967295
0.16593428 0 0.85928476 4294967295
0.38067001 0 0.029950149 4294967295
0.85715932 0 0.86592656 4294967295
0.29683027 0 0.47916985 4294967295
0.022170469 0 0.13097942 4294967295
0.99965167 0 0.9830389 4294967295
0.36111864 0 0.087781839 4294967295
0.36469463 0 0.76686251 4294967295
0.20319575 0 0.11353043 4294967295
0.34346354 0 0.79829729 4294967295
0.27789235 0 0.034380313 4294967295
0.35591638 0 0.053533588 4294967295
0.44359711 0 0.36479345 4294967295
0.90730959 0 0.9668684 4294967295
0.18657218 0 0.86797726 4294967295
0.086620003 0 0.35250646 4294967295
0.72726202 0 0.46729001 4294967295
0.3824566 0 0.5844214 4294967295
0.33321661 0 0.6792869 4294967295
0.063591242 0 0.35538709 4294967295
0.81026632 0 0.063242927 4294967295
0.33842599 0 0.17138496 4294967295
0.15102477 0 0.70312065 4294967295
0.93824744 0 0.35422051 4294967295
0.81665105 0 0.28171098 4294967295
0.1525178 0 0.09454339 4294967295
0.3160913 0 0.50843418 4294967295
0.14807698 0 0.75968838 4294967295
0.87322766 0 0.055386558 4294967295
0.72655678 0 0.059799813 4294967295
0.92336386 0 0.81317681 4294967295
0.41230625 0 0.65062588 4294967295
0.28046682 0 0.79476285 4294967295
0.23504728 0 0.6136834 4294967295
0.47404975 0 0.29863852 4294967295
0.96907049 0 0.28431603 4294967295
0.36188143 0 0.30749649 4294967295
0.45570099 0 0.51290619 4294967295
0.010617122 0 0.39394844 4294967295
0.86712676 0 0.82726818 4294967295
0.67565942 0 0.019644529 4294967295
0.92181158 0 0.99175072 4294967295
0.52807873 0 0.069888547 4294967295
0.75143909 0 0.40130636 4294967295
0.12527511 0 0.47799587 4294967295
0.46110615 0 0.048638951 4294967295
0.29117268 0 0.87341243 4294967295
0.69926482 0 0.57163948 4294967295
0.66817528 0 0.93431211 4294967295
0.18532291 0 0.14222503 4294967295
0.23295064 0 0.1543934 4294967295
0.42654106 0 0.59483206 4294967295
0.46188989 0 0.88224202 4294967295
0.10773831 0 0.47250703 4294967295
0.27619046 0 0.97486502 4294967295
0.29977518 0 0.95184988 4294967295
0.99450958 0 0.22158676 4294967295
0.94360059 0 0.52258831 4294967295
0.2914753 0 0.69503969 4294967295
0.92389464 0 0.4167504 4294967295
0.17303555 0 0.3850008 4294967295
0.46538937 0 0.46420822 4294967295
0.25841323 0 0.1646542 4294967295
0.035847697 0 0.92658848 4294967295
0.098966323 0 0.2211706 4294967295
0.068813525 0 0.33191696 4294967295
0.37556401 0 0.49535459 4294967295
0.92674905 0 0.8374539 4294967295
0.37759662 0 0.034487363 4294967295
0.30996093 0 0.65378708 4294967295
0.0093524102 0 0.60973614 4294967295
0.60563695 0 0.003861987 4294967295
0.83132285 0 0.54923755 4294967295
0.52645028 0 0.12279817 4294967295
0.24427721 0 0.45034492 4294967295
0.53954858 0 0.41731277 4294967295
0.83534569 0 0.004937937 4294967295
0.88152099 0 0.093758926 4294967295
0.16959214 0 0.91736865 4294967295
0.020347431 0 0.26855847 4294967295
0.13853927 0 0.089160964 4294967295
0.60047543 0 0.51410329 4294967295
0.58451557 0 0.52722448 4294967295
0.35155717 0 0.96211219 4294967295
0.56171185 0 0.6615181 4294967295
0.61589926 0 0.57106423 4294967295
0.27125421 0 0.22153625 4294967295
0.57492626 0 0.10257709 4294967295
0.77077383 0 0.10137652 4294967295
0.22537526 0 0.015051022 4294967295
0.55172145 0 0.76492387 4294967295
0.43236378 0 0.38706714 4294967295
0.76986176 0 0.31388476 4294967295
0.48082608 0 0.9394539 4294967295
0.23125343 0 0.5011735 4294967295
0.20801237 0 0.3697927 4294967295
0.59033448 0 0.80848783 4294967295
0.88389599 0 0.17485 4294967295
0.33571228 0 0.23545316 4294967295
0.13696218 0 0.8974241 4294967295
0.89697129 0 0.75286144 4294967295
0.46848837 0 0.16822547 4294967295
0.97439772 0 0.043414615 4294967295
0.27080256 0 0.74517155 4294967295
0.14479113 0 0.49617782 4294967295
0.76022255 0 0.69651258 4294967295
0.26110166 0 0.19258633 4294967295
0.083579704 0 0.030963451 4294967295
0.5064711 0 0.5644058 4294967295
0.97041738 0 0.73772448 4294967295
0.06557928 0 0.17842975 4294967295
0.10751722 0 0.65591377 4294967295
0.98691756 0 0.99141318 4294967295
0.83076376 0 0.32262984 4294967295
0.22686636 0 0.96772593 4294967295
0.22005396 0 0.12383761 4294967295
0.72058737 0 0.68854231 4294967295
0.29206309 0 0.69498509 4294967295
0.73195696 0 0.56286567 4294967295
0.44015664 0 0.87674809 4294967295
0.059043474 0 0.20037916 4294967295
0.57326066 0 0.32014513 4294967295
0.3929655 0 0.65684032 4294967295
0.35110858 0 0.89943659 4294967295
0.22124612 0 0.32152596 4294967295
0.63716108 0 0.28682539 4294967295
0.49995571 0 0.74467832 4294967295
0.94273913 0 0.48687327 4294967295
0.73609149 0 0.77350289 4294967295
0.80950308 0 0.96295786 4294967295
0.74122882 0 0.029557053 4294967295
0.086795479 0 0.46181622 4294967295
0.71809936 0 0.37885857 4294967295
0.15680133 0 0.45005634 4294967295
0.94172424 0 0.59695792 4294967295
0.3268044 0 0.00076769339 4294967295
0.79733711 0 0.90006506 4294967295
0.32091284 0 0.19030261 4294967295
0.55690539 0 0.67202145 4294967295
0.089739196 0 0.77815151 4294967295
0.99354738 0 0.72690028 4294967295
0.064976923 0 0.49350309 4294967295
0.4715786 0 0.0077160653 4294967295
0.98037636 0 0.20767011 4294967295
0.78121895 0 0.78987944 4294967295
0.17062797 0 0.52244776 4294967295
0.81943649 0 0.25742346 4294967295
0.98426402 0 0.53753591 4294967295
0.63628203 0 0.14106533 4294967295
0.98759222 0 0.57800627 4294967295
0.73802328 0 0.31439662 4294967295
0.57877392 0 0.5353604 4294967295
0.21446168 0 0.89968675 4294967295
0.72566301 0 0.77136707 4294967295
0.5717082 0 0.81540221 4294967295
0.54951859 0 0.56525558 4294967295
0.54230249 0 0.61449552 4294967295
0.058758691 0 0.013881108 4294967295
0.62221158 0 0.03913505 4294967295
0.22155121 0 0.40343055 4294967295
0.82901448 0 0.39217919 4294967295
0.92587835 0 0.64845103 4294967295
0.64960265 0 0.91014236 4294967295
0.18598691 0 0.28588468 4294967295
0.05120768 0 0.17357914 4294967295
0.86389089 0 0.78923094 4294967295
0.48797578 0 0.44266486 4294967295
0.32459137 0 0.70243746 4294967295
0.34235162 0 0.050254393 4294967295
0.47380453 0 0.91405982 4294967295
0.86565661 0 0.023323126 4294967295
0.47931543 0 0.40795913 4294967295
0.63781863 0 0.53807414 4294967295
0.42184022 0 0.26003021 4294967295
0.57720917 0 0.64339143 4294967295
0.66346079 0 0.40622368 4294967295
0.035570633 0 0.58933908 4294967295
0.054674689 0 0.68517327 4294967295
0.49948144 0 0.24066161 4294967295
0.97105795 0 0.5506891 4294967295
0.41424075 0 0.83494884 4294967295
0.3399201 0 0.90221649 4294967295
0.2776137 0 0.66451144 4294967295
0.60465395 0 0.61996531 4294967295
0.71476585 0 0.078458488 4294967295
0.53402519 0 0.58042246 4294967295
0.10178161 0 0.013340603 4294967295
0.98838156 0 0.73960024 4294967295
0.55141473 0 0.41022182 4294967295
0.99963051 0 0.12862389 4294967295
0.053613264 0 0.66309124 4294967295
0.53484756 0 0.089183897 4294967295
0.25243035 0 0.58952224 4294967295
0.7743572 0 0.75191182 4294967295
0.83018386 0 0.74541509 4294967295
0.30260092 0 0.24442458 4294967295
0.58036399 0 0.64252102 4294967295
0.14664109 0 0.85797769 4294967295
0.30703247 0 0.75129503 4294967295
0.47794303 0 0.021798331 4294967295
0.82975352 0 0.011968208 4294967295
0.60222077 0 0.93153512 4294967295
0.025308812 0 0.5906024 4294967295
0.67113543 0 0.57672352 4294967295
0.00082420744 0 0.67076588 4294967295
0.70534742 0 0.054437473 4294967295
0.33385715 0 0.24019498 4294967295
0.14362137 0 0.5862875 4294967295
0.82971722 0 0.91797853 4294967295
0.33819932 0 0.65990108 4294967295
0.66339368 0 0.64080024 4294967295
0.90432566 0 0.24375762 4294967295
0.28332126 0 0.050966747 4294967295
0.10173531 0 0.59035373 4294967295
0.80226177 0 0.57967836 4294967295
0.61215204 0 0.63201535 4294967295
0.59164655 0 0.21437286 4294967295
0.56355047 0 0.61695534 4294967295
0.80497521 0 0.2346859 4294967295
0.19367889 0 0.80579942 4294967295
0.90545177 0 0.89902633 4294967295
0.86023694 0 0.23930895 4294967295
0.13922128 0 0.0038582869 4294967295
0.82559645 0 0.96893853 4294967295
0.92183685 0 0.16379575 4294967295
0.62883955 0 0.58523047 4294967295
0.80459601 0 0.53316522 4294967295
0.82898808 0 0.087917238 4294967295
0.58413196 0 0.93072343 4294967295
0.67827094 0 0.38639379 4294967295
0.51040173 0 0.29042301 4294967295
0.018409107 0 0.10204831 4294967295
0.50479585 0 0.58195961 4294967295
0.71900368 0 0.30977112 4294967295
0.8166455 0 0.91268253 4294967295
0.11557056 0 0.72209728 4294967295
0.81170887 0 0.97580749 4294967295
0.96140623 0 0.95093018 4294967295
0.97966576 0 0.78700268 4294967295
0.91986865 0 0.90150261 4294967295
0.95079845 0 0.54870826 4294967295
0.48673308 0 0.75539446 4294967295
0.081873477 0 0.31572115 4294967295
0.84331167 0 0.66600543 4294967295
0.24644458 0 0.52158266 4294967295
0.05239924 0 0.75684631 4294967295
0.8120057 0 0.070808344 4294967295
0.85889465 0 0.31680155 4294967295
0.65276796 0 0.57789832 4294967295
0.62657267 0 0.46941343 4294967295
0.49058089 0 0.74214321 4294967295
0.19151072 0 0.30228975 4294967295
0.7179507 0 0.15291695 4294967295
0.2532199 0 0.69761646 4294967295
0.93991965 0 0.17308857 4294967295
0.59911907 0 0.8907181 4294967295
0.72179681 0 0.085852124 4294967295
0.64611256 0 0.80367029 4294967295
0.4015733 0 0.48942423 4294967295
0.46967575 0 0.64801788 4294967295
0.01100688 0 0.522075 4294967295
0.40486419 0 0.82301253 4294967295
0.59288335 0 0.26375884 4294967295
0.13981409 0 0.24565126 4294967295
0.84165716 0 0.76638675 4294967295
0.7150647 0 0.33223802 4294967295
0.50852996 0 0.90657538 4294967295
0.6345278 0 0.22648065 4294967295
0.059492361 0 0.88774765 4294967295
0.92409712 0 0.999412 4294967295
0.060836233 0 0.52321619 4294967295
0.8901301 0 0.78263301 4294967295
0.60906827 0 0.53624266 4294967295
0.58630329 0 0.010641579 4294967295
0.025666879 0 0.055979054 4294967295
0.65865946 0 0.036673758 4294967295
0.57805401 0 0.06352365 4294967295
0.85968632 0 0.17093736 4294967295
0.32728249 0 0.99950039 4294967295
0.41658863 0 0.16893965 4294967295
0.76588714 0 0.13165332 4294967295
0.50117767 0 0.2744171 4294967295
0.038228728 0 0.13570546 4294967295
0.50089777 0 0.097721092 4294967295
0.023453135 0 0.42499489 4294967295
0.0971331 0 0.084289365 4294967295
0.94821101 0 0.9872632 4294967295
0.86692238 0 0.55727935 4294967295
0.52350587 0 0.4532257 4294967295
0.56792092 0 0.54917276 4294967295
0.50920475 0 0.22658035 4294967295
0.58584648 0 0.087258808 4294967295
0.290104 0 0.4455328 4294967295
0.25819618 0 0.61738652 4294967295
0.44503319 0 0.67478478 4294967295
0.78632617 0 0.21092035 4294967295
0.80643815 0 0.28750387 4294967295
0.48533744 0 0.84466684 4294967295
0.42320931 0 0.9862352 4294967295
0.94238794 0 0.44666246 4294967295
0.41123009 0 0.039521042 4294967295
0.5309518 0 0.3594411 4294967295
0.026784247 0 0.39787424 4294967295
0.91672045 0 0.55029011 4294967295
0.85109997 0 0.48464134 4294967295
0.099462837 0 0.36030471 4294967295
0.71122169 0 0.68530935 4294967295
0.44756353 0 0.001325727 4294967295
0.13084213 0 0.7057597 4294967295
0.61871225 0 0.57587534 4294967295
0.38054448 0 0.40503842 4294967295
0.78679568 0 0.18698262 4294967295
0.69254225 0 0.27213311 4294967295
0.031649463 0 0.11575159 4294967295
0.25836831 0 0.97403741 4294967295
0.56241405 0 0.6695984 4294967295
0.013558449 0 0.093365856 4294967295
0.02903951 0 0.040342696 4294967295
0.49124008 0 0.94575995 4294967295
0.5906328 0 0.34234002 4294967295
0.43040133 0 0.69009566 4294967295
0.70264471 0 0.14162302 4294967295
0.37540495 0 0.15020825 4294967295
0.14294875 0 0.5062471 4294967295
0.85596794 0 0.76166099 4294967295
0.08212243 0 0.23651244 4294967295
0.16669941 0 0.86891812 4294967295
0.42349505 0 0.85924166 4294967295
0.14105122 0 0.45514449 4294967295
0.97499323 0 0.39941955 4294967295
0.4291819 0 0.53740728 4294967295
0.069017939 0 0.44274035 4294967295
0.63077313 0 0.098057449 4294967295
0.48308307 0 0.12201323 4294967295
0.043817405 0 0.073715858 4294967295
0.46435323 0 0.47421873 4294967295
0.76381147 0 0.16699797 4294967295
0.61584175 0 0.13921645 4294967295
0.31720623 0 0.75879049 4294967295
0.64546353 0 0.17317416 4294967295
0.52045149 0 0.72758597 4294967295
0.4096866 0 0.6871509 4294967295
0.59650409 0 0.83318162 4294967295
0.54639256 0 0.73755533 4294967295
0.28832614 0 0.52138579 4294967295
0.13697486 0 0.71750808 4294967295
0.058793101 0 0.20599279 4294967295
0.16024843 0 0.68956625 4294967295
0.30405024 0 0.64333147 4294967295
0.81157947 0 0.34786764 4294967295
0.71704733 0 0.27593273 4294967295
0.82208633 0 0.48085883 4294967295
0.4429307 0 0.43792811 4294967295
0.62007529 0 0.7601369 4294967295
0.19671859 0 0.26553884 4294967295
0.9333111 0 0.71717006 4294967295
0.99312484 0 0.34299767 4294967295
0.40432096 0 0.58962893 4294967295
0.17617932 0 0.95071352 4294967295
0.32718423 0 0.46450546 4294967295
0.47209933 0 0.46415907 4294967295
0.18201351 0 0.53089243 4294967295
0.67015189 0 0.34226194 4294967295
0.22045869 0 0.9742021 4294967295
0.98559344 0 0.032038167 4294967295
0.32206973 0 0.70264077 4294967295
0.30797088 0 0.14415611 4294967295
0.18349962 0 0.75090158 4294967295
0.58208424 0 0.80357492 4294967295
0.51103854 0 0.77880281 4294967295
0.069113776 0 0.44434962 4294967295
0.49597287 0 0.062238611 4294967295
0.78734732 0 0.90029383 4294967295
0.65186751 0 0.96352661 4294967295
0.8510074 0 0.97905177 4294967295
0.42803207 0 0.32310671 4294967295
0.44321084 0 0.61004555 4294967295
0.85399914 0 0.1133627 4294967295
0.95230752 0 0.074457847 4294967295
0.087564804 0 0.93790096 4294967295
0.10649601 0 0.40963456 4294967295
0.64054173 0 0.41446692 4294967295
0.55379069 0 0.82404137 4294967295
0.16536851 0 0.13587487 4294967295
0.62761629 0 0.67640704 4294967295
0.91467768 0 0.69673002 4294967295
0.12075663 0 0.41065055 4294967295
0.75896865 0 0.90810394 4294967295
0.31094441 0 0.41083616 4294967295
0.87163055 0 0.1619518 4294967295
0.38988793 0 0.29966259 4294967295
0.48505852 0 0.83309877 4294967295
0.90970814 0 0.33905768 4294967295
0.94646144 0 0.86201566 4294967295
0.41351551 0 0.034026265 4294967295
0.79991663 0 0.52001154 4294967295
0.44366083 0 0.44045836 4294967295
0.93447846 0 0.99745148 4294967295
0.26449969 0 0.099846944 4294967295
0.13332635 0 0.89211595 4294967295
0.776254 0 0.048004024 4294967295
0.58884597 0 0.89701062 4294967295
0.45865458 0 0.34781462 4294967295
0.80511451 0 0.76959902 4294967295
0.75865078 0 0.67674506 4294967295
0.9315508 0 0.14853872 4294967295
0.97640765 0 0.41660932 4294967295
0.98163748 0 0.88611579 4294967295
0.75566697 0 0.92809892 4294967295
0.74813145 0 0.16918249 4294967295
0.96212518 0 0.54804808 4294967295
0.68919402 0 0.40578604 4294967295
0.98850644 0 0.62367249 4294967295
0.40323749 0 0.25300616 4294967295
0.72351938 0 0.53656387 4294967295
0.1451221 0 0.49977338 4294967295
0.58456784 0 0.73396808 4294967295
0.39678398 0 0.043222457 4294967295
0.081782699 0 0.20189852 4294967295
0.81282145 0 0.84043348 4294967295
0.87864357 0 0.74437225 4294967295
0.98897219 0 0.85505122 4294967295
0.16098157 0 0.97060966 4294967295
0.74116701 0 0.91664857 4294967295
0.89870864 0 0.48929849 4294967295
0.085831054 0 0.86083382 4294967295
0.037346598 0 0.77502507 4294967295
0.26661986 0 0.025853058 4294967295
0.39869756 0 0.66985738 4294967295
0.2788592 0 0.12221696 4294967295
0.20642123 0 0.42398131 4294967295
0.62199032 0 0.7909891 4294967295
0.15794939 0 0.018774329 4294967295
0.83421153 0 0.23973209 4294967295
0.22067285 0 0.64703304 4294967295
0.080165587 0 0.099316426 4294967295
0.39140525 0 0.069137797 4294967295
0.95436764 0 0.55238682 4294967295
0.039747495 0 0.69553465 4294967295
0.46903539 0 0.93845612 4294967295
0.18483314 0 0.55486643 4294967295
0.79929 0 0.22217974 4294967295
0.32989153 0 0.065909848 4294967295
0.24803281 0 0.72858906 4294967295
0.73576725 0 0.52689201 4294967295
0.85080606 0 0.94218844 4294967295
0.95087332 0 0.47279638 4294967295
0.73317754 0 0.10882271 4294967295
0.49157071 0 0.56738907 4294967295
0.34855482 0 0.71224356 4294967295
0.21442209 0 0.42872038 4294967295
0.81155998 0 0.60582733 4294967295
0.4978582 0 0.76592761 4294967295
0.1582142 0 0.5376057 4294967295
0.46146229 0 0.6272496 4294967295
0.47606182 0 0.64629543 4294967295
0.18211603 0 0.27535179 4294967295
0.86847514 0 0.51200753 4294967295
0.34126166 0 0.11650796 4294967295
0.24059664 0 0.077028871 4294967295
0.64339995 0 0.09140268 4294967295
0.019217312 0 0.59427327 4294967295
0.56419903 0 0.75239486 4294967295
0.70309603 0 0.055769771 4294967295
0.31978393 0 0.051650818 4294967295
0.76801336 0 0.53420603 4294967295
0.48037121 0 0.57957333 4294967295
0.14003338 0 0.9782294 4294967295
0.34550095 0 0.29824758 4294967295
0.51583511 0 0.80696321 4294967295
0.92549717 0 0.99189693 4294967295
0.45325863 0 0.10761318 4294967295
0.26724872 0 0.3217338 4294967295
0.61962074 0 0.60851038 4294967295
0.43824178 0 0.86021733 4294967295
0.68553925 0 0.081641741 4294967295
0.95162004 0 0.70475656 4294967295
0.67591506 0 0.51581907 4294967295
0.45715141 0 0.37901106 4294967295
0.57158887 0 0.77693534 4294967295
0.43066186 0 0.3396022 4294967295
0.31114137 0 0.91103309 4294967295
0.91917551 0 0.45117474 4294967295
0.8892625 0 0.26467645 4294967295
0.74942231 0 0.4050976 4294967295
0.071639672 0 0.67491943 4294967295
0.39699453 0 0.52489829 4294967295
0.78253263 0 0.66424322 4294967295
0.84663212 0 0.40215334 4294967295
0.27275363 0 0.28487387 4294967295
0.26237071 0 0.95829284 4294967295
0.36651564 0 0.21399076 4294967295
0.6630494 0 0.042430665 4294967295
0.72980988 0 0.12020084 4294967295
0.4214417 0 0.30139872 4294967295
0.89713615 0 0.85210359 4294967295
0.64100093 0 0.20827752 4294967295
0.76313668 0 0.56017643 4294967295
0.65945226 0 0.65239918 4294967295
0.82485288 0 0.40887457 4294967295
0.057496756 0 0.8964926 4294967295
0.083794028 0 0.45449129 4294967295
0.42139089 0 0.86632663 4294967295
0.11873452 0 0.26802301 4294967295
0.26848 0 0.39148813 4294967295
0.55289686 0 0.53085071 4294967295
0.34978101 0 0.91941249 4294967295
0.74484146 0 0.012830433 4294967295
0.96184319 0 0.47465134 4294967295
0.13303126 0 0.3832849 4294967295
0.77605009 0 0.030167438 4294967295
0.23538847 0 0.41705099 4294967295
0.23844497 0 0.99852514 4294967295
0.97722745 0 0.89789724 4294967295
0.65092432 0 0.80208033 4294967295
0.30677181 0 0.70842105 4294967295
0.69857293 0 0.39056584 4294967295
0.16291235 0 0.11996383 4294967295
0.2568925 0 0.28164688 4294967295
0.38798684 0 0.52537251 4294967295
0.67313498 0 0.94088376 4294967295
0.05622324 0 0.02291601 4294967295
0.86029625 0 0.80106473 4294967295
0.035746444 0 0.82213938 4294967295
0.27571607 0 0.1687777 4294967295
0.20542429 0 0.051766135 4294967295
0.19894515 0 0.44081277 4294967295
0.46881714 0 0.43739012 4294967295
0.43933791 0 0.44604456 4294967295
0.33528736 0 0.090262234 4294967295
0.24812493 0 0.64205915 4294967295
0.79868329 0 0.94669789 4294967295
0.032625016 0 0.96159565 4294967295
0.066661701 0 0.28951752 4294967295
0.24324252 0 0.45464855 4294967295
0.81489003 0 0.91637754 4294967295
0.39553228 0 0.87111324 4294967295
0.93929356 0 0.2558285 4294967295
0.67217797 0 0.97503996 4294967295
0.077967919 0 0.94789404 4294967295
0.14381769 0 0.28339222 4294967295
0.99966019 0 0.34276283 4294967295
0.72420502 0 0.46847734 4294967295
0.78015298 0 0.16354291 4294967295
0.91452187 0 0.11544032 4294967295
0.25380516 0 0.16264683 4294967295
0.75749952 0 0.052488461 4294967295
0.1093447 0 0.79012454 4294967295
0.014084119 0 0.17600641 4294967295
