# .PCD v0.7 - Point Cloud Data file format
VERSION 0.7
FIELDS x y z rgba
SIZE 4 4 4 4
TYPE F F F U
COUNT 1 1 1 1
WIDTH 1269
HEIGHT 1
VIEWPOINT 0 0 0 1 0 0 0
POINTS 1269
DATA ascii
0.5 -0.06055069 0.54790449 4294967295
0.5 0.18045026 0.40809429 4294967295
0.5 -0.35749534 0.52631485 4294967295
0.5 0.4012894 0.20524862 4294967295
0.5 -0.20061889 0.43082899 4294967295
0.5 0.069930911 0.20884025 4294967295
0.5 0.4190588 0.19991241 4294967295
0.5 -0.33952111 0.1905265 4294967295
0.5 0.3550607 0.13088673 4294967295
0.5 0.23169369 0.52110052 4294967295
0.5 -0.30005562 0.47962263 4294967295
0.5 0.40975028 0.51631141 4294967295
0.5 0.48717195 0.3521798 4294967295
0.5 -0.21847561 0.58532858 4294967295
0.5 0.11930794 0.42942262 4294967295
0.5 -0.47177434 0.041130066 4294967295
0.5 -0.10381842 0.49607316 4294967295
0.5 0.14174908 0.37708038 4294967295
0.5 -0.039445698 0.38012695 4294967295
0.5 0.33189857 0.53195482 4294967295
0.5 -0.34149155 0.28128067 4294967295
0.5 -0.44172138 0.05429709 4294967295
0.5 0.1874187 0.15313026 4294967295
0.5 -0.15025204 0.37973553 4294967295
0.5 -0.094261438 0.057009153 4294967295
0.5 -0.21309134 0.42397809 4294967295
0.5 0.26661682 0.13766126 4294967295
0.5 -0.15672934 0.52765214 4294967295
0.5 0.19977289 0.43735656 4294967295
0.5 0.089972556 0.22335657 4294967295
0.5 -0.26174402 0.43273875 4294967295
0.5 -0.12216195 0.44410628 4294967295
0.5 -0.17312589 0.013711001 4294967295
0.5 -0.32687616 0.55119991 4294967295
0.5 0.062625647 0.0035157166 4294967295
0.5 0.047363877 0.50479382 4294967295
0.5 -0.093148023 0.42394975 4294967295
0.5 0.29870135 0.065989465 4294967295
0.5 0.32440001 0.10391453 4294967295
0.5 0.13675004 0.16109699 4294967295
0.5 -0.27010903 0.64656109 4294967295
0.5 0.33582151 0.69755548 4294967295
0.5 -0.37968239 0.12536451 4294967295
0.5 0.25029659 0.57406336 4294967295
0.5 0.30388725 0.23818839 4294967295
0.5 -0.36082864 0.029500261 4294967295
0.5 0.4584673 0.36190656 4294967295
0.5 0.17658085 0.19973901 4294967295
0.5 0.036596537 0.59479326 4294967295
0.5 -0.42723015 0.069455519 4294967295
0.5 0.35472715 0.43409359 4294967295
0.5 0.32035625 0.18310536 4294967295
0.5 -0.2742238 0.43334031 4294967295
0.5 -0.14415023 0.03512333 4294967295
0.5 0.26750696 0.69481987 4294967295
0.5 -0.21968526 0.69817853 4294967295
0.5 0.41625845 0.081295379 4294967295
0.5 0.49390572 0.025603238 4294967295
0.5 -0.20477158 0.52094162 4294967295
0.5 0.35666656 0.069380961 4294967295
0.5 -0.41552854 0.69708657 4294967295
0.5 -0.3587411 0.030057138 4294967295
0.5 0.012847304 0.57248777 4294967295
0.5 -0.17171979 0.034610711 4294967295
0.5 0.16754436 0.28073505 4294967295
0.5 -0.35133395 0.36559007 4294967295
0.5 -0.47881624 0.67831564 4294967295
0.5 0.28385061 0.17287198 4294967295
0.5 0.088079929 0.097790278 4294967295
0.5 -0.20286384 0.24891081 4294967295
0.5 -0.3676998 0.4042156 4294967295
0.5 -0.14701518 0.033991035 4294967295
0.5 0.19358712 0.24282338 4294967295
0.5 -0.41486531 0.69217086 4294967295
0.5 -0.40890715 0.65926087 4294967295
0.5 -0.41206878 0.12289501 4294967295
0.5 0.43763918 0.16043308 4294967295
0.5 -0.28149694 0.31534055 4294967295
0.5 -0.45297018 0.38274828 4294967295
0.5 -6.9618225e-05 0.50020194 4294967295
0.5 0.44783336 0.45401752 4294967295
0.5 -0.26315427 0.67831194 4294967295
0.5 0.11761874 0.01448745 4294967295
0.5 -0.28402293 0.14398909 4294967295
0.5 -0.33960325 0.35917923 4294967295
0.5 0.061285555 0.20488785 4294967295
0.5 -0.4094359 0.63998926 4294967295
0.5 -0.15874445 0.54890585 4294967295
0.5 -0.23883909 0.29847315 4294967295
0.5 0.2729668 0.24657764 4294967295
0.5 -0.13180852 0.60262865 4294967295
0.5 0.027818084 0.21408147 4294967295
0.5 -0.40991181 0.52242482 4294967295
0.5 0.2563172 0.095982611 4294967295
0.5 -0.20689556 0.17937331 4294967295
0.5 0.3516922 0.16865644 4294967295
0.5 0.40484399 0.061976574 4294967295
0.5 -0.29004511 0.36572394 4294967295
0.5 -0.39076567 0.29815239 4294967295
0.5 0.22816145 0.18874174 4294967295
0.5 0.43904519 0.20261291 4294967295
0.5 0.062327981 0.020726508 4294967295
0.5 -0.29628259 0.63250846 4294967295
0.5 0.31376058 0.32541481 4294967295
0.5 -0.17002621 0.41070917 4294967295
0.5 0.31713206 0.48871571 4294967295
0.5 -0.052374572 0.24146509 4294967295
0.5 -0.49600405 0.37639952 4294967295
0.5 -0.40872872 0.53221923 4294967295
0.5 0.17483163 0.269063 4294967295
0.5 -0.4834393 0.36856669 4294967295
0.5 0.12531352 0.64498329 4294967295
0.5 0.11506176 0.58468789 4294967295
0.5 -0.056132555 0.50700724 4294967295
0.5 -0.23879963 0.12042023 4294967295
0.5 0.49392718 0.14017189 4294967295
0.5 -0.038524091 0.38937861 4294967295
0.5 -0.27014518 0.46563533 4294967295
0.5 -0.040161282 0.030530769 4294967295
0.5 -0.36992839 0.55286872 4294967295
0.5 0.13034278 0.6630426 4294967295
0.5 -0.012022227 0.054577727 4294967295
0.5 -0.20784619 0.3443816 4294967295
0.5 0.11568177 0.26839757 4294967295
0.5 -0.24771315 0.20335935 4294967295
0.5 0.26780087 0.18819329 4294967295
0.5 0.31703722 0.27518004 4294967295
0.5 -0.30974776 0.30246931 4294967295
0.5 -0.27161723 0.44388378 4294967295
0.5 -0.34360489 0.34270817 4294967295
0.5 0.30614859 0.1052256 4294967295
0.5 0.18982863 0.18733715 4294967295
0.5 0.20657748 0.64377844 4294967295
0.5 0.43281782 0.11649133 4294967295
0.5 0.46329886 0.044022597 4294967295
0.5 0.45622867 0.41554916 4294967295
0.5 -0.48990691 0.31094453 4294967295
0.5 0.17160982 0.21157286 4294967295
0.5 0.43618017 0.2011041 4294967295
0.5 0.18567204 0.13192694 4294967295
0.5 0.077804983 0.31743103 4294967295
0.5 -0.04268539 0.27638954 4294967295
0.5 0.34658724 0.45329681 4294967295
0.5 0.32694119 0.052478988 4294967295
0.5 -0.21831346 0.68833542 4294967295
0.5 0.064553082 0.061484586 4294967295
0.5 -0.36634144 0.17806721 4294967295
0.5 -0.14454037 0.58816522 4294967295
0.5 -0.3259348 0.20179421 4294967295
0.5 -0.49334779 0.096154839 4294967295
0.5 -0.14883313 0.67401665 4294967295
0.5 0.23100567 0.252882 4294967295
0.5 -0.092912614 0.28183085 4294967295
0.5 0.16350693 0.24028732 4294967295
0.5 0.18990707 0.24442528 4294967295
0.5 0.031734645 0.1873984 4294967295
0.5 0.30265182 0.69233447 4294967295
0.5 0.1625542 0.45446736 4294967295
0.5 0.13661605 0.34264675 4294967295
0.5 0.22420907 0.64281183 4294967295
0.5 -0.027168393 0.20213351 4294967295
0.5 -0.49386227 0.42454314 4294967295
0.5 0.043143868 0.25311816 4294967295
0.5 -0.053273797 0.50204635 4294967295
0.5 0.14987481 0.31736487 4294967295
0.5 0.35457313 0.00072918291 4294967295
0.5 -0.083740681 0.4099052 4294967295
0.5 -0.13769832 0.5763427 4294967295
0.5 0.48819429 0.018066019 4294967295
0.5 -0.33338571 0.47467095 4294967295
0.5 -0.12501246 0.48884425 4294967295
0.5 0.44581336 0.12434758 4294967295
0.5 0.18739814 0.42585731 4294967295
0.5 0.32687849 0.22680995 4294967295
0.5 -0.4021371 0.38576129 4294967295
0.5 -0.25768319 0.39948615 4294967295
0.5 0.33984971 0.17391817 4294967295
0.5 -0.3228153 0.26809549 4294967295
0.5 0.11005187 0.43673763 4294967295
0.5 -0.39979735 0.18194868 4294967295
0.5 -0.42271072 0.66834307 4294967295
0.5 -0.23903161 0.34548402 4294967295
0.5 0.040354609 0.43628901 4294967295
0.5 -0.18310469 0.36998427 4294967295
0.5 0.14907867 0.33845672 4294967295
0.5 -0.29334968 0.016846349 4294967295
0.5 -0.31814149 0.10672458 4294967295
0.5 -0.2982944 0.60847968 4294967295
0.5 0.26083124 0.020008856 4294967295
0.5 -0.30672914 0.6010859 4294967295
0.5 0.079671621 0.30491138 4294967295
0.5 -0.070611358 0.2936649 4294967295
0.5 0.18404222 0.42460135 4294967295
0.5 0.30251485 0.20586586 4294967295
0.5 -0.26951578 0.63190228 4294967295
0.5 0.054020762 0.21544145 4294967295
0.5 0.35749328 0.57049239 4294967295
0.5 0.3013221 0.27849355 4294967295
0.5 -0.061740786 0.082752198 4294967295
0.5 0.42639685 0.061136518 4294967295
0.5 0.10172701 0.093133017 4294967295
0.5 -0.38859591 0.54850984 4294967295
0.5 -0.21448916 0.21917678 4294967295
0.5 0.15284216 0.032439452 4294967295
0.5 -0.15830621 0.59227914 4294967295
0.5 0.40503621 0.64495575 4294967295
0.5 -0.2182993 0.23409739 4294967295
0.5 -0.15911332 0.67602003 4294967295
0.5 0.4409982 0.10038108 4294967295
0.5 -0.240163 0.12003767 4294967295
0.5 -0.45388094 0.56970048 4294967295
0.5 -0.020744115 0.63252866 4294967295
0.5 0.12884694 0.19640461 4294967295
0.5 -0.19853973 0.046974301 4294967295
0.5 -0.10120457 0.15949999 4294967295
0.5 -0.34555596 0.00036570983 4294967295
0.5 -0.13909572 0.18609369 4294967295
0.5 0.28410798 0.45249057 4294967295
0.5 0.078957796 0.30586508 4294967295
0.5 0.19275719 0.64445615 4294967295
0.5 -0.21693686 0.41845539 4294967295
0.5 0.34201699 0.39533469 4294967295
0.5 0.43221825 0.12803258 4294967295
0.5 0.03050673 0.61125147 4294967295
0.5 -0.17369476 0.55324066 4294967295
0.5 -0.4553012 0.26069701 4294967295
0.5 0.1042015 0.36676827 4294967295
0.5 -0.22396335 0.1631339 4294967295
0.5 0.30453271 0.40424785 4294967295
0.5 -0.19984543 0.14232968 4294967295
0.5 0.30535406 0.31821904 4294967295
0.5 -0.29614943 0.11638083 4294967295
0.5 0.22044671 0.691571 4294967295
0.5 0.31267345 0.20958319 4294967295
0.5 -0.075091362 0.35380146 4294967295
0.5 -0.27994382 0.49558026 4294967295
0.5 -0.39677593 0.043451209 4294967295
0.5 -0.22726437 0.024809621 4294967295
0.5 -0.25502315 0.56226969 4294967295
0.5 0.40865874 0.39989746 4294967295
0.5 0.093586147 0.66735029 4294967295
0.5 0.44370639 0.13845134 4294967295
0.5 -0.022687793 0.15382013 4294967295
0.5 -0.069163948 0.19729143 4294967295
0.5 0.29723996 0.51169348 4294967295
0.5 -0.014826983 0.42181581 4294967295
0.5 -0.31441075 0.48231652 4294967295
0.5 0.26885235 0.63422519 4294967295
0.5 0.1769821 0.40706807 4294967295
0.5 -0.29455948 0.071323529 4294967295
0.5 -0.4130435 0.29784769 4294967295
0.5 0.30986255 0.13312639 4294967295
0.5 -0.012430161 0.057818729 4294967295
0.5 -0.27437711 0.51278269 4294967295
0.5 0.38584059 0.093997121 4294967295
0.5 -0.19617119 0.33559868 4294967295
0.5 -0.41236085 0.17327464 4294967295
0.5 0.17721432 0.39546594 4294967295
0.5 -0.032721758 0.075635269 4294967295
0.5 0.34679627 0.18516274 4294967295
0.5 0.33904105 0.2323785 4294967295
0.5 0.36711222 0.0172412 4294967295
0.5 -0.47900712 0.4451752 4294967295
0.5 0.43066627 0.48858249 4294967295
0.5 -0.28250957 0.095274761 4294967295
0.5 0.29986578 0.21311283 4294967295
0.5 0.061603487 0.42680979 4294967295
0.5 -0.0053725243 0.034421332 4294967295
0.5 0.19232649 0.50417525 4294967295
0.5 0.28172004 0.40471697 4294967295
0.5 0.35453194 0.059884172 4294967295
0.5 -0.44240627 0.65951979 4294967295
0.5 -0.16691598 0.51436567 4294967295
0.5 0.007122457 0.56025356 4294967295
0.5 0.34285843 0.24774309 4294967295
0.5 -0.43511954 0.47732964 4294967295
0.5 0.18588799 0.65239489 4294967295
0.5 0.2065298 0.4948166 4294967295
0.5 0.067957282 0.44603723 4294967295
0.5 -0.095144153 0.54981339 4294967295
0.5 0.27330285 0.14330512 4294967295
0.5 -0.41010541 0.23443441 4294967295
0.5 0.31444991 0.40916544 4294967295
0.5 -0.11592034 0.35474348 4294967295
0.5 -0.19522759 0.11605977 4294967295
0.5 -0.41505656 0.11151306 4294967295
0.5 -0.2486515 0.099776022 4294967295
0.5 -0.39852452 0.40910274 4294967295
0.5 0.37734526 0.42601851 4294967295
0.5 -0.11520526 0.50414258 4294967295
0.5 0.46251661 0.31477264 4294967295
0.5 -0.097896814 0.45388317 4294967295
0.5 -0.11833212 0.076043069 4294967295
0.5 -0.14471459 0.66473758 4294967295
0.5 0.24582899 0.53209889 4294967295
0.5 0.23507285 0.36339229 4294967295
0.5 0.46486282 0.57747722 4294967295
0.5 0.35403818 0.54551893 4294967295
0.5 -0.090510488 0.16668247 4294967295
0.5 -0.21391088 0.49998337 4294967295
0.5 -0.096082509 0.25972277 4294967295
0.5 0.37356633 0.4586862 4294967295
0.5 0.013569713 0.68252921 4294967295
0.5 -0.26030153 0.27364048 4294967295
0.5 0.083639681 0.43714526 4294967295
0.5 -0.38888133 0.38230941 4294967295
0.5 -0.42583159 0.35925531 4294967295
0.5 -0.30543917 0.31908542 4294967295
0.5 0.12185484 0.38489237 4294967295
0.5 -0.094538569 0.25737867 4294967295
0.5 -0.19001254 0.098373994 4294967295
0.5 0.38681567 0.1923952 4294967295
0.5 0.46550173 0.51859772 4294967295
0.5 -0.44583699 0.26249388 4294967295
0.5 0.47897166 0.23817649 4294967295
0.5 -0.41074681 0.26802239 4294967295
0.5 0.2112847 0.67397368 4294967295
0.5 -0.46184489 0.15739809 4294967295
0.5 0.43786132 0.19449751 4294967295
0.5 0.11576939 0.36505067 4294967295
0.5 0.40234679 0.50882167 4294967295
0.5 -0.43234277 0.68356067 4294967295
0.5 -0.25989002 0.18355262 4294967295
0.5 -0.0676485 0.60337538 4294967295
0.5 0.31206423 0.58646905 4294967295
0.5 -0.27035135 0.085436203 4294967295
0.5 0.47834724 0.081525013 4294967295
0.5 -0.10309801 0.6606943 4294967295
0.5 0.35731816 0.31574553 4294967295
0.5 -0.18115976 0.58540285 4294967295
0.5 0.29131716 0.28566542 4294967295
0.5 -0.28082111 0.3518213 4294967295
0.5 -0.12908703 0.18013379 4294967295
0.5 0.22745627 0.21614198 4294967295
0.5 0.035187602 0.24025796 4294967295
0.5 0.33027524 0.30627409 4294967295
0.5 -0.42988625 0.62855273 4294967295
0.5 -0.085950404 0.21715659 4294967295
0.5 -0.3398495 0.59248078 4294967295
0.5 -0.32781148 0.68055034 4294967295
0.5 0.18421406 0.281286 4294967295
0.5 -0.40573353 0.46379292 4294967295
0.5 0.018301487 0.34381792 4294967295
0.5 0.10641026 0.2629337 4294967295
0.5 0.4422335 0.6476754 4294967295
0.5 -0.28809065 0.51348549 4294967295
0.5 -0.16665602 0.30176178 4294967295
0.5 -0.26384753 0.49297985 4294967295
0.5 0.18842226 0.6745261 4294967295
0.5 -0.48696882 0.15652688 4294967295
0.5 -0.1931656 0.59031451 4294967295
0.5 0.1611442 0.26386368 4294967295
0.5 0.24123889 0.052635677 4294967295
0.5 0.18717182 0.63097256 4294967295
0.5 0.42159492 0.60155225 4294967295
0.5 0.37360412 0.42406633 4294967295
0.5 -0.23880249 0.67750943 4294967295
0.5 -0.23162967 0.54564929 4294967295
0.5 -0.040960968 0.61234641 4294967295
0.5 -0.34488142 0.28089076 4294967295
0.5 0.30003113 0.25691956 4294967295
0.5 -0.36517683 0.093362585 4294967295
0.5 0.29811621 0.25968298 4294967295
0.5 0.33763206 0.34057692 4294967295
0.5 -0.16541561 0.59546429 4294967295
0.5 0.21014827 0.44899312 4294967295
0.5 0.19396967 0.25990474 4294967295
0.5 -0.4816331 0.30464596 4294967295
0.5 -0.053513706 0.49387711 4294967295
0.5 -0.16340211 0.25765687 4294967295
0.5 0.064899087 0.1471414 4294967295
0.5 0.47389024 0.57826763 4294967295
0.5 -0.32192743 0.1695824 4294967295
0.5 0.10559559 0.44597813 4294967295
0.5 -0.38295883 0.53249991 4294967295
0.5 -0.46161586 0.64195061 4294967295
0.5 -0.37225789 0.12124512 4294967295
0.5 -0.44955257 0.64810079 4294967295
0.5 0.044182956 0.62165564 4294967295
0.5 -0.087603271 0.61513716 4294967295
0.5 0.23874277 0.085781485 4294967295
0.5 0.020186126 0.30289871 4294967295
0.5 -0.0061625242 0.37698713 4294967295
0.5 0.36792094 0.65822661 4294967295
0.5 -0.25590819 0.1431632 4294967295
0.5 -0.19159499 0.56629366 4294967295
0.5 -0.085279167 0.19760668 4294967295
0.5 0.13508755 0.41495538 4294967295
0.5 0.024555862 0.16847822 4294967295
0.5 -0.27009499 0.44911793 4294967295
0.5 -0.49860266 0.1878024 4294967295
0.5 0.058669329 0.090397596 4294967295
0.5 -0.058503538 0.42638177 4294967295
0.5 -0.44500229 0.68997562 4294967295
0.5 -0.0028037131 0.32717609 4294967295
0.5 0.36444676 0.16515733 4294967295
0.5 0.089939415 0.26924306 4294967295
0.5 0.16865146 0.058643818 4294967295
0.5 0.423186 0.37560073 4294967295
0.5 -0.47589934 0.11709448 4294967295
0.5 0.24109131 0.23275398 4294967295
0.5 0.47626877 0.1090685 4294967295
0.5 0.11480093 0.42794943 4294967295
0.5 0.24860555 0.097549744 4294967295
0.5 0.35203952 0.68495739 4294967295
0.5 0.28095382 0.59740579 4294967295
0.5 -0.25320029 0.23773618 4294967295
0.5 0.48257625 0.48180729 4294967295
0.5 0.44873995 0.026301777 4294967295
0.5 0.17397559 0.31215534 4294967295
0.5 0.0049684048 0.37689564 4294967295
0.5 0.18187529 0.066435471 4294967295
0.5 0.42305529 0.24536872 4294967295
0.5 -0.32131529 0.5923689 4294967295
0.5 0.38709921 0.14194974 4294967295
0.5 -0.48648089 0.43973336 4294967295
0.5 0.035291016 0.69285154 4294967295
0.5 0.2840026 0.10506438 4294967295
0.5 0.10114419 0.37282571 4294967295
0.5 -0.21055126 0.31722859 4294967295
0.5 0.01111871 0.049281783 4294967295
0.5 -0.19337946 0.53054291 4294967295
0.5 -0.089974314 0.20243776 4294967295
0.5 -0.053785443 0.25113592 4294967295
0.5 -0.17322925 0.084133089 4294967295
0.5 0.30470181 0.58221745 4294967295
0.5 0.15861249 0.34060398 4294967295
0.5 0.42664695 0.40716743 4294967295
0.5 0.33710384 0.073732167 4294967295
0.5 -0.072090954 0.50694215 4294967295
0.5 -0.19188297 0.30899972 4294967295
0.5 -0.14760646 0.59038562 4294967295
0.5 -0.068783969 0.09547732 4294967295
0.5 0.49349999 0.022652172 4294967295
0.5 0.16900432 0.19806413 4294967295
0.5 -0.014456034 0.12608615 4294967295
0.5 -0.14664871 0.55451512 4294967295
0.5 0.43804145 0.53436393 4294967295
0.5 -0.41863871 0.26897922 4294967295
0.5 -0.37785739 0.28569242 4294967295
0.5 0.0044461489 0.64879107 4294967295
0.5 -0.2601288 0.11414104 4294967295
0.5 -0.086578488 0.11656272 4294967295
0.5 0.24472636 0.17536774 4294967295
0.5 -0.22815016 0.1208448 4294967295
0.5 0.47472841 0.4059768 4294967295
0.5 0.11406356 0.22898535 4294967295
0.5 -0.076625079 0.03169572 4294967295
0.5 -0.036481887 0.29181245 4294967295
0.5 -0.42236015 0.092765704 4294967295
0.5 0.19982368 0.39422864 4294967295
0.5 -0.18735451 0.037222497 4294967295
0.5 -0.14465171 0.17548089 4294967295
0.5 0.31655198 0.3056967 4294967295
0.5 0.13494301 0.65708619 4294967295
0.5 0.3448416 0.097572409 4294967295
0.5 0.36553901 0.059298985 4294967295
0.5 -0.1975522 0.19527237 4294967295
0.5 -0.24876899 0.033021912 4294967295
0.5 0.029485881 0.36615661 4294967295
0.5 -0.28019041 0.35295001 4294967295
0.5 -0.39695227 0.58371121 4294967295
0.5 0.3313362 0.36849582 4294967295
0.5 0.37915272 0.20639804 4294967295
0.5 0.44329756 0.6697548 4294967295
0.5 -0.072623223 0.45018488 4294967295
0.5 0.019976377 0.51801556 4294967295
0.5 0.19629627 0.61272728 4294967295
0.5 0.49070925 0.35899377 4294967295
0.5 -0.18796575 0.43795657 4294967295
0.5 -0.048457175 0.1098131 4294967295
0.5 0.26504141 0.22195728 4294967295
0.5 -0.25841129 0.047242425 4294967295
0.5 0.096042335 0.3449738 4294967295
0.5 -0.38533667 0.087869748 4294967295
0.5 -0.48409942 0.23413105 4294967295
0.5 0.1297425 0.083263822 4294967295
0.5 -0.33165395 0.3227551 4294967295
0.5 0.14537096 0.033249162 4294967295
0.5 0.25593305 0.41206798 4294967295
0.5 -0.49570861 0.12831688 4294967295
0.5 -0.2682102 0.36698747 4294967295
0.5 0.4233321 0.64966023 4294967295
0.5 -0.10040757 0.63982892 4294967295
0.5 -0.0590657 0.4981387 4294967295
0.5 0.039693534 0.62473398 4294967295
0.5 0.36850256 0.21331446 4294967295
0.5 -0.29044104 0.077063881 4294967295
0.5 -0.12777588 0.56392092 4294967295
0.5 0.102911 0.34082121 4294967295
0.5 0.43112952 0.43316808 4294967295
0.5 0.32136035 0.3926104 4294967295
0.5 0.23775989 0.6927945 4294967295
0.5 -0.47804925 0.26819161 4294967295
0.5 -0.46279475 0.54451865 4294967295
0.5 0.47179937 0.029047638 4294967295
0.5 0.46119362 0.14251243 4294967295
0.5 0.065764427 0.61916798 4294967295
0.5 -0.36832476 0.67574978 4294967295
0.5 0.298567 0.40082669 4294967295
0.5 0.17698354 0.23678239 4294967295
0.5 -0.034913301 0.38184026 4294967295
0.5 0.14299554 0.47225195 4294967295
0.5 0.1555773 0.010653756 4294967295
0.5 -0.019753039 0.18094181 4294967295
0.5 0.0021071434 0.28796357 4294967295
0.5 0.37729985 0.22642724 4294967295
0.5 0.47224849 0.43054181 4294967295
0.5 -0.18682608 0.69593948 4294967295
0.5 0.49819058 0.24526542 4294967295
0.5 0.27208304 0.67899299 4294967295
0.5 -0.1081242 0.51329368 4294967295
0.5 -0.32642087 0.67034811 4294967295
0.5 0.11780238 0.21367806 4294967295
0.5 0.42299706 0.29145858 4294967295
0.5 0.37786394 0.41998637 4294967295
0.5 0.25462997 0.24006546 4294967295
0.5 -0.35453337 0.27833784 4294967295
0.5 -0.4824037 0.56073081 4294967295
0.5 -0.087154865 0.3484903 4294967295
0.5 -0.44046775 0.64046657 4294967295
0.5 0.40921974 0.65578246 4294967295
0.5 -0.26158026 0.61702782 4294967295
0.5 0.051891863 0.38611555 4294967295
0.5 0.37566751 0.38505766 4294967295
0.5 0.40197283 0.45342538 4294967295
0.5 0.020072341 0.20569405 4294967295
0.5 -0.11897275 0.48555604 4294967295
0.5 -0.2485112 0.69918072 4294967295
0.5 0.49890584 0.12214008 4294967295
0.5 -0.084800988 0.61373883 4294967295
0.5 0.2744664 0.11888028 4294967295
0.5 -0.28027958 0.64395308 4294967295
0.5 0.067454457 0.16612171 4294967295
0.5 0.22097701 0.68620974 4294967295
0.5 0.23515999 0.54635644 4294967295
0.5 0.39525187 0.45106581 4294967295
0.5 0.21734136 0.093570121 4294967295
0.5 0.025848031 0.18846324 4294967295
0.5 0.18526524 0.28106087 4294967295
0.5 0.31931561 0.41106665 4294967295
0.5 -0.45073387 0.23757155 4294967295
0.5 0.38108671 0.30120537 4294967295
0.5 -0.46696061 0.092802867 4294967295
0.5 -0.070876986 0.022361679 4294967295
0.5 -0.19293863 0.59102541 4294967295
0.5 0.40871507 0.057069432 4294967295
0.5 -0.48584902 0.089904822 4294967295
0.5 -0.49853921 0.4071238 4294967295
0.5 -0.13424781 0.50570643 4294967295
0.5 0.061905026 0.070638523 4294967295
0.5 0.0029470325 0.32000983 4294967295
0.5 0.24529189 0.15420185 4294967295
0.5 0.090828478 0.18979794 4294967295
0.5 -0.010478437 0.19326563 4294967295
0.5 0.17265546 0.216186 4294967295
0.5 0.36333185 0.50534511 4294967295
0.5 0.14822507 0.52109301 4294967295
0.5 -0.34778503 0.47688511 4294967295
0.5 0.37699413 0.40693659 4294967295
0.5 0.21320975 0.12883884 4294967295
0.5 -0.074340016 0.43534732 4294967295
0.5 -0.23441675 0.30786768 4294967295
0.5 0.25036025 0.18693082 4294967295
0.5 -0.47858357 0.081278697 4294967295
0.5 0.48948181 0.40832502 4294967295
0.5 -0.28297538 0.34470016 4294967295
0.5 -0.45952165 0.67362154 4294967295
0.5 0.21271718 0.44191477 4294967295
0.5 -0.26654357 0.14156711 4294967295
0.5 0.40740061 0.63427836 4294967295
0.5 0.011075854 0.53951275 4294967295
0.5 0.12803352 0.11151066 4294967295
0.5 0.015151024 0.54617399 4294967295
0.5 0.34056544 0.27450159 4294967295
0.5 -0.13841352 0.38764259 4294967295
0.5 0.076200604 0.55107254 4294967295
0.5 -0.32430011 0.58924872 4294967295
0.5 -0.27294254 0.64824212 4294967295
0.5 -0.39117211 0.17393172 4294967295
0.5 -0.45782742 0.068816796 4294967295
0.5 0.33179533 0.18143803 4294967295
0.5 0.090738535 0.61059159 4294967295
0.5 -0.27848631 0.212419 4294967295
0.5 0.0035805106 0.31847912 4294967295
0.5 0.0056944489 0.28768679 4294967295
0.5 -0.13891792 0.011739231 4294967295
0.5 -0.31828642 0.69238091 4294967295
0.5 -0.32392871 0.48780522 4294967295
0.5 0.26936412 0.011645684 4294967295
0.5 -0.41099027 0.091665432 4294967295
0.5 0.070411861 0.46564725 4294967295
0.5 0.4181971 0.52227825 4294967295
0.5 0.0069942474 0.1016782 4294967295
0.5 0.17217189 0.43107548 4294967295
0.5 -0.10627156 0.50004113 4294967295
0.5 0.21413183 0.15786666 4294967295
0.5 0.47354168 0.21340923 4294967295
0.5 -0.40220255 0.13653874 4294967295
0.5 0.10832608 0.42096457 4294967295
0.5 0.15002549 0.079814345 4294967295
0.5 -0.48764092 0.0077753183 4294967295
0.5 -0.36920917 0.13585086 4294967295
0.5 -0.49977678 0.21480349 4294967295
0.5 0.39093727 0.53871113 4294967295
0.5 -0.17650121 0.68596292 4294967295
0.5 0.40053797 0.62573743 4294967295
0.5 0.14515734 0.57311451 4294967295
0.5 0.1400224 0.10650611 4294967295
0.5 0.46398962 0.21853597 4294967295
0.5 0.26797372 0.25040266 4294967295
0.5 -0.47346127 0.33747387 4294967295
0.5 0.08324188 5.6268043e-05 4294967295
0.5 0.28697586 0.47672755 4294967295
0.5 -0.30486426 0.27671134 4294967295
0.5 -0.2175827 0.59161288 4294967295
0.5 0.0093224049 0.20634349 4294967295
0.5 0.35626882 0.44807926 4294967295
0.5 -0.011150926 0.59954441 4294967295
0.5 0.44697535 0.26585042 4294967295
0.5 0.12607938 0.18933189 4294967295
0.5 -0.14026666 0.36863214 4294967295
0.5 -0.33561522 0.0034234892 4294967295
0.5 -0.15464759 0.56308496 4294967295
0.5 -0.34295771 0.21653944 4294967295
0.5 -0.38339859 0.64751118 4294967295
0.5 0.16706014 0.1001981 4294967295
0.5 -0.092878491 0.17521138 4294967295
0.5 -0.35677946 0.13586816 4294967295
0.5 0.43134129 0.23684938 4294967295
0.5 0.089399338 0.14963102 4294967295
0.5 -0.31648248 0.069105208 4294967295
0.5 0.0085350275 0.027850453 4294967295
0.5 0.23883498 0.69816887 4294967295
0.5 0.39627844 0.48006722 4294967295
0.5 -0.12282962 0.36565048 4294967295
0.5 0.45628446 0.5158326 4294967295
0.5 -0.45102483 0.084468469 4294967295
0.5 0.24179441 0.27602932 4294967295
0.5 0.42507637 0.62918574 4294967295
0.5 0.20366967 0.029174462 4294967295
0.5 0.32385272 0.25951084 4294967295
0.5 -0.31518206 0.16168196 4294967295
0.5 0.12103176 0.22962692 4294967295
0.5 -0.074928373 0.38666114 4294967295
0.5 0.16639471 0.010129648 4294967295
0.5 0.2661317 0.59493858 4294967295
0.5 -0.38680735 0.19226667 4294967295
0.5 0.38969862 0.59641933 4294967295
0.5 -0.22794926 0.55018389 4294967295
0.5 0.037837982 0.45445478 4294967295
0.5 -0.19166514 0.34588569 4294967295
0.5 -0.11387515 0.250117 4294967295
0.5 0.11479169 0.089543477 4294967295
0.5 0.25163764 0.37790763 4294967295
0.5 -0.47324404 0.3187151 4294967295
0.5 0.081545889 0.59542608 4294967295
0.5 0.32603705 0.53645468 4294967295
0.5 -0.4184171 0.3129482 4294967295
0.5 -0.40559772 0.35465816 4294967295
0.5 0.49944192 0.5325579 4294967295
0.5 0.021125436 0.53590155 4294967295
0.5 0.11070925 0.44402269 4294967295
0.5 -0.45975971 0.35028547 4294967295
0.5 -0.013654292 0.21860372 4294967295
0.5 -0.21361512 0.016928572 4294967295
0.5 0.46151215 0.41630378 4294967295
0.5 0.018306077 0.24334587 4294967295
0.5 0.45202976 0.093168445 4294967295
0.5 -0.024443775 0.49256718 4294967295
0.5 0.17296588 0.35161853 4294967295
0.5 -0.34102535 0.17815822 4294967295
0.5 -0.14707914 0.6895082 4294967295
0.5 -0.47912446 0.30415264 4294967295
0.5 -0.067919403 0.080694482 4294967295
0.5 0.44115829 0.30206576 4294967295
0.5 0.37607485 0.32359859 4294967295
0.5 -0.30290389 0.34074885 4294967295
0.5 -0.40339822 0.16613546 4294967295
0.5 0.48719192 0.40806323 4294967295
0.5 0.049627423 0.19150376 4294967295
0.5 0.10713118 0.35779765 4294967295
0.5 0.3682965 0.087806113 4294967295
0.5 0.35877651 0.57422841 4294967295
0.5 -0.24146491 0.23403291 4294967295
0.5 0.023993611 0.65205061 4294967295
0.5 0.33664495 0.47807777 4294967295
0.5 -0.31398731 0.13269608 4294967295
0.5 0.16798002 0.14482176 4294967295
0.5 0.12406957 0.070042424 4294967295
0.5 -0.17783394 0.39565951 4294967295
0.5 0.03158313 0.13876863 4294967295
0.5 -0.47248843 0.51007545 4294967295
0.5 0.18502498 0.086879358 4294967295
0.5 0.46601564 0.47055182 4294967295
0.5 0.20706087 0.36095011 4294967295
0.5 0.44579369 0.21993446 4294967295
0.5 -0.47321746 0.56986314 4294967295
0.5 -0.060370624 0.61989135 4294967295
0.5 0.13441646 0.48871511 4294967295
0.5 -0.28010821 0.11088704 4294967295
0.5 0.12966537 0.039575726 4294967295
0.5 0.34137833 0.57097465 4294967295
0.5 -0.25389743 0.35655084 4294967295
0.5 -0.47743371 0.60912049 4294967295
0.5 0.10941899 0.24131264 4294967295
0.5 -0.064599991 0.098701462 4294967295
0.5 0.04297322 0.32403809 4294967295
0.5 0.3696813 0.15959875 4294967295
0.5 0.087024927 0.58498788 4294967295
0.5 0.40021509 0.20586008 4294967295
0.5 -0.14866006 0.59220618 4294967295
0.5 0.10827792 0.26468575 4294967295
0.5 0.16009903 0.033535101 4294967295
0.5 -0.23631844 0.20616083 4294967295
0.5 0.24607176 0.33850133 4294967295
0.5 -0.047074497 0.26301602 4294967295
0.5 0.040110111 0.20601271 4294967295
0.5 -0.30858475 0.55034888 4294967295
0.5 0.30366224 0.14978707 4294967295
0.5 0.15638483 0.28915685 4294967295
0.5 0.058713853 0.064249381 4294967295
0.5 0.054083288 0.071180984 4294967295
0.5 0.054696381 0.29663521 4294967295
0.5 -0.17031467 0.099204928 4294967295
0.5 -0.24053848 0.16093032 4294967295
0.5 -0.064192861 0.42756101 4294967295
0.5 -0.42409074 0.030859541 4294967295
0.5 0.48892397 0.5152058 4294967295
0.5 -0.40800765 0.17682385 4294967295
0.5 -0.46947628 0.58664489 4294967295
0.5 0.23617887 0.33841446 4294967295
0.5 -0.28619874 0.19340228 4294967295
0.5 0.27775311 0.28365156 4294967295
0.5 -0.43749836 0.40699071 4294967295
0.5 0.11919802 0.50322056 4294967295
0.5 0.49449652 0.12453833 4294967295
0.5 0.31067127 0.38400581 4294967295
0.5 -0.22040096 0.25575739 4294967295
0.5 0.4723444 0.42649907 4294967295
0.5 0.0070890188 0.16226412 4294967295
0.5 0.33918482 0.66002733 4294967295
0.5 0.34260738 0.64056587 4294967295
0.5 0.48698121 0.5820719 4294967295
0.5 0.15110236 0.055281505 4294967295
0.5 -0.41586319 0.47713825 4294967295
0.5 0.41703767 0.57422096 4294967295
0.5 -0.33492464 0.09158726 4294967295
0.5 -0.40339535 0.65997988 4294967295
0.5 0.036055446 0.11137441 4294967295
0.5 0.024243712 0.10867744 4294967295
0.5 0.37799275 0.36311817 4294967295
0.5 -0.16683459 0.48206484 4294967295
0.5 -0.43268001 0.42893508 4294967295
0.5 -0.44596824 0.027765065 4294967295
0.5 -0.27795118 0.39278454 4294967295
0.5 -0.22852972 0.042863552 4294967295
0.5 0.0040169358 0.079854339 4294967295
0.5 0.47632778 0.34369874 4294967295
0.5 0.44560891 0.43920109 4294967295
0.5 0.06997174 0.020822033 4294967295
0.5 -0.19094375 0.34090662 4294967295
0.5 0.35006142 0.3318921 4294967295
0.5 0.1178484 0.66266626 4294967295
0.5 -0.083039999 0.10773268 4294967295
0.5 -0.39422759 0.65884262 4294967295
0.5 -0.19084269 0.68863565 4294967295
0.5 -0.04005602 0.44962591 4294967295
0.5 0.1724292 0.36908481 4294967295
0.5 -0.24491286 0.50852269 4294967295
0.5 0.066928387 0.33399516 4294967295
0.5 -0.21241823 0.58687901 4294967295
0.5 0.038369596 0.55411905 4294967295
0.5 0.45247626 0.36028817 4294967295
0.5 -0.21740311 0.62865961 4294967295
0.5 -0.35787252 0.59679806 4294967295
0.5 0.42783099 0.31582862 4294967295
0.5 -0.16042194 0.54452467 4294967295
0.5 0.42531532 0.6701985 4294967295
0.5 0.22455853 0.23959275 4294967295
0.5 -0.38866973 0.58123165 4294967295
0.5 -0.21652091 0.2943413 4294967295
0.5 0.31409609 0.52039611 4294967295
0.5 -0.43718973 0.34056771 4294967295
0.5 -0.22931296 0.22252819 4294967295
0.5 -0.28701371 0.58633077 4294967295
0.5 0.29503334 0.35039762 4294967295
0.5 0.17601401 0.23338205 4294967295
0.5 -0.20783326 0.43994319 4294967295
0.5 0.34810024 0.40233451 4294967295
0.5 0.026575506 0.69315946 4294967295
0.5 -0.072667778 0.31808454 4294967295
0.5 -0.058588505 0.53683722 4294967295
0.5 -0.26770112 0.25670877 4294967295
0.5 0.22433674 0.66980016 4294967295
0.5 0.2090022 0.5849669 4294967295
0.5 0.28718829 0.6947369 4294967295
0.5 -0.24384546 0.42089906 4294967295
0.5 0.23590434 0.22327536 4294967295
0.5 -0.41219032 0.0046139602 4294967295
0.5 0.13686222 0.21055718 4294967295
0.5 0.34420675 0.30232689 4294967295
0.5 0.301364 0.36415458 4294967295
0.5 0.26529849 0.065471523 4294967295
0.5 -0.35128891 0.42937911 4294967295
0.5 0.16829437 0.47270063 4294967295
0.5 0.10362649 0.066938624 4294967295
0.5 -0.37030691 0.031526607 4294967295
0.5 0.36253691 0.25339437 4294967295
0.5 -0.08823517 0.41081151 4294967295
0.5 -0.18115065 0.08453691 4294967295
0.5 -0.077459425 0.074226364 4294967295
0.5 -0.38675171 0.4750866 4294967295
0.5 0.20732206 0.59440684 4294967295
0.5 0.49765992 0.55659217 4294967295
0.5 0.35574394 0.4441655 4294967295
0.5 -0.40407234 0.48996553 4294967295
0.5 -0.43358231 0.62810415 4294967295
0.5 -0.27982843 0.5822013 4294967295
0.5 0.49082243 0.25821787 4294967295
0.5 -0.05488506 0.46138173 4294967295
0.5 -0.45583072 0.03411901 4294967295
0.5 0.2547434 0.12170365 4294967295
0.5 -0.40622056 0.43209618 4294967295
0.5 0.03585434 0.353881 4294967295
0.5 -0.29584613 0.59829259 4294967295
0.5 0.1263113 0.4386861 4294967295
0.5 0.46074134 0.51769173 4294967295
0.5 -0.19461045 0.46764433 4294967295
0.5 0.088712156 0.21213463 4294967295
0.5 -0.036804914 0.31111929 4294967295
0.5 0.43757164 0.39138591 4294967295
0.5 -0.35559312 0.0027925153 4294967295
0.5 -0.043585598 0.25520492 4294967295
0.5 0.33570546 0.3130658 4294967295
0.5 0.23346108 0.19657429 4294967295
0.5 -0.39364642 0.54434127 4294967295
0.5 -0.17043814 0.60276788 4294967295
0.5 0.45149273 0.29633892 4294967295
0.5 -0.021622777 0.34114292 4294967295
0.5 0.42888558 0.47777173 4294967295
0.5 -0.15794927 0.38863781 4294967295
0.5 -0.19077447 0.21195444 4294967295
0.5 -0.20524353 0.43023056 4294967295
0.5 0.47085541 0.61842805 4294967295
0.5 0.41766453 0.30383536 4294967295
0.5 -0.17207524 0.5986653 4294967295
0.5 0.49317324 0.33063215 4294967295
0.5 0.35922545 0.31471136 4294967295
0.5 0.33691007 0.48645169 4294967295
0.5 0.39682448 0.39925984 4294967295
0.5 0.47575134 0.0022246509 4294967295
0.5 -0.15199843 0.21371923 4294967295
0.5 0.36427504 0.20964603 4294967295
0.5 0.2286545 0.23985659 4294967295
0.5 0.28684133 0.46027806 4294967295
0.5 -0.47481665 0.090224452 4294967295
0.5 -0.28726304 0.23408622 4294967295
0.5 -0.068315864 0.35524541 4294967295
0.5 0.44902396 0.28177771 4294967295
0.5 -0.10903794 0.60668194 4294967295
0.5 0.33659005 0.5032208 4294967295
0.5 0.22192466 0.58083433 4294967295
0.5 -0.3087815 0.40680507 4294967295
0.5 -0.22064903 0.019690005 4294967295
0.5 -0.22391891 0.12332281 4294967295
0.5 0.098499775 0.17628272 4294967295
0.5 -0.32064649 0.66255099 4294967295
0.5 0.057145655 0.030539988 4294967295
0.5 -0.25400433 0.20006011 4294967295
0.5 -0.11371917 0.022985924 4294967295
0.5 0.44334024 0.28802493 4294967295
0.5 -0.3382709 0.10925405 4294967295
0.5 0.24587303 0.41538927 4294967295
0.5 0.16357064 0.4864279 4294967295
0.5 0.49595284 0.038172904 4294967295
0.5 0.061585486 0.58278 4294967295
0.5 0.27341956 0.19845711 4294967295
0.5 0.16230619 0.67524666 4294967295
0.5 0.36466032 0.65916002 4294967295
0.5 0.49276662 0.098518975 4294967295
0.5 -0.3821674 0.41388649 4294967295
0.5 -0.10742617 0.20803027 4294967295
0.5 0.037767768 0.66480362 4294967295
0.5 -0.15918532 0.54863441 4294967295
0.5 -0.26448035 0.50896686 4294967295
0.5 0.31660044 0.12520194 4294967295
0.5 -0.36144033 0.68483073 4294967295
0.5 -0.16506287 0.6191029 4294967295
0.5 0.071742833 0.69895548 4294967295
0.5 0.079329729 0.39738697 4294967295
0.5 -0.44695947 0.098640651 4294967295
0.5 -0.099761426 0.57852203 4294967295
0.29709777 -0.43745524 0.5 4294967295
0.55376869 -0.21091431 0.5 4294967295
0.0029413558 0.28386474 0.5 4294967295
0.30087894 -0.37796545 0.5 4294967295
0.26259178 0.32240093 0.5 4294967295
0.29345447 0.4128989 0.5 4294967295
0.54048431 0.26003534 0.5 4294967295
0.48766363 -0.49235994 0.5 4294967295
0.34099159 0.013262808 0.5 4294967295
0.13054998 0.12569052 0.5 4294967295
0.34411466 0.021437109 0.5 4294967295
0.35708624 -0.43666479 0.5 4294967295
0.36396143 -0.41054705 0.5 4294967295
0.44172165 0.072985411 0.5 4294967295
0.16125771 -0.46873054 0.5 4294967295
0.27961186 0.15479356 0.5 4294967295
0.065669961 -0.30945641 0.5 4294967295
0.66071546 -0.40198383 0.5 4294967295
0.68208581 -0.12629372 0.5 4294967295
0.15403549 -0.15046054 0.5 4294967295
0.13727504 0.13927138 0.5 4294967295
0.18370683 0.46822757 0.5 4294967295
0.27951467 0.45910066 0.5 4294967295
0.68310732 0.38643754 0.5 4294967295
0.33065441 -0.33763239 0.5 4294967295
0.3584896 0.46395582 0.5 4294967295
0.47866333 -0.47774878 0.5 4294967295
0.019103715 -0.29625034 0.5 4294967295
0.078192927 0.15832192 0.5 4294967295
0.54371452 -0.15792766 0.5 4294967295
0.48271394 -0.32381943 0.5 4294967295
0.69780612 0.2834056 0.5 4294967295
0.25670692 0.44074512 0.5 4294967295
0.61699522 -0.15886748 0.5 4294967295
0.22011597 -0.3985275 0.5 4294967295
0.48347038 0.010558605 0.5 4294967295
0.51852071 0.45311028 0.5 4294967295
0.33515033 -0.35994947 0.5 4294967295
0.63854766 -0.045346171 0.5 4294967295
0.018541643 -0.11542562 0.5 4294967295
0.43191501 0.038616061 0.5 4294967295
0.24397112 -0.19917384 0.5 4294967295
0.39260712 -0.1241788 0.5 4294967295
0.35320306 0.17257148 0.5 4294967295
0.023900181 -0.21868911 0.5 4294967295
0.010250677 0.2237345 0.5 4294967295
0.32024401 -0.48849028 0.5 4294967295
0.35499808 0.32421565 0.5 4294967295
0.66657841 -0.11143813 0.5 4294967295
0.11574371 -0.23329377 0.5 4294967295
0.34302408 0.35602015 0.5 4294967295
0.54408538 -0.26922178 0.5 4294967295
0.56639129 -0.243949 0.5 4294967295
0.25958014 0.22134137 0.5 4294967295
0.49749336 -0.10268319 0.5 4294967295
0.074141026 -0.17227376 0.5 4294967295
0.65515304 -0.045554072 0.5 4294967295
0.43998671 -0.0031998158 0.5 4294967295
0.58118701 -0.36687177 0.5 4294967295
0.11856017 0.36441022 0.5 4294967295
0.29010737 -0.31598449 0.5 4294967295
0.41170129 0.37193054 0.5 4294967295
0.13686764 -0.40471515 0.5 4294967295
0.48730233 -0.35221994 0.5 4294967295
0.33869269 0.36149436 0.5 4294967295
0.29014039 0.47388107 0.5 4294967295
0.50226015 -0.30824891 0.5 4294967295
0.14326151 0.026644945 0.5 4294967295
0.31346148 0.075488031 0.5 4294967295
0.17359041 -0.3414931 0.5 4294967295
0.6809634 -0.14609796 0.5 4294967295
0.3403632 0.40873778 0.5 4294967295
0.56584358 -0.38521442 0.5 4294967295
0.28387654 0.13861513 0.5 4294967295
0.17353967 0.074909627 0.5 4294967295
0.35211775 0.16235292 0.5 4294967295
0.53124762 -0.40882987 0.5 4294967295
0.37399843 0.45445031 0.5 4294967295
0.13051848 -0.26957032 0.5 4294967295
0.071561262 0.17030168 0.5 4294967295
0.06434682 0.016716659 0.5 4294967295
0.45092797 0.30943853 0.5 4294967295
0.49592739 0.34884208 0.5 4294967295
0.23525842 -0.34373015 0.5 4294967295
0.29703107 0.084069729 0.5 4294967295
0.22034371 -0.10286501 0.5 4294967295
0.65658021 0.30100989 0.5 4294967295
0.21411091 0.24631977 0.5 4294967295
0.64105684 0.2114107 0.5 4294967295
0.26945442 -0.33629072 0.5 4294967295
0.20042421 0.38796026 0.5 4294967295
0.57824355 -0.45475459 0.5 4294967295
0.68539125 -0.13965434 0.5 4294967295
0.69978702 -0.33441466 0.5 4294967295
0.41354275 -0.39807391 0.5 4294967295
0.58512098 0.18269938 0.5 4294967295
0.43304992 -0.019930184 0.5 4294967295
0.34449652 -0.1728895 0.5 4294967295
0.2302383 0.32822132 0.5 4294967295
0.33836621 0.25324202 0.5 4294967295
0.28860372 0.29815704 0.5 4294967295
0.10526388 -0.14973715 0.5 4294967295
0.41941684 -0.043750286 0.5 4294967295
0.067607842 0.014962375 0.5 4294967295
0.11736227 -0.018482476 0.5 4294967295
0.47507015 -0.046019316 0.5 4294967295
0.25863448 0.0047338605 0.5 4294967295
0.34945828 -0.1513918 0.5 4294967295
0.60555565 -0.0010781884 0.5 4294967295
0.35993546 -0.044145107 0.5 4294967295
0.42059353 -0.14991942 0.5 4294967295
0.096987985 -0.28050935 0.5 4294967295
0.58110529 0.13069212 0.5 4294967295
0.38262081 -0.3409377 0.5 4294967295
0.32123944 -0.47001854 0.5 4294967295
0.63861299 0.37120456 0.5 4294967295
0.57969695 -0.43731874 0.5 4294967295
0.15502717 -0.07269454 0.5 4294967295
0.36325169 -0.18195 0.5 4294967295
0.6595875 0.18659133 0.5 4294967295
0.55969727 0.12093955 0.5 4294967295
0.098400421 -0.33095467 0.5 4294967295
0.087971389 0.1397981 0.5 4294967295
0.36235747 0.49075294 0.5 4294967295
0.097103938 -0.46815294 0.5 4294967295
0.31262547 0.23956782 0.5 4294967295
0.26734936 0.085162103 0.5 4294967295
0.67134094 -0.28792191 0.5 4294967295
0.15109797 0.0056596398 0.5 4294967295
0.25979826 0.17476773 0.5 4294967295
0.3749488 -0.21655533 0.5 4294967295
0.38218057 -0.13622037 0.5 4294967295
0.24228816 0.2674396 0.5 4294967295
0.55375957 0.36505687 0.5 4294967295
0.059842747 0.23335296 0.5 4294967295
0.38615379 0.38505715 0.5 4294967295
0.24800473 0.19222027 0.5 4294967295
0.037871763 -0.020034105 0.5 4294967295
0.23241286 0.071756065 0.5 4294967295
0.32950321 -0.029261708 0.5 4294967295
0.42252219 0.41732669 0.5 4294967295
0.14721429 0.48553079 0.5 4294967295
0.35174215 -0.33063537 0.5 4294967295
0.13832621 0.21834302 0.5 4294967295
0.47251698 0.068749249 0.5 4294967295
0.27517754 -0.28933463 0.5 4294967295
0.59653574 0.43908298 0.5 4294967295
0.4021115 -0.30168015 0.5 4294967295
0.49456584 -0.1344699 0.5 4294967295
0.044363718 0.29201227 0.5 4294967295
0.069218136 0.11502498 0.5 4294967295
0.4739486 -0.046824455 0.5 4294967295
0.21507169 0.23117197 0.5 4294967295
0.65319902 0.13926369 0.5 4294967295
0.2120496 -0.096139669 0.5 4294967295
0.077001378 0.40653116 0.5 4294967295
0.22483091 -0.17969188 0.5 4294967295
0.62444335 0.32367581 0.5 4294967295
0.3427709 -0.41032919 0.5 4294967295
0.37941322 -0.33530301 0.5 4294967295
0.46089402 0.43512964 0.5 4294967295
0.26275367 0.010613978 0.5 4294967295
0.61194885 0.44980735 0.5 4294967295
0.49625364 0.080735266 0.5 4294967295
0.22073624 0.27231055 0.5 4294967295
0.26092327 -0.085779488 0.5 4294967295
0.27113488 -0.45018303 0.5 4294967295
0.60717726 0.19458079 0.5 4294967295
0.54669225 0.30053753 0.5 4294967295
0.23369114 -0.41608307 0.5 4294967295
0.14307849 -0.056153536 0.5 4294967295
0.69331366 0.025584877 0.5 4294967295
0.53490818 0.38251001 0.5 4294967295
0.24448249 -0.2461727 0.5 4294967295
0.68052655 0.39127958 0.5 4294967295
0.29296702 0.13060087 0.5 4294967295
0.57848644 0.29388666 0.5 4294967295
0.098850362 0.20062178 0.5 4294967295
0.52058578 0.35014862 0.5 4294967295
0.19694993 -0.44096851 0.5 4294967295
0.43572143 0.15410459 0.5 4294967295
0.33127642 -0.49020532 0.5 4294967295
0.49274504 -0.15935192 0.5 4294967295
0.49306285 -0.015089571 0.5 4294967295
0.098829925 -0.46178001 0.5 4294967295
0.39817914 -0.15441653 0.5 4294967295
0.33744651 0.059275448 0.5 4294967295
0.6098178 -0.25377899 0.5 4294967295
0.30924979 -0.27957097 0.5 4294967295
0.35003379 -0.086033791 0.5 4294967295
0.078196019 0.4185726 0.5 4294967295
0.031196943 0.4381178 0.5 4294967295
0.49872145 -0.31421813 0.5 4294967295
0.44711772 -0.043846756 0.5 4294967295
0.025151331 0.42009664 0.5 4294967295
0.36062932 0.15838963 0.5 4294967295
0.40194085 0.48843676 0.5 4294967295
0.467729 -0.22187728 0.5 4294967295
0.23035939 -0.12744021 0.5 4294967295
0.53412318 -0.029729545 0.5 4294967295
0.28754583 -0.16813949 0.5 4294967295
0.57109773 0.39284623 0.5 4294967295
0.62379515 0.18702227 0.5 4294967295
0.097347043 -0.16707864 0.5 4294967295
0.63521588 0.13911551 0.5 4294967295
0.52282131 -0.48084015 0.5 4294967295
0.39038163 0.29145461 0.5 4294967295
0.67009437 -0.22985271 0.5 4294967295
0.68406558 0.096017241 0.5 4294967295
0.50841039 -0.48683304 0.5 4294967295
0.36127973 -0.2585147 0.5 4294967295
0.47008961 -0.4096849 0.5 4294967295
0.16094545 -0.1602591 0.5 4294967295
0.25790647 0.059006929 0.5 4294967295
0.49861047 -0.36852902 0.5 4294967295
0.020494159 -0.37691954 0.5 4294967295
0.32433206 0.34513128 0.5 4294967295
0.01114866 -0.14553255 0.5 4294967295
0.37250748 -0.34500614 0.5 4294967295
0.48117214 -0.060395211 0.5 4294967295
0.55587655 -0.065723628 0.5 4294967295
0.32113525 -0.1482026 0.5 4294967295
0.1580117 -0.083957702 0.5 4294967295
0.4353613 -0.29703248 0.5 4294967295
0.0084416736 -0.15175474 0.5 4294967295
0.15129413 0.028173387 0.5 4294967295
0.4128114 0.38769108 0.5 4294967295
0.43294194 0.31965262 0.5 4294967295
0.15920238 0.48692632 0.5 4294967295
0.26506168 0.43973267 0.5 4294967295
0.082878113 -0.092063069 0.5 4294967295
0.043969173 0.081728816 0.5 4294967295
0.17714775 -0.42126024 0.5 4294967295
0.65533739 0.28522176 0.5 4294967295
0.16361353 0.12358505 0.5 4294967295
0.15737855 -0.47215703 0.5 4294967295
0.040503003 0.18359119 0.5 4294967295
0.26574826 -0.21640757 0.5 4294967295
0.069743432 -0.49841493 0.5 4294967295
0.34059194 -0.38830698 0.5 4294967295
0.24488126 0.20269442 0.5 4294967295
0.44790649 0.43956089 0.5 4294967295
0.41326985 -0.24164507 0.5 4294967295
0.5314495 0.31781745 0.5 4294967295
0.17169687 -0.36212689 0.5 4294967295
0.53028506 -0.13632146 0.5 4294967295
0.38206702 0.32036322 0.5 4294967295
0.66178513 0.29887825 0.5 4294967295
0.62937212 0.3816036 0.5 4294967295
0.40886995 -0.36716342 0.5 4294967295
0.35363206 0.30892646 0.5 4294967295
0.11247569 0.063050091 0.5 4294967295
0.34476236 0.04031992 0.5 4294967295
0.59264982 0.092151165 0.5 4294967295
0.3793335 -0.16679752 0.5 4294967295
0.49269089 0.39173532 0.5 4294967295
0.025127828 -0.15628943 0.5 4294967295
0.58190739 0.12628239 0.5 4294967295
0.42144585 0.090509832 0.5 4294967295
0.3108699 0.34734672 0.5 4294967295
0.50986809 -0.29835004 0.5 4294967295
0.1477177 -0.22580704 0.5 4294967295
0.015409208 -0.34356737 0.5 4294967295
0.051149849 0.42111611 0.5 4294967295
0.026625365 0.15717119 0.5 4294967295
0.0377669 0.043224931 0.5 4294967295
0.32626835 -0.28536773 0.5 4294967295
0.074392498 0.4586153 0.5 4294967295
0.52846652 0.45291752 0.5 4294967295
0.38553652 -0.20314282 0.5 4294967295
0.200284 -0.2453894 0.5 4294967295
0.13201475 -0.17798311 0.5 4294967295
0.41882485 -0.48011121 0.5 4294967295
0.66380948 -0.29961336 0.5 4294967295
0.42727903 -0.10760087 0.5 4294967295
0.033413377 -0.16121849 0.5 4294967295
0.41583437 -0.24124134 0.5 4294967295
0.42908213 0.11606222 0.5 4294967295
0.29063392 0.18604571 0.5 4294967295
0.37602484 -0.04677245 0.5 4294967295
0.24025181 0.091131091 0.5 4294967295
0.69751674 0.30931455 0.5 4294967295
0.56403434 -0.39727256 0.5 4294967295
0.53755093 0.060715497 0.5 4294967295
0.038951479 -0.18130365 0.5 4294967295
0.60030085 -0.15823501 0.5 4294967295
0.40131488 -0.4538348 0.5 4294967295
0.46464732 -0.32837188 0.5 4294967295
0.046237774 0.11208117 0.5 4294967295
0.26041037 0.17645258 0.5 4294967295
0.0031362129 -0.080251813 0.5 4294967295
0.010663852 0.098529398 0.5 4294967295
0.47495478 0.12820858 0.5 4294967295
0.15021412 -0.40630186 0.5 4294967295
0.21997797 0.25176996 0.5 4294967295
0.38284799 0.15747112 0.5 4294967295
0.24003072 0.043378115 0.5 4294967295
0.32674998 -0.35133564 0.5 4294967295
0.45227391 -0.26528448 0.5 4294967295
0.49656591 0.20175058 0.5 4294967295
0.38738832 0.066952527 0.5 4294967295
0.030460868 -0.37328118 0.5 4294967295
0.42918238 0.20729738 0.5 4294967295
0.20884286 0.17917168 0.5 4294967295
0.22356501 0.17036176 0.5 4294967295
0.24893697 -0.17614111 0.5 4294967295
0.063076943 -0.12914169 0.5 4294967295
0.64567178 0.2686168 0.5 4294967295
0.69934684 -0.36302012 0.5 4294967295
0.60362047 -0.18667886 0.5 4294967295
0.62212491 -0.090759367 0.5 4294967295
0.67955458 -0.26834911 0.5 4294967295
0.66683316 -0.062422067 0.5 4294967295
0.26622066 0.098724365 0.5 4294967295
0.47060543 -0.4103049 0.5 4294967295
0.21033244 -0.27429467 0.5 4294967295
0.45965335 -0.15600958 0.5 4294967295
0.2466969 -0.23023462 0.5 4294967295
0.035901483 0.15077108 0.5 4294967295
0.66425592 -0.12933359 0.5 4294967295
0.22479299 -0.19543871 0.5 4294967295
0.4861677 -0.088757247 0.5 4294967295
0.47279373 0.11691356 0.5 4294967295
0.12590167 0.17448652 0.5 4294967295
0.5277254 -0.45782554 0.5 4294967295
0.69146532 0.14264327 0.5 4294967295
0.31599057 0.45859987 0.5 4294967295
0.61200589 -0.09596613 0.5 4294967295
0.27732447 -0.24539059 0.5 4294967295
0.0019307556 -0.43152875 0.5 4294967295
0.24101317 -0.19676688 0.5 4294967295
0.2059236 -0.49904785 0.5 4294967295
0.45305648 0.14660072 0.5 4294967295
0.18950227 0.19851136 0.5 4294967295
0.20816028 -0.28034544 0.5 4294967295
0.048424453 0.11850464 0.5 4294967295
0.36695111 0.26370311 0.5 4294967295
0.020823199 -0.30036449 0.5 4294967295
0.26643166 -0.29039305 0.5 4294967295
0.61188537 -0.3654899 0.5 4294967295
0.176247 0.3619296 0.5 4294967295
0.54400736 0.20319653 0.5 4294967295
0.57437062 0.15144759 0.5 4294967295
0.075061277 -0.28329271 0.5 4294967295
0.63423991 -0.39001137 0.5 4294967295
0.19962496 -0.24963847 0.5 4294967295
0.28925523 0.079355121 0.5 4294967295
0.17591958 -0.43955472 0.5 4294967295
0.15816909 0.022031188 0.5 4294967295
0.53126967 0.023327708 0.5 4294967295
0.51918006 0.32813448 0.5 4294967295
0.099282645 -0.23409835 0.5 4294967295
0.41428626 -0.32842022 0.5 4294967295
0.325876 0.47245419 0.5 4294967295
0.26683074 -0.16034088 0.5 4294967295
0.074875027 0.13296819 0.5 4294967295
0.14111212 0.38411772 0.5 4294967295
0.23531528 -0.47788179 0.5 4294967295
0.37489572 -0.056604922 0.5 4294967295
0.16717783 -0.058377713 0.5 4294967295
0.38736859 0.024003983 0.5 4294967295
0.48438868 0.46660542 0.5 4294967295
0.072351381 0.44329751 0.5 4294967295
0.018935498 -0.17068505 0.5 4294967295
0.32573012 0.2860074 0.5 4294967295
0.59684986 -0.29298547 0.5 4294967295
0.42989928 0.49447501 0.5 4294967295
0.33104134 -0.29402059 0.5 4294967295
0.11623834 0.43845338 0.5 4294967295
0.12490353 0.047241509 0.5 4294967295
0.19467872 -0.21460205 0.5 4294967295
0.12614678 -0.020298779 0.5 4294967295
0.11866096 0.01637435 0.5 4294967295
0.3512736 0.20508099 0.5 4294967295
0.67183858 0.24064487 0.5 4294967295
0.10269228 0.013153136 0.5 4294967295
