# .PCD v0.7 - Point Cloud Data file format
VERSION 0.7
FIELDS x y z rgba
SIZE 4 4 4 4
TYPE F F F U
COUNT 1 1 1 1
WIDTH 205
HEIGHT 1
VIEWPOINT 0 0 0 1 0 0 0
POINTS 205
DATA ascii
-0.47795701 0.83333403 -0.27768901 16777215
-0.478744 0.83329803 -0.27643901 16777215
-0.48043501 0.83278197 -0.275056 16777215
-0.48113099 0.83057499 -0.28046 16777215
-0.47789201 0.83130503 -0.28381601 16777215
-0.48464501 0.83037198 -0.27495801 16777215
-0.47221601 0.83762598 -0.27457899 16777215
-0.46967101 0.83761799 -0.278936 16777215
-0.472148 0.83412701 -0.285146 16777215
-0.469787 0.83660501 -0.281766 16777215
-0.474049 0.83255798 -0.28657499 16777215
-0.477097 0.83039403 -0.28779399 16777215
-0.48726001 0.82875699 -0.27520701 16777215
-0.47457501 0.83155501 -0.28860801 16777215
-0.48740399 0.82989901 -0.27148801 16777215
-0.46767101 0.83920598 -0.27752 16777215
-0.46860701 0.84003699 -0.273397 16777215
-0.47666699 0.83003902 -0.28952301 16777215
-0.48993701 0.82699001 -0.275769 16777215
-0.46509099 0.84011698 -0.27909499 16777215
-0.465027 0.84024602 -0.27881399 16777215
-0.48925301 0.82985598 -0.26827201 16777215
-0.48845401 0.82479101 -0.284839 16777215
-0.47937301 0.83741099 -0.26257399 16777215
-0.48119599 0.83667201 -0.261592 16777215
-0.467426 0.83487099 -0.290694 16777215
-0.469632 0.84199798 -0.26549 16777215
-0.47567499 0.839764 -0.26178199 16777215
-0.483803 0.835307 -0.26114601 16777215
-0.47106999 0.83139098 -0.29475901 16777215
-0.481527 0.82522202 -0.295196 16777215
-0.48470199 0.83538598 -0.25921699 16777215
-0.46141201 0.83959299 -0.286677 16777215
-0.48794201 0.82279301 -0.291419 16777215
-0.468678 0.84330398 -0.263019 16777215
-0.46858799 0.84342498 -0.262793 16777215
-0.47854301 0.83945298 -0.257516 16777215
-0.479426 0.82557303 -0.29762599 16777215
-0.46315399 0.83630902 -0.293387 16777215
-0.461613 0.845182 -0.26940799 16777215
-0.48851401 0.83339101 -0.25848401 16777215
-0.487634 0.83405697 -0.25799701 16777215
-0.47971699 0.82512301 -0.298401 16777215
-0.45924199 0.845671 -0.27191401 16777215
-0.46236801 0.84584701 -0.266004 16777215
-0.45754299 0.84292799 -0.283066 16777215
-0.473133 0.84276903 -0.25668201 16777215
-0.45979601 0.84608102 -0.269692 16777215
-0.49231699 0.82028598 -0.29112801 16777215
-0.49766499 0.82512599 -0.267387 16777215
-0.497688 0.82510102 -0.267423 16777215
-0.491934 0.83134401 -0.258589 16777215
-0.46798801 0.84480703 -0.25940201 16777215
-0.496555 0.81972498 -0.28545401 16777215
-0.463761 0.834409 -0.297804 16777215
-0.48989299 0.820364 -0.29497001 16777215
-0.46531001 0.84634399 -0.25920799 16777215
-0.455964 0.84194201 -0.288497 16777215
-0.47481999 0.82643998 -0.30256101 16777215
-0.456462 0.84088099 -0.29079399 16777215
-0.455881 0.84138501 -0.29024699 16777215
-0.454842 0.84280401 -0.28775099 16777215
-0.45403799 0.84628397 -0.27866501 16777215
-0.45714 0.84808201 -0.26791799 16777215
-0.45412901 0.84371603 -0.28619799 16777215
-0.48041001 0.82306999 -0.30292201 16777215
-0.471407 0.82795501 -0.30375499 16777215
-0.49413601 0.81818002 -0.29395601 16777215
-0.48627901 0.83684099 -0.25145501 16777215
-0.50224602 0.819812 -0.27506 16777215
-0.496842 0.81758302 -0.29104301 16777215
-0.46347299 0.83314002 -0.301779 16777215
-0.485939 0.83724397 -0.25076899 16777215
-0.48104 0.840231 -0.25022301 16777215
-0.462304 0.83387101 -0.30155301 16777215
-0.460547 0.83525503 -0.30040801 16777215
-0.47870201 0.84174299 -0.249624 16777215
-0.49781501 0.828453 -0.25660399 16777215
-0.45701399 0.84928399 -0.26429901 16777215
-0.49928299 0.81664401 -0.289498 16777215
-0.49057999 0.818205 -0.29978701 16777215
-0.496144 0.83014899 -0.25434801 16777215
-0.470833 0.82743001 -0.30606499 16777215
-0.47144899 0.84539098 -0.25109601 16777215
-0.45167199 0.84844398 -0.27592701 16777215
-0.452663 0.84945101 -0.27116099 16777215
-0.494138 0.83224201 -0.251396 16777215
-0.47483501 0.84421402 -0.248667 16777215
-0.45034599 0.84667802 -0.283416 16777215
-0.45561999 0.83847398 -0.298951 16777215
-0.48306599 0.83988398 -0.247472 16777215
-0.46796101 0.847229 -0.251425 16777215
-0.46449801 0.84856302 -0.253342 16777215
-0.464968 0.84842598 -0.252938 16777215
-0.46747401 0.828852 -0.30736399 16777215
-0.50534499 0.82014298 -0.26831299 16777215
-0.50656801 0.81804597 -0.27237901 16777215
-0.50229901 0.82569498 -0.25675499 16777215
-0.497536 0.83025002 -0.25128299 16777215
-0.47284099 0.84571701 -0.247355 16777215
-0.49641901 0.81497502 -0.29897201 16777215
-0.46844101 0.82750899 -0.30950201 16777215
-0.450793 0.85127097 -0.268558 16777215
-0.49342301 0.83382303 -0.24753401 16777215
-0.44884601 0.84497797 -0.29077399 16777215
-0.46081701 0.83269602 -0.30702701 16777215
-0.45868301 0.834315 -0.30582601 16777215
-0.49948999 0.81415999 -0.29606199 16777215
-0.50656098 0.814735 -0.28213999 16777215
-0.48131901 0.82008398 -0.30950701 16777215
-0.50735301 0.81475699 -0.28064901 16777215
-0.49450499 0.81487697 -0.30239201 16777215
-0.44741201 0.85068703 -0.27595901 16777215
-0.46077299 0.85084599 -0.25248501 16777215
-0.50870198 0.81567001 -0.27550799 16777215
-0.44669601 0.84728402 -0.28735399 16777215
-0.498622 0.81356901 -0.299135 16777215
-0.50735497 0.82138097 -0.26062199 16777215
-0.44624501 0.85042298 -0.278649 16777215
-0.471113 0.84736502 -0.245 16777215
-0.49042699 0.81565899 -0.30689099 16777215
-0.458819 0.85180098 -0.25282201 16777215
-0.49859801 0.83067399 -0.247751 16777215
-0.48226801 0.81894398 -0.31104299 16777215
-0.46901 0.82606798 -0.312475 16777215
-0.48254001 0.81877398 -0.311068 16777215
-0.449714 0.853001 -0.264853 16777215
-0.50471097 0.82512599 -0.25384 16777215
-0.476603 0.84493297 -0.242772 16777215
-0.45086801 0.85312003 -0.26249701 16777215
-0.50754899 0.82189399 -0.25861901 16777215
-0.476996 0.84495097 -0.241933 16777215
-0.510288 0.81332397 -0.27948299 16777215
-0.482959 0.81809199 -0.31221101 16777215
-0.51089001 0.81844199 -0.26295301 16777215
-0.50328702 0.82761198 -0.24851499 16777215
-0.510306 0.81978703 -0.25987899 16777215
-0.498954 0.811858 -0.303202 16777215
-0.48684299 0.81586999 -0.31199399 16777215
-0.44294199 0.851713 -0.27997801 16777215
-0.48948899 0.81475598 -0.310763 16777215
-0.45728701 0.83290797 -0.31169301 16777215
-0.44913 0.85469198 -0.26035401 16777215
-0.44472501 0.85398 -0.270071 16777215
-0.50775301 0.823596 -0.25273901 16777215
-0.460976 0.85241598 -0.246757 16777215
-0.45509499 0.83449101 -0.310664 16777215
-0.512707 0.81583297 -0.26748401 16777215
-0.474363 0.82153201 -0.316329 16777215
-0.44268599 0.85351902 -0.27483499 16777215
-0.51123601 0.81970602 -0.25830099 16777215
-0.44444501 0.85495901 -0.26741999 16777215
-0.49885401 0.83240098 -0.241358 16777215
-0.465734 0.82601202 -0.31748301 16777215
-0.447144 0.85607898 -0.25920999 16777215
-0.49737999 0.833727 -0.23981801 16777215
-0.44137099 0.847745 -0.29414299 16777215
-0.44050401 0.853706 -0.277744 16777215
-0.472307 0.82185 -0.31857201 16777215
-0.51253301 0.80880702 -0.288344 16777215
-0.51479501 0.81660098 -0.26105201 16777215
-0.51595199 0.81299102 -0.269889 16777215
-0.51289803 0.819763 -0.254803 16777215
-0.51149702 0.80837899 -0.29136801 16777215
-0.51532 0.81014198 -0.27948999 16777215
-0.50588799 0.82742 -0.243828 16777215
-0.51177299 0.80818498 -0.291419 16777215
-0.44053999 0.84701103 -0.29748601 16777215
-0.509691 0.82406801 -0.24723899 16777215
-0.46122801 0.853854 -0.241249 16777215
-0.45456499 0.85601503 -0.246189 16777215
-0.442653 0.85742003 -0.26246801 16777215
-0.51191199 0.82194602 -0.24970099 16777215
-0.51726598 0.81059998 -0.274524 16777215
-0.477588 0.846834 -0.23405699 16777215
-0.46542901 0.85245901 -0.238097 16777215
-0.506522 0.80743903 -0.302452 16777215
-0.51547402 0.81763202 -0.256446 16777215
-0.50961602 0.80709797 -0.29813501 16777215
-0.479361 0.81693602 -0.32067001 16777215
-0.48617101 0.84215403 -0.23327 16777215
-0.49927101 0.83343297 -0.236893 16777215
-0.50037402 0.832766 -0.23691 16777215
-0.46404299 0.85325098 -0.237965 16777215
-0.44121301 0.85798901 -0.263033 16777215
-0.44550201 0.83965302 -0.310662 16777215
-0.46572599 0.82426298 -0.322009 16777215
-0.436919 0.85633302 -0.27531001 16777215
-0.459528 0.828224 -0.32074699 16777215
-0.449458 0.83574498 -0.315465 16777215
-0.47022101 0.82123297 -0.32321501 16777215
-0.46471 0.824503 -0.32286099 16777215
-0.490004 0.81140798 -0.31861201 16777215
-0.44096801 0.85885 -0.26062 16777215
-0.46350801 0.85394102 -0.236525 16777215
-0.50529701 0.80645102 -0.30710399 16777215
-0.43496001 0.85387301 -0.28584999 16777215
-0.52011698 0.81002402 -0.27081299 16777215
-0.434872 0.85617697 -0.27901101 16777215
-0.43802699 0.85879397 -0.265717 16777215
-0.47790599 0.84757 -0.230719 16777215
-0.50819898 0.82733899 -0.23925599 16777215
-0.50222701 0.806692 -0.31147501 16777215
-0.43731201 0.859124 -0.26582599 16777215
-0.438586 0.84501201 -0.30593699 16777215
