# .PCD v0.7 - Point Cloud Data file format
VERSION 0.7
FIELDS x y z rgba
SIZE 4 4 4 4
TYPE F F F U
COUNT 1 1 1 1
WIDTH 314
HEIGHT 1
VIEWPOINT 0 0 0 1 0 0 0
POINTS 314
DATA ascii
0.0080230003 0.214855 -0.90293097 16777215
0.010459 0.214848 -0.90291297 16777215
0.010132 0.215819 -0.90199 16777215
0.0079070004 0.21703801 -0.90084201 16777215
0.011141 0.215538 -0.90224701 16777215
0.0066979998 0.21788999 -0.900029 16777215
0.011904 0.217646 -0.90021002 16777215
0.00194 0.215966 -0.90190399 16777215
0.016233001 0.212862 -0.90470803 16777215
0.0087280003 0.22122601 -0.89674997 16777215
0.000397 0.21073399 -0.90684301 16777215
0.014488 0.20956001 -0.90781498 16777215
0.015222 0.219533 -0.89832598 16777215
0.015063 0.20919199 -0.90814501 16777215
-0.002445 0.215189 -0.90264499 16777215
0.008742 0.22245 -0.89553702 16777215
0.0077760001 0.206963 -0.91027701 16777215
0.00096199999 0.208799 -0.90863103 16777215
-0.0028850001 0.216351 -0.90153199 16777215
0.0034789999 0.222473 -0.89555001 16777215
0.019370999 0.21281999 -0.90468502 16777215
0.01091 0.22303 -0.89493698 16777215
0.02001 0.21448299 -0.903099 16777215
0.01991 0.21349899 -0.90403301 16777215
0.002875 0.223326 -0.89470398 16777215
0.018060001 0.220707 -0.89712203 16777215
0.018274 0.208804 -0.90844399 16777215
0.015461 0.22270299 -0.89519501 16777215
0.021360001 0.21582501 -0.90178901 16777215
0.018391 0.208318 -0.90888703 16777215
-0.0054319999 0.213149 -0.90456599 16777215
-0.0059770001 0.215046 -0.90276599 16777215
0.022136999 0.212724 -0.90471202 16777215
3.5000001e-05 0.223579 -0.89445502 16777215
0.0084119998 0.204063 -0.91288698 16777215
0.014806 0.224227 -0.89368302 16777215
0.0060680001 0.20391899 -0.91303402 16777215
-0.0072659999 0.213581 -0.90414602 16777215
-0.0065040002 0.219072 -0.89888102 16777215
0.020615 0.222477 -0.895316 16777215
0.022026001 0.22119699 -0.89655 16777215
-0.000191 0.22553401 -0.89249003 16777215
-0.0068580001 0.221146 -0.89684498 16777215
-0.0067989998 0.208224 -0.90913397 16777215
-0.005289 0.223001 -0.89501601 16777215
0.026032001 0.2173 -0.90024698 16777215
0.026564 0.213971 -0.90341502 16777215
-0.00075900002 0.226744 -0.89126199 16777215
-0.0048110001 0.224838 -0.893179 16777215
0.0036859999 0.228159 -0.88981003 16777215
-0.011316 0.216021 -0.90178299 16777215
-0.011245 0.213093 -0.90456599 16777215
-0.0089290002 0.22169501 -0.89628398 16777215
0.0072260001 0.22867601 -0.889256 16777215
0.010895 0.200601 -0.91592503 16777215
0.001603 0.201225 -0.91544002 16777215
0.014176 0.201057 -0.91548002 16777215
-0.0056889998 0.20429701 -0.91269797 16777215
-0.010405 0.20867901 -0.908683 16777215
-0.012193 0.215995 -0.90179598 16777215
0.023329001 0.204954 -0.91182798 16777215
0.012766 0.200202 -0.91624999 16777215
0.023845 0.205311 -0.91149402 16777215
-0.012115 0.217025 -0.90080702 16777215
-0.0039009999 0.226714 -0.89128399 16777215
0.018998001 0.227102 -0.89069498 16777215
0.002725 0.22906999 -0.88887602 16777215
-0.0060459999 0.22598501 -0.89201301 16777215
0.010793 0.22972099 -0.88814199 16777215
0.015791001 0.22879601 -0.88902199 16777215
-0.0080549996 0.20459101 -0.91241801 16777215
-0.012385 0.21007 -0.90737498 16777215
-0.013258 0.21840499 -0.89945602 16777215
-0.011411 0.20694099 -0.91025901 16777215
0.030141 0.21739499 -0.90002698 16777215
0.017393 0.199642 -0.91666299 16777215
0.026116 0.22437 -0.89328098 16777215
0.017153 0.229471 -0.88830101 16777215
0.012336 0.23088101 -0.88691902 16777215
0.002993 0.19814999 -0.91811597 16777215
0.003124 0.23114599 -0.88672298 16777215
-0.014363 0.22013301 -0.89775199 16777215
0.010121 0.197339 -0.918764 16777215
0.013545 0.231177 -0.88659197 16777215
0.020695999 0.229039 -0.88867098 16777215
0.0030199999 0.197565 -0.91861999 16777215
0.031665001 0.21094599 -0.906093 16777215
0.031342998 0.20996501 -0.90701598 16777215
-0.016385 0.215922 -0.90179902 16777215
0.032547999 0.216011 -0.90127599 16777215
0.012771 0.23202001 -0.88572198 16777215
-0.016658001 0.213056 -0.90451699 16777215
-0.001723 0.197763 -0.91845298 16777215
-0.012506 0.225183 -0.89275599 16777215
0.032892998 0.21752 -0.89981002 16777215
0.021880999 0.229801 -0.88785499 16777215
-0.01078 0.227036 -0.890899 16777215
-0.0022470001 0.23149601 -0.88635999 16777215
-0.0073330002 0.199568 -0.91686201 16777215
-0.015842 0.207349 -0.90982199 16777215
0.012475 0.195829 -0.92002702 16777215
-0.017415 0.210869 -0.90654999 16777215
-0.013791 0.20398501 -0.91289097 16777215
0.017345 0.196455 -0.91941398 16777215
0.021017 0.197624 -0.91833401 16777215
-0.018509001 0.216648 -0.901061 16777215
-0.018022999 0.210641 -0.90675002 16777215
0.034887999 0.215973 -0.90122402 16777215
-0.0068029999 0.19806799 -0.918167 16777215
0.031089 0.204059 -0.91239899 16777215
-0.00095000002 0.19575 -0.920178 16777215
0.0048949998 0.19471601 -0.92104203 16777215
-0.019249 0.21543799 -0.902206 16777215
-0.0022519999 0.196072 -0.91990101 16777215
0.032051999 0.20498 -0.91154099 16777215
-0.0072090002 0.19773901 -0.91844702 16777215
0.034056 0.20737299 -0.90930003 16777215
-0.019928999 0.216446 -0.90122598 16777215
0.019455001 0.23286401 -0.88471401 16777215
0.02977 0.22725999 -0.890239 16777215
0.026287001 0.22996999 -0.88756001 16777215
0.034407999 0.22215199 -0.89521497 16777215
0.032536998 0.20371 -0.91266102 16777215
0.036269002 0.218062 -0.89915502 16777215
0.036015 0.209876 -0.90692401 16777215
0.01116 0.235001 -0.88259399 16777215
0.025606001 0.230988 -0.88652301 16777215
0.00056299998 0.23488601 -0.882788 16777215
0.014912 0.23498601 -0.88255501 16777215
0.037620999 0.215702 -0.90137398 16777215
0.019613 0.23429599 -0.88319701 16777215
0.034917999 0.224189 -0.89316201 16777215
0.037604999 0.210044 -0.90670401 16777215
0.038010001 0.21154 -0.905294 16777215
0.018926 0.234762 -0.88271701 16777215
-0.012847 0.19832601 -0.91787899 16777215
0.005262 0.192037 -0.92328697 16777215
0.038621001 0.216344 -0.90071601 16777215
0.037969001 0.219465 -0.89771903 16777215
0.024888 0.23306 -0.88437098 16777215
0.0070440001 0.1917 -0.92355502 16777215
-0.022050001 0.208609 -0.908539 16777215
0.026761999 0.195939 -0.91962802 16777215
-0.021896999 0.207618 -0.90944999 16777215
0.027992999 0.19649699 -0.91911501 16777215
-0.0047439998 0.23521701 -0.88242197 16777215
0.0034650001 0.237204 -0.88029802 16777215
0.040298998 0.215248 -0.90169197 16777215
0.018502999 0.23628899 -0.88109499 16777215
0.021740001 0.19277599 -0.92242998 16777215
-0.023712 0.22028001 -0.89740998 16777215
0.019648001 0.236238 -0.88112497 16777215
-0.016337 0.19862799 -0.91756302 16777215
-0.025103001 0.21547499 -0.90202701 16777215
-0.010025 0.23469999 -0.88292801 16777215
-0.019373 0.22853 -0.88922501 16777215
-0.021384999 0.226356 -0.89139998 16777215
-0.024525 0.208564 -0.908517 16777215
0.016068 0.190365 -0.924546 16777215
0.035340998 0.199909 -0.91591299 16777215
0.0414 0.218187 -0.89881301 16777215
-0.02506 0.22051799 -0.89713901 16777215
0.022769 0.191743 -0.92326599 16777215
0.001734 0.18974601 -0.92519301 16777215
-0.017997 0.230536 -0.88718098 16777215
-0.013182 0.19483601 -0.92085898 16777215
0.0087700002 0.189161 -0.92563301 16777215
-0.026134999 0.216959 -0.90057302 16777215
-0.019355999 0.199036 -0.91715002 16777215
0.010813 0.239263 -0.87800598 16777215
0.037838001 0.227513 -0.88967401 16777215
-0.018967001 0.230819 -0.88686597 16777215
-0.013163 0.19337 -0.922095 16777215
-0.027135 0.209904 -0.90720803 16777215
0.0052100001 0.239921 -0.87734002 16777215
0.014576 0.23983 -0.87733299 16777215
0.037294 0.22987001 -0.88726997 16777215
0.044172 0.218114 -0.89875197 16777215
0.042029001 0.224214 -0.89283103 16777215
0.006693 0.24086 -0.87629902 16777215
-0.029030001 0.210648 -0.90645897 16777215
-0.012909 0.19144399 -0.92370498 16777215
-0.023486 0.229359 -0.88827097 16777215
0.024264 0.238535 -0.87853003 16777215
0.046052001 0.21806 -0.898709 16777215
0.001058 0.241265 -0.87587798 16777215
0.019105 0.240602 -0.87640101 16777215
0.019401001 0.187012 -0.92721599 16777215
-0.013373 0.23747 -0.87991703 16777215
0.041581001 0.200102 -0.91548198 16777215
0.022864999 0.23982701 -0.87716001 16777215
0.046610001 0.21088099 -0.90550798 16777215
-0.00036800001 0.18622801 -0.92804998 16777215
-0.029581999 0.20703 -0.909769 16777215
-0.023126001 0.23149499 -0.88606203 16777215
-0.016040999 0.191732 -0.92341697 16777215
0.0095060002 0.185362 -0.92869401 16777215
-0.021929 0.232673 -0.884857 16777215
0.020274 0.240858 -0.87609297 16777215
0.045396 0.20497601 -0.91097701 16777215
-0.025940999 0.229003 -0.88857001 16777215
0.039611999 0.231519 -0.88545299 16777215
0.022852 0.24061 -0.876302 16777215
0.026913 0.239289 -0.87763298 16777215
-0.010145 0.239721 -0.87751502 16777215
-0.031764999 0.21144301 -0.905626 16777215
-0.028826 0.203117 -0.91331398 16777215
0.045965001 0.20478 -0.91112399 16777215
0.010584 0.2428 -0.87411702 16777215
0.031126 0.189825 -0.92460698 16777215
0.046603002 0.20555501 -0.910393 16777215
0.043593001 0.200048 -0.91543603 16777215
0.028155001 0.23925801 -0.87762702 16777215
0.034770001 0.19175801 -0.92287999 16777215
0.047272999 0.206605 -0.90940797 16777215
0.028051 0.18812101 -0.92609602 16777215
-0.029654 0.22552501 -0.89200598 16777215
-0.031072 0.20632701 -0.91035801 16777215
-0.028765 0.201506 -0.91474301 16777215
-0.001408 0.24259201 -0.87441099 16777215
-0.03111 0.22326 -0.89423198 16777215
0.020653 0.242019 -0.87480301 16777215
0.042454001 0.230281 -0.886612 16777215
-0.030595999 0.224674 -0.89283198 16777215
0.028666999 0.187952 -0.92621499 16777215
-0.029532 0.202196 -0.91410798 16777215
0.039096002 0.19418401 -0.92067498 16777215
-0.0092479996 0.186543 -0.927751 16777215
-0.0026219999 0.1847 -0.92926699 16777215
0.003614 0.183649 -0.93009597 16777215
-0.031468 0.224144 -0.893336 16777215
0.012095 0.183412 -0.93021202 16777215
0.023351001 0.241999 -0.87475801 16777215
0.045798998 0.20054901 -0.91488898 16777215
-0.0025859999 0.184103 -0.92974001 16777215
-0.030944001 0.226523 -0.89095002 16777215
-0.031853002 0.22514699 -0.89231199 16777215
0.044532001 0.198107 -0.91707802 16777215
0.007975 0.244515 -0.87223101 16777215
-0.034545001 0.21735001 -0.89991301 16777215
0.0019759999 0.18285801 -0.93072402 16777215
0.046477001 0.22767299 -0.88910103 16777215
-0.03418 0.219963 -0.89738297 16777215
0.050731 0.21058901 -0.90555799 16777215
0.035728 0.18986499 -0.92440701 16777215
0.010522 0.182317 -0.93109202 16777215
-0.022221001 0.236476 -0.88080698 16777215
0.040128 0.19257499 -0.92198098 16777215
0.050809 0.21968099 -0.89687198 16777215
-0.019734999 0.189698 -0.92502397 16777215
0.051723 0.21273001 -0.90349799 16777215
0.050197002 0.20527001 -0.91046 16777215
-0.031410001 0.19971199 -0.916228 16777215
0.042509999 0.233978 -0.88272798 16777215
-0.006755 0.183321 -0.93033701 16777215
-0.027659999 0.233218 -0.88412303 16777215
-0.022334 0.190576 -0.92424202 16777215
0.0053900001 0.245599 -0.87103099 16777215
0.012999 0.18101799 -0.932073 16777215
0.043589 0.193872 -0.92073601 16777215
0.029243 0.184769 -0.92875499 16777215
0.025442 0.24361099 -0.87290698 16777215
-0.0025919999 0.245336 -0.87134099 16777215
-0.023956001 0.190816 -0.92400402 16777215
0.041657001 0.191772 -0.92258298 16777215
-0.033266999 0.228002 -0.88935602 16777215
0.010517 0.180362 -0.93261302 16777215
0.053624999 0.214086 -0.90210497 16777215
0.028232001 0.183708 -0.92962801 16777215
-0.019772001 0.187279 -0.92699301 16777215
-0.010483 0.183072 -0.93049902 16777215
0.0086709997 0.24682701 -0.86961597 16777215
0.037950002 0.188032 -0.925816 16777215
-0.012161 0.18336301 -0.93024999 16777215
0.037381001 0.187281 -0.92644799 16777215
-0.031341001 0.195802 -0.91960001 16777215
0.052912999 0.204161 -0.91130298 16777215
0.03782 0.239813 -0.87665701 16777215
-0.024272 0.189211 -0.92531502 16777215
-0.01997 0.186433 -0.92767 16777215
0.012996 0.24715699 -0.86918598 16777215
0.054175001 0.207559 -0.908153 16777215
-0.033234999 0.197679 -0.91792601 16777215
0.055245001 0.21230599 -0.90368801 16777215
0.031498 0.183612 -0.92959899 16777215
0.050335001 0.19813 -0.916758 16777215
-0.00086600002 0.24734899 -0.86906499 16777215
0.039168 0.23981699 -0.87659502 16777215
0.055845998 0.21642099 -0.89973801 16777215
0.033879999 0.184019 -0.92919302 16777215
0.0047900002 0.248078 -0.86821997 16777215
-0.01417 0.182437 -0.93094897 16777215
0.0051210001 0.248173 -0.86811 16777215
0.001759 0.247977 -0.86834699 16777215
0.053250998 0.201581 -0.91357797 16777215
0.056371 0.216318 -0.899804 16777215
-0.040008999 0.219228 -0.89786202 16777215
-0.013214 0.245096 -0.87151402 16777215
-0.03864 0.204647 -0.91158402 16777215
0.030529 0.181876 -0.93099499 16777215
0.053213999 0.200482 -0.91454703 16777215
-0.032171998 0.234262 -0.88286501 16777215
-0.022290001 0.18579499 -0.92812902 16777215
-0.033116002 0.194756 -0.92042601 16777215
-0.033032998 0.19460399 -0.92055798 16777215
0.020105001 0.178506 -0.93388402 16777215
0.050898001 0.196055 -0.91850901 16777215
-0.029007999 0.190211 -0.92435801 16777215
-0.024596 0.240707 -0.87614799 16777215
0.018323001 0.24826699 -0.86782402 16777215
0.053133 0.228706 -0.88766599 16777215
0.040568002 0.18618301 -0.92719901 16777215
-0.021133 0.24278399 -0.87394297 16777215
0.033769999 0.24416199 -0.87200898 16777215
