# .PCD v0.7 - Point Cloud Data file format
VERSION 0.7
FIELDS x y z rgba
SIZE 4 4 4 4
TYPE F F F U
COUNT 1 1 1 1
WIDTH 82
HEIGHT 1
VIEWPOINT 0 0 0 1 0 0 0
POINTS 82
DATA ascii
-1.971199 -3.4465538e-07 3.8856256 0
-1.971199 -0 3.8856256 0
-1.9708335 -1.7229574e-07 3.8841848 0
-1.9717336 -1.7237443e-07 3.8877332 0
-1.970299 -0 3.8820782 0
-1.970299 -3.4449803e-07 3.8820782 0
-1.9720991 -0 3.8891747 0
-1.9720991 -3.4481275e-07 3.8891747 0
-1.9699335 -1.7221706e-07 3.8806381 0
-1.9726336 -1.7245311e-07 3.8912833 0
-1.969399 -0 3.8785324 0
-1.969399 -3.4434066e-07 3.8785324 0
-1.9729991 -0 3.8927255 0
-1.9729991 -3.4497012e-07 3.8927255 0
-1.9690335 -1.7213837e-07 3.8770928 0
-1.9735336 -1.7253178e-07 3.894835 0
-1.9684989 -0 3.8749881 0
-1.9684989 -3.4418329e-07 3.8749881 0
-1.9738991 -0 3.8962777 0
-1.9738991 -3.4512749e-07 3.8962777 0
-1.9681334 -1.7205969e-07 3.8735492 0
-1.9744337 -1.7261047e-07 3.8983884 0
-1.9675989 -0 3.8714454 0
-1.9675989 -3.4402592e-07 3.8714454 0
-1.9747992 -0 3.8998318 0
-1.9747992 -3.4528486e-07 3.8998318 0
-1.9672334 -1.7198101e-07 3.8700073 0
-1.9753337 -1.7268916e-07 3.9019432 0
-1.9666989 -0 3.8679044 0
-1.9666989 -3.4386855e-07 3.8679044 0
-1.9756992 -0 3.9033873 0
-1.9756992 -3.4544223e-07 3.9033873 0
-1.9663334 -1.7190233e-07 3.866467 0
-1.9762337 -1.7276784e-07 3.9054997 0
-1.9657989 -0 3.8643651 0
-1.9657989 -3.4371118e-07 3.8643651 0
-1.9765992 -0 3.9069445 0
-1.9765992 -3.4559957e-07 3.9069445 0
-1.9654334 -1.7182364e-07 3.8629284 0
-1.9771338 -1.7284653e-07 3.9090579 0
-1.9648988 -0 3.8608274 0
-1.9648988 -3.4355384e-07 3.8608274 0
-1.9774992 -0 3.9105034 0
-1.9774992 -3.4575694e-07 3.9105034 0
-1.9645333 -1.7174496e-07 3.8593912 0
-1.9780338 -1.7292521e-07 3.9126177 0
-1.9639988 -0 3.8572912 0
-1.9639988 -3.4339647e-07 3.8572912 0
-1.9783993 -0 3.9140637 0
-1.9783993 -3.4591432e-07 3.9140637 0
-1.9636333 -1.7166627e-07 3.8558557 0
-1.9789338 -1.7300388e-07 3.9161789 0
-1.9630988 -0 3.8537567 0
-1.9630988 -3.4323909e-07 3.8537567 0
-1.9792993 -0 3.9176257 0
-1.9792993 -3.4607169e-07 3.9176257 0
-1.9627333 -1.7158759e-07 3.8523219 0
-1.9798338 -1.7308257e-07 3.9197421 0
-1.9621987 -0 3.8502238 0
-1.9621987 -3.4308172e-07 3.8502238 0
-1.9801993 -0 3.9211893 0
-1.9801993 -3.4622906e-07 3.9211893 0
-1.9618332 -1.7150892e-07 3.8487897 0
-1.9807339 -1.7316125e-07 3.9233067 0
-1.9612987 -0 3.8466926 0
-1.9612987 -3.4292435e-07 3.8466926 0
-1.9810994 -0 3.9247546 0
-1.9810994 -3.4638643e-07 3.9247546 0
-1.9609332 -1.7143023e-07 3.845259 0
-1.9816339 -1.7323994e-07 3.926873 0
-1.9603987 -0 3.843163 0
-1.9603987 -3.4276698e-07 3.843163 0
-1.9819994 -0 3.9283216 0
-1.9819994 -3.4654377e-07 3.9283216 0
-1.9600332 -1.7135154e-07 3.8417301 0
-1.9825339 -1.7331863e-07 3.9304409 0
-1.9594986 -0 3.8396349 0
-1.9594986 -3.4260964e-07 3.8396349 0
-1.9828994 -0 3.9318902 0
-1.9828994 -3.4670114e-07 3.9318902 0
-1.9591331 -1.7127286e-07 3.8382027 0
-1.983434 -1.7339731e-07 3.9340103 0
