# .PCD v0.7 - Point Cloud Data file format
VERSION 0.7
FIELDS x y z rgba
SIZE 4 4 4 4
TYPE F F F U
COUNT 1 1 1 1
WIDTH 200
HEIGHT 1
VIEWPOINT 0 0 0 1 0 0 0
POINTS 200
DATA ascii
-0.184287 0.86853701 -0.46008801 16777215
0.774028 -0.014678 -0.632981 16777215
0.63592201 0.16180401 -0.754601 16777215
0.80031002 0.23722 -0.55066401 16777215
0.91236198 0.280415 -0.29826701 16777215
0.98922002 0.039779998 -0.14093 16777215
0.96120298 0.27334699 -0.03703 16777215
0.99071401 0.051656 0.12577 16777215
0.28928199 -0.50807297 -0.81128103 16777215
0.829817 0.27702999 0.48441499 16777215
0.91749799 0.055875 0.39379501 16777215
0.63546097 -0.116276 0.76332802 16777215
0.64049 0.30554101 0.70456898 16777215
0.53800797 0.11179 0.83549398 16777215
-0.170628 0.086221002 -0.981556 16777215
-0.354756 -0.73806399 -0.57394201 16777215
0.628398 0.42404601 -0.65215099 16777215
0.76563698 0.47145301 -0.43764201 16777215
0.54992503 -0.72966403 0.40641499 16777215
0.67763102 0.67343199 -0.29547399 16777215
0.847413 0.49835601 -0.183119 16777215
0.86943001 0.488206 0.075801 16777215
0.60941499 -0.144752 -0.77952498 16777215
0.56488299 0.690889 0.451197 16777215
0.69294602 0.48685199 0.53179002 16777215
0.41158599 0.35541999 0.83920997 16777215
0.010542 0.58470899 0.81117499 16777215
0.15723 0.37469101 0.91372001 16777215
0.01273 0.310763 -0.95040202 16777215
0.21157201 0.46117899 -0.86171401 16777215
0.134634 0.674676 -0.72573102 16777215
0.55587 0.64757198 -0.521209 16777215
0.437812 0.82796103 -0.35043001 16777215
0.73128498 0.68181002 -0.018893 16777215
0.55223501 0.82398099 -0.126853 16777215
0.66656297 0.711685 0.22180501 16777215
-0.76553398 0.42007399 0.487335 16777215
0.39879999 0.850362 0.34328401 16777215
0.32894701 0.74743599 0.57717699 16777215
0.49087799 0.54840797 0.67696899 16777215
0.257227 0.58146101 0.77183998 16777215
0.29424101 0.141729 0.94516402 16777215
-0.126708 0.72491801 -0.67708099 16777215
-0.92163301 -0.058334999 -0.38365301 16777215
0.062112998 0.84912902 -0.52451998 16777215
0.19429301 0.92681301 -0.321354 16777215
0.075209998 0.99599898 -0.048255 16777215
0.27904701 0.20914 -0.937226 16777215
0.40391499 -0.106558 0.90856898 16777215
0.075695001 0.76921898 0.63448602 16777215
0.15153299 0.89649802 0.416327 16777215
0.024141001 0.15252399 0.98800498 16711680
-0.059039999 0.533535 -0.84371501 16777215
-0.31696901 0.54394501 -0.77695203 16777215
-0.382002 0.70674998 -0.595465 16777215
-0.30516601 0.934138 -0.185095 16711680
-0.41117299 0.10553 -0.90542799 16777215
-0.055741001 0.96348 -0.261913 16777215
-0.177073 0.98396701 0.021300999 16777215
-0.443964 0.89506203 0.041946001 16777215
-0.015796 0.97530401 0.220302 16777215
-0.29058 0.92199397 0.25591201 16777215
-0.112289 0.886581 0.448737 16777215
-0.183832 0.74114299 0.645688 16777215
-0.23795 0.54802001 0.80190599 16777215
-0.112451 0.36025 0.92605299 16777215
-0.27585801 0.16241799 0.94737703 16777215
-0.24684 0.33060601 -0.91091698 16777215
-0.491649 0.34510601 -0.79948902 16777215
-0.57044798 0.52422899 -0.63227701 16777215
0.25047699 -0.107897 -0.96209103 16777215
-0.57012397 0.80345899 -0.171501 16777215
-0.53876603 0.798271 0.26924801 16777215
-0.37810999 0.795102 0.474179 16777215
-0.60819 0.63218802 0.48004499 16777215
-0.43876699 0.60925901 0.66052002 16777215
-0.402513 0.36697501 0.83863699 16777215
-0.53507501 0.15360799 0.83072299 16777215
-0.74147499 0.61647803 0.26489499 16777215
0.39752299 0.57503802 -0.71505702 16777215
-0.72028702 0.301186 -0.62487799 16777215
-0.61595303 0.66726798 -0.41875401 16777215
-0.77193999 0.462374 -0.43625501 16777215
-0.89529198 0.38062 -0.231474 16777215
-0.67756999 0.73406398 0.045265999 16777215
-0.84924299 0.52767301 0.018641001 16777215
-0.95991403 0.169664 0.223115 16777215
-0.95697498 0.29016599 -0.001802 16777215
-0.80851102 -0.224986 -0.54377401 16777215
0.32222 0.94137198 -0.099969 16777215
-0.86979997 0.18119 0.458931 16777215
-0.60581899 0.40734699 0.68341202 16777215
-0.138778 -0.049252 0.98909801 16777215
-0.044704001 -0.159214 -0.98623103 16777215
-0.56275702 -0.113772 -0.81875497 16777215
-0.62812299 0.120258 -0.76876497 16777215
-0.87486702 0.19856501 -0.441791 16777215
-0.97191501 0.118283 -0.203446 16777215
-0.99938399 0.0057399999 0.034634002 16777215
-0.97459501 -0.16868301 -0.14734399 16777215
-0.42036599 0.82557303 -0.376461 16777215
-0.94512701 -0.061981998 0.32077 16777215
-0.78459603 0.007119 -0.61996698 16777215
-0.82553798 -0.064522997 0.560646 16777215
-0.648036 -0.073688999 0.75803697 16777215
-0.26160899 -0.28063801 0.923473 16777215
-0.31295499 -0.142259 -0.93905401 16777215
0.181462 -0.70261103 -0.68804699 16777215
-0.514489 -0.542395 -0.66416001 16777215
-0.72356701 -0.47540399 -0.50044203 16777215
-0.884745 -0.33806601 -0.32083899 16777215
-0.77103198 -0.63677001 -0.0058109998 16777215
-0.863006 -0.46411499 0.199545 16777215
-0.96305901 -0.238447 0.125144 16777215
-0.87025702 -0.28784901 0.399744 16777215
-0.73704499 -0.496647 0.45837301 16777215
-0.505831 -0.29170901 0.811813 16777215
0.238758 0.95809299 0.158278 16777215
-0.41782099 -0.35388601 -0.83677399 16777215
0.65373403 -0.56115502 -0.50767899 16777215
-0.58021402 -0.68336397 -0.44313201 16777215
-0.40103701 -0.85506803 -0.328677 16777215
-0.61074901 -0.76628 -0.199499 16777215
-0.57436502 -0.81761599 0.040111002 16777215
-0.70849597 -0.66124201 0.24656101 16777215
0.538131 -0.75770003 -0.36919701 16777215
-0.503317 -0.81878698 0.27615201 16777215
-0.76079899 0.616328 -0.20328601 16777215
-0.54308999 -0.50056303 0.67415899 16777215
-0.30080101 -0.492908 0.816432 16777215
-0.41124201 -0.063158996 0.90933597 16777215
-0.158015 -0.37483799 -0.91352499 16777215
-0.27288601 -0.56809998 -0.77639902 16777215
-0.106844 -0.73266298 -0.672153 16777215
-0.173777 -0.88256401 -0.43689999 16777215
0.34846899 -0.746481 0.56686503 16777215
-0.37193501 -0.92430001 -0.085639 16777215
-0.088546999 -0.99505597 0.044968002 16777215
-0.309165 -0.93752801 0.159555 16777215
-0.30759001 -0.84850198 0.43062001 16777215
-0.90570903 -0.41877899 -0.065691002 16777215
-0.35072601 -0.689888 0.63328201 16777215
-0.123775 -0.65985602 0.74112803 16777215
-0.016139001 -0.280022 0.959858 16777215
0.081733003 0.066803001 -0.99441302 16777215
0.009656 -0.55716503 -0.83034497 16777215
-0.55598003 -0.677481 0.48156601 16777215
0.30799499 -0.83326203 -0.459144 16777215
0.061623 -0.851322 -0.52101201 16777215
-0.144788 -0.969383 -0.198328 16777215
0.14798599 -0.98732501 -0.057358999 16777215
0.68648303 -0.334672 0.64555103 16777215
0.14870299 -0.96874702 0.198539 16777215
0.36925501 -0.87707502 0.30722901 16777215
-0.085054003 -0.94664299 0.31085899 16777215
0.14879 -0.87892902 0.45315 16777215
0.123262 -0.71868199 0.68432599 16777215
0.010177 -0.500817 0.865493 16777215
0.129641 -0.34312701 -0.9303 16777215
0.93013 0.28018299 0.23739301 16777215
0.53008997 -0.44254401 -0.72329801 16777215
0.43210101 -0.66077203 -0.61373299 16777215
-0.642057 -0.30974099 -0.70130098 16777215
0.73499298 -0.63020498 -0.25025401 16777215
0.58177501 -0.80596399 -0.109364 16777215
0.59141999 -0.79184002 0.152357 16777215
0.76917601 -0.63901597 0.0052339998 16777215
0.095884003 -0.95058501 -0.295286 16777215
0.49205101 -0.55970699 0.666794 16777215
-0.727148 0.17540701 0.66369301 16777215
0.26956499 -0.54585803 0.79333103 16777215
0.45838001 0.33682999 -0.82245499 16777215
0.40771601 -0.27322301 -0.87127298 16777215
0.800924 0.51114702 0.311849 16777215
0.308568 0.77151299 -0.55637503 16777215
0.238731 -0.32376799 0.91552299 16777215
0.82794702 -0.42085999 -0.37064901 16777215
0.89268202 -0.43576899 -0.114996 16777215
0.35833699 -0.90837598 -0.215517 16777215
0.75452697 -0.60366303 0.257449 16777215
0.89789897 -0.416585 0.14224599 16777215
-0.71640903 -0.298195 0.63074303 16777215
0.67963398 -0.53825003 0.498382 16777215
-0.87844002 0.40466201 0.25415 16777215
0.491521 0.86375499 0.111057 16777215
-0.77738398 -0.57214302 -0.26139501 16777215
0.458372 0.031647 -0.888197 16777215
0.86463398 -0.184769 -0.46719199 16777215
0.917997 0.049743 -0.39345399 16777215
0.71847302 -0.318198 -0.61850399 16777215
0.95150697 -0.203003 -0.231135 16777215
0.760584 0.080246001 0.644261 16777215
-0.085974 -0.82947499 0.55188698 16777215
0.98052299 -0.195407 0.019742001 16777215
0.38501099 -0.921682 0.047621999 16777215
0.94589698 -0.170871 0.27582899 16777215
0.84037399 -0.36808401 0.397852 16777215
0.82969898 -0.144335 0.53922802 16777215
0.478028 -0.34197101 0.80904001 16777215
0.14900801 -0.077402003 0.98580199 16777215
