# .PCD v0.7 - Point Cloud Data file format
VERSION 0.7
FIELDS x y z rgba
SIZE 4 4 4 4
TYPE F F F U
COUNT 1 1 1 1
WIDTH 1152
HEIGHT 1
VIEWPOINT 0 0 0 1 0 0 0
POINTS 1152
DATA ascii
0.0087329997 0.0094980001 -0.045419 1381653
-0.019073 -0.018116999 0.028693 6316128
-0.007925 -0.01435 0.040169001 3092271
0.012632 -0.0054890001 -0.047116 592137
-0.043965001 -0.001403 -0.023646999 2500134
0.047532 -0.0061369999 0.0094889998 5592405
-0.014996 0.014211 -0.038306002 3355443
-0.041241001 -0.001864 -0.028023001 2039583
-0.048310999 -0.0048540002 -0.0084720002 5197647
-0.0081829997 0.0044359998 0.048521001 328965
0.035043001 -0.015476 -0.017720001 6710886
0.036743 -0.0037110001 -0.033089001 1644825
0.045205999 0.0076580001 -0.014895 5066061
0.034375999 -0.003269 0.035714 1250067
0.036649 -0.0012460001 0.033921 1315860
-0.046868999 0.002929 0.0164 3684408
-0.011969 0.013701 -0.040073 3026478
-0.032257002 0.019076001 0.001987 10921638
0.014871 0.010537 -0.042833 1907997
0.024511 0.018404 0.023332 7303023
-0.0074570002 -0.003828 0.048843998 131586
-0.015804 0.0040640002 -0.046735 526344
-0.0034429999 -0.024853 -0.0041820002 13158600
-0.01653 -0.023437001 0.0054310001 12829635
-0.040484998 0.012797 0.014348 6316128
-0.0098689999 -0.024434 0.003817 13619151
0.029828001 -0.01957 0.0088529997 9868950
0.015969999 -0.020203 0.024745001 7829367
0.034628998 0.017988 0.0025460001 9408399
0.018666999 -0.021624001 -0.016766001 10066329
0.030694 0.0073460001 -0.036633998 1776411
-0.045214999 -0.0088109998 -0.012043 5723991
0.033673 0.0039459998 0.036109 1315860
0.017921999 0.023238 0.0043290001 13027014
0.004764 0.024675 -0.006478 12698049
-0.044962998 -0.000856 -0.021803999 2631720
0.027713999 0.0045139999 -0.040624999 986895
-0.031842001 -0.01925 0.0019739999 10526880
-0.032697 0.016884999 0.017041 7434609
-0.018231001 0.018518001 0.028214 6645093
0.014339 0.01842 -0.030615 6184542
0.028511999 -0.010444 -0.035365999 2500134
0.032736 -0.018395999 0.0086420001 9079434
-0.016798999 0.0022859999 0.046870999 263172
-0.031638999 -0.019207999 -0.0048170001 10197915
-0.045281999 0.010586 0.001122 9342606
0.002235 0.013257 -0.042332001 2697513
-0.01582 0.022327 -0.015993999 10855845
-0.0040859999 0.012271 -0.043370999 2171169
0.024929 0.006048 -0.041620001 1052688
0.023832001 -0.018307 0.024320001 6842472
-0.031440999 -0.017168 0.018234 7368816
-0.046216 0.000279 -0.019074 2894892
-0.022519 0.00214 0.044436 394758
-0.029124999 0.013085 -0.031095 3684408
-0.025308 0.015093 0.030795 4539717
-0.049376 0.0033839999 -0.0040250001 6118749
0.046448998 0.002141 0.018003 2960685
0.020538 -0.015659001 0.033126999 4276545
-0.018905999 -0.002176 0.046083 197379
-0.027675999 0.010273 0.036219999 2368548
0.026705001 0.019952999 -0.013939 9474192
0.013744 -0.021919001 -0.01973 10000536
0.036883 0.014347 0.017783999 5987163
0.021167999 -0.020769 0.018068001 9079434
0.047401 -0.00211 -0.015342 3815994
0.029787 -0.0015369999 0.040041 855309
-0.044107001 0.010744 0.0096349996 7039851
-0.011828 0.023367999 0.013263 12171705
-0.020144001 -0.014909 -0.034715001 4144959
0.001839 -0.015474 -0.039228 3815994
-0.0042539998 -0.023197999 0.018146001 10921638
-0.0078619998 -0.021095 -0.025653999 8421504
0.039200999 0.010923 0.022046 4210752
-0.022950999 -0.010235 0.039423998 1842204
-0.037934002 -0.0087540001 0.027466999 3092271
-0.022484999 -0.018158 0.025991 6776679
0.020096 -0.00088200002 -0.04575 394758
-0.044991001 0.0092479996 -0.011564 5921370
-0.036348 -0.017117999 -0.002596 9079434
0.015915999 0.023042001 0.011089 12040119
-0.03571 0.017323 0.0049490002 9408399
-0.029461 0.0060169999 0.038564 1250067
0.034892 0.005376 0.034159999 1710618
-0.046436001 0.0081080003 -0.0089849997 6184542
0.013696 0.023024 0.013859 11447982
-0.003151 -0.023829 -0.014794 12237498
0.018061999 0.00189 -0.046470001 394758
0.038435001 -0.015964 0.00182 9539985
-0.001015 -0.001022 -0.049947999 131586
0.037686002 0.011162 0.024111999 4079166
-0.013759 0.019234 -0.028826 6776679
-0.044606 -0.01009 0.010151 6645093
0.004398 0.015884001 -0.03836 4079166
0.039953001 -0.0073839999 0.026186001 2763306
-0.017868999 -0.023281001 0.0035659999 12500670
-0.046445999 -0.001642 -0.018221 3158064
0.012212 0.024219999 -0.002115 12632256
0.019602999 0.010401 0.041025002 2171169
0.0038689999 -0.006542 0.048101999 460551
-0.015842 -0.016313 -0.034418002 4802889
0.0071080001 -0.016553 -0.036789 4539717
-0.000486 -0.024718 0.0074740001 12829635
-0.010421 -0.024189999 0.007121 13487565
-0.020452 0.00051400001 -0.045614 526344
-0.024642 0.018618001 0.022500999 7434609
-0.037657999 0.003033 -0.032327 1579032
-0.018719001 -0.016464001 0.032639999 4934475
0.037962999 -0.010071 -0.025555 3750201
-0.015188 0.020031 0.025775 7895160
0.026458001 -0.015552 0.028852999 4802889
0.018144 -0.0048210002 -0.045582999 592137
-0.029699 -0.016085001 -0.024146 5855577
-0.013279 0.017589999 0.032954998 5592405
-0.037446 -0.003609 -0.032336999 1644825
0.018825 0.0072659999 -0.043981999 1052688
0.037202001 -0.010993 -0.025152 4013373
0.039546002 -0.0035699999 -0.029750001 2105376
-0.012566 0.01921 -0.029429 6645093
0.014664 0.0085800001 -0.044615 1250067
-0.010621 0.016419001 -0.036178 4473924
0.03726 -0.013315 -0.020063 5526612
-0.0055510001 -0.003419 0.049217999 65793
-0.031435002 0.00137 0.038784999 921102
0.044870999 -0.0069499998 0.017129 4144959
0.025982 -0.0035089999 -0.042139001 723723
-0.013245 -0.011833 -0.042006001 2368548
-0.0039169998 -0.020710999 0.027728001 7763574
-0.011946 -0.00050700002 -0.048540998 263172
0.010615 -0.0087270001 0.045635998 1052688
0.000153 -0.023437999 0.017395999 11250603
-0.025831001 0.010503 0.037301999 2236962
-0.045851 -0.001649 -0.019667 2960685
-0.027982 0.001485 0.041331001 592137
-0.024344999 -0.001341 0.043590002 328965
-0.016380999 0.020083999 -0.024862999 7763574
0.046273999 -0.0091399997 0.004958 7566195
-0.001561 0.0055260002 -0.048737999 460551
0.030057 -0.012761 -0.030743999 3618615
-0.042814001 0.0052009998 0.023638001 2894892
-0.047993001 -0.0060169999 0.0072050001 6316128
0.041451 -0.013822 -0.004191 8947848
0.0095159998 0.015636001 -0.037836 4079166
0.044399999 0.006823 -0.018506 4144959
-0.040096998 0.014373 0.0081200004 8618883
-0.04761 -0.001052 -0.015129 3487029
0.015127 -0.00086600002 -0.047625002 263172
-0.036922999 -0.0026370001 0.033300001 1644825
0.038833 0.014869 0.010376 7500402
-0.026672 -0.017055999 -0.025001001 6250335
-0.004222 -0.024852 -0.003425 14013909
0.033032 0.017905001 0.011252 8289918
-0.028961999 0.0063769999 -0.038711 1315860
0.046542 0.0085580004 0.006397 6908265
0.022077 0.016155999 -0.031121001 5066061
0.035691999 0.00102 0.034956001 1250067
0.019122999 -0.021435 0.017221 9803157
-0.048050001 -0.0035969999 -0.011808 4342338
0.0046709999 0.0024079999 0.049548 65793
-0.032398 0.005506 0.036456998 1447446
-0.040460002 0.013212 -0.012836 6710886
-0.0053389999 0.019874999 -0.029857 7039851
-0.005835 -0.02462 0.0064349999 13421772
-0.045949001 -0.0035369999 -0.018402001 3289650
-0.042723 -0.010805 -0.014414 5658198
-0.045664001 -0.0098169995 0.0054179998 7829367
0.028744999 0.020087 0.007735 10197915
-0.0077519999 0.020230001 -0.028334999 7434609
0.016860999 0.022441 -0.014188 10987431
-0.030592 -0.017441999 0.018635999 7500402
-0.028394001 0.016589001 0.024351001 6184542
-0.0066120001 -0.015654 0.038421001 3750201
-0.01664 0.0043009999 -0.046358 592137
-0.014973 -0.02361 0.0067870002 13092807
-0.038757 0.0047380002 -0.030134 1973790
-0.041579001 0.001102 0.027682001 2171169
0.018890999 -0.020609001 -0.021074999 8750469
0.022683 -0.018425001 -0.025049999 6908265
-0.011878 -0.00035799999 -0.048563 263172
-0.027834 0.019208999 0.015791001 8618883
-0.022945 0.0071089999 -0.042087 1184274
0.033020001 -0.015543 -0.021055 6250335
0.038024001 -0.013891 0.016803 5789784
-0.043779999 -0.012073 -0.00051599997 9539985
-0.047129001 0.002632 -0.015845999 3618615
0.027136 -0.001874 -0.041827999 657930
-0.018331001 0.010419 0.041590001 1842204
0.027720001 -0.017092001 0.023728 6250335
-0.042994998 0.012675 -0.0029750001 9803157
-0.0089760004 0.015503 0.038183998 4013373
0.035347998 0.012912 0.024158999 4605510
-0.042288002 -0.0048929998 0.024817999 2829099
-0.0054250001 0.011973 -0.043556001 2105376
0.0094140004 0.020378999 0.027388001 7895160
-0.017367 0.023355 0.0040620002 12763842
-0.048284002 -0.0040059998 0.010219 5066061
-0.027293 -0.0057049999 0.040309999 986895
-0.014199 0.017701 0.032327 5658198
-0.039719 0.014358 0.0098869996 7960953
-0.036401 -0.0081489999 -0.030154999 2500134
0.047401998 -0.0071129999 0.0071180002 6447714
0.034003999 -0.018015999 -0.0067380001 9539985
0.019901 -0.018446 0.027255001 6447714
-0.040011 -0.000222 0.029982001 1907997
0.049950998 0.00059200003 0.001863 4737096
-0.002415 -0.022360001 0.022234 9605778
-0.025758 0.015812 -0.028921001 4934475
0.031227 0.001027 0.038996 986895
0.0024689999 0.024915 0.003298 13684944
-0.015048 -0.0088900002 0.044243 1118481
0.031831998 -0.016881 -0.018624 7303023
-0.025579 0.002691 0.042622998 526344
0.031105001 0.019293001 0.0066010002 9868950
-0.01247 -0.024165001 0.0029500001 13421772
-0.024874 0.021322001 -0.0079239998 11250603
0.017232001 0.011567 -0.04084 2368548
0.031753 -0.014408 -0.025718 5000268
0.011502 0.019567 -0.028919 6974058
-0.007526 -0.019779 0.02964 7039851
-0.032115001 -0.01219 -0.029568 3618615
0.019404 0.010495 0.041023001 2171169
0.037758 0.0061309999 -0.030398 2302755
-0.001498 -0.0091319997 0.046521001 1052688
-0.036136001 -0.010956 -0.026722999 3684408
0.030067001 -0.019644 0.0072420002 9868950
-0.048734002 0.00163 -0.010693 4079166
-0.026722999 -0.020724 0.0082440004 11316396
-0.016104 -0.023631001 -0.0026440001 13421772
0.037955999 0.010152 -0.025438 3815994
-0.025308 0.014833 -0.031296 4276545
0.026628001 -0.009846 0.037459001 2039583
-0.02957 -0.015714999 -0.025253 5592405
0.042824 0.0039969999 -0.024538999 2829099
-0.018215001 0.019812001 0.024458 7960953
0.0098719997 0.02289 -0.017516 10790052
0.026946001 0.0040130001 -0.041345999 789516
-0.001365 0.022613 0.02128 10263708
0.025756 -0.013068 -0.033964001 3355443
-0.023737 0.0048480001 0.042925 723723
0.032717999 0.013478 0.026512001 4539717
0.041175999 0.0020049999 -0.02808 2171169
0.030881001 -0.0062970002 -0.037253 1513239
0.034352001 -0.010056 -0.030255999 2960685
-0.010779 0.0081970003 -0.045990001 1118481
-0.0083539998 0.020633001 0.026968 8158332
0.017191 -0.0036279999 -0.046388 460551
-0.018846 -0.0088449996 0.042801 1184274
0.02483 0.0078609996 0.040451001 1579032
0.031126 -0.001052 0.039074 921102
0.020089 0.022883 0.001356 12895428
-0.039889999 -0.0086369999 0.024706 3421236
-0.035179 -0.017426001 -0.0069129998 8816262
0.001994 -0.010819 0.045031 1579032
0.010913 0.023387 0.013898 11908533
0.022047 0.019969 -0.020467 8421504
0.026040001 0.0058820001 0.041030999 1250067
0.025219001 0.0058800001 -0.041540999 1052688
0.039080001 -0.01474 -0.010186 7895160
-0.031484 0.015534 -0.023312001 5460819
0.0038099999 -0.011637 0.044087999 1842204
-0.034003999 0.017922999 -0.0076629999 9145227
-0.029165 -0.002446 0.040316999 789516
0.0079889996 -0.019084999 -0.031293001 6579300
-0.021513 0.020437 0.019144 9013641
-0.028209001 -0.020284001 0.0076469998 10855845
-0.048728999 -0.0055709998 0.001173 7566195
-0.030067001 -0.012197 0.031638 3487029
0.028057 0.013186 -0.031895999 3815994
0.0092439996 -0.0071820002 0.046992 723723
0.00095100002 0.011869 0.043995999 2171169
0.011304 -0.020509999 -0.026258999 8026746
-0.026089 -0.01967 -0.016481999 9145227
-9.4000003e-05 0.010261 0.045593999 1579032
-0.019478999 -0.018036 -0.028624 6316128
-0.0052399999 0.021082001 -0.026357001 8289918
0.018556001 -0.001285 -0.046358 328965
-0.024003999 -0.013959 0.033829 3815994
-0.037896998 -0.0070699998 0.029392 2500134
0.01433 -0.023951 -9.2000002e-05 15527148
-0.035969 0.0021200001 -0.034471001 1250067
0.0072360002 -0.022397 0.021004001 9803157
0.021864001 -0.021163 -0.01518 10000536
-0.038943 -0.0035029999 0.030568 1973790
-0.029503001 -0.011121 0.033686999 2894892
0.014544 -0.022955 -0.013441 11645361
-0.048687998 -0.0050619999 -0.005198 6052956
-0.0082729999 0.020316999 0.027937001 7895160
-0.046998002 0.0082099997 0.0046399999 7368816
0.045072 0.0062899999 0.017616 3684408
-0.014509 0.023675 0.0068839998 13355979
-0.048831001 0.0037120001 0.0077709998 5460819
-0.029324999 -0.0067989998 -0.038146999 1579032
0.027496001 -0.012062 -0.034086999 3092271
-0.039797001 0.0092639998 0.023934999 3684408
-0.0091949999 0.017789001 0.033906002 5723991
0.001236 -0.002266 -0.049779002 131586
0.025726 -0.011513 -0.036166001 2631720
-0.032774001 0.016336 0.018929999 6776679
0.042477999 -0.011061 0.014358 5592405
0.033730999 0.017175 -0.013505 8026746
0.022102 0.02235 -0.003663 12369084
-0.041214999 -0.001024 -0.028233999 1907997
-0.019524001 -0.0089119999 -0.042438999 1644825
-0.012232 0.013543 0.040208999 2960685
0.029238001 -0.0057270001 0.038908999 1315860
0.028357999 0.0059509999 0.039423 1381653
-0.029762 0.01111 -0.033473998 2763306
-0.043393001 0.011547 -0.0091469996 7237230
-0.0056779999 -0.0082099997 0.046884 723723
0.045104001 -0.010024 -0.0079809995 7566195
0.001038 -0.024937 -0.003389 13816530
0.017801 0.001102 -0.046672001 328965
0.025234001 -0.021521 0.0032550001 11447982
-0.049256001 -0.002997 0.0061599999 5789784
-0.045765001 -0.0086439997 -0.010327 6118749
-0.029066 0.019778 -0.0095109995 9868950
-0.009207 -0.010196 0.044714998 1315860
0.026843 0.019642999 0.015366 9013641
-0.036688 -0.016115 0.010735 7829367
-0.018487999 0.0070600002 0.044259001 921102
-0.028135 -0.015538 -0.027253 5197647
-0.018851001 -0.023092 -0.0034050001 12961221
0.037338998 0.015782 0.010469 7697781
-0.048920002 -0.0051520001 -0.00080099999 7303023
-0.004859 0.0081000002 0.047053002 921102
-0.0029589999 0.011826 0.043951999 2171169
0.035027999 -0.0025589999 0.035310999 1250067
0.011857 0.021991 -0.020617001 9737364
-0.019021001 0.0064650001 0.044396002 855309
-0.032655001 -0.010826 0.031061999 3092271
-0.043579001 -0.010995 0.010829 6447714
0.009416 -0.011899 0.042952999 2039583
0.038534001 0.014825 -0.011665 7566195
0.018681001 -0.017341999 0.030789999 5329233
-0.0023139999 -0.012775 0.042916 2302755
-0.033378001 0.018242 -0.0074069998 9276813
-0.014309 0.021077 0.022764999 8947848
0.0052009998 -0.024191 0.011496 13092807
-0.016106 0.022076 -0.017066 10395294
0.016283 0.023238 0.0086540002 12434877
-0.017942 0.01794 0.029844999 6184542
-0.0055 0.021026 -0.026485 8224125
0.038079999 -8.0999998e-05 -0.032403 1579032
0.02736 -0.001698 0.041712001 723723
0.033759002 -0.015524 0.01991 6052956
-0.0052789999 0.00078100001 -0.049695998 197379
0.049896002 -0.00080400001 0.0027999999 5066061
-0.042056002 0.012359 -0.01097 6908265
-0.0095260004 -0.023193 -0.016052 11579568
-0.027163001 -0.018541999 -0.019669 7895160
-0.027615 -0.0038739999 0.040955 723723
0.014839 -0.023666 -0.0062810001 12895428
-0.036086001 -0.001553 -0.034469999 1315860
0.014521 0.020134 0.025838999 7829367
-0.00028000001 -0.0074209999 -0.047745999 855309
0.0022169999 0.023517 -0.01682 11447982
0.012429 0.012022 0.042040002 2500134
0.040539 0.00056399999 -0.029245 1973790
-0.011779 -0.00096099998 -0.048555002 263172
0.040196002 0.0052629998 0.027812 2236962
0.049635999 0.00045399999 -0.0059509999 4539717
0.01692 -0.011639 0.040888999 2171169
-0.017042 -0.013207 0.038883001 2763306
-0.0033090001 -0.024776001 0.0057939999 13027014
0.028117999 0.020640001 0.002296 11184810
0.025587 0.015578 -0.029573999 4934475
-0.0064559998 -0.0075719999 0.047212001 592137
-0.025459001 0.016787 0.026918 5855577
0.013912 -0.01286 0.040557999 2565927
-0.021395 0.019529 -0.022732001 7631988
-0.038116001 0.015711 -0.007733 8421504
-0.001754 -0.0066140001 -0.048186999 723723
0.003305 0.019483 0.031157 6908265
-0.01987 0.022521 -0.0087440005 12105912
-0.027638 -0.0028210001 0.041283999 657930
-0.0099269999 -0.023686999 -0.012537 12500670
-0.007584 -0.018991999 0.031617999 6316128
-0.001558 0.023534 -0.016799999 11447982
-0.0064900001 -0.016035 0.037806999 4079166
0.003149 0.011241 0.044549 1973790
0.028241999 0.0038930001 0.040518999 1118481
0.042998001 0.0061240001 0.022384999 2960685
-0.003061 -0.023282999 -0.017951 11250603
-0.012223 0.02385 0.0086810002 13224393
0.011812 -0.022768 0.016942 10790052
-0.028979 0.00092100003 -0.040704001 789516
-0.026486 0.020586999 -0.010158 10329501
-0.032577001 0.013787 0.026047001 4737096
-0.016186999 0.018717 -0.028926 6447714
0.024208 0.018009 0.024831999 6842472
-0.029952999 0.018662 -0.014483 8487297
0.00397 -0.018114001 0.034230001 5395026
-0.021825001 0.015888 0.031842999 4802889
0.031316001 0.00166 -0.038837001 986895
-0.021780999 0.019683 0.021816 8092539
-0.0091000004 -0.024556 -0.002291 13619151
0.037671 -0.013001 0.02012 5000268
-0.020702001 -0.001631 -0.045396 526344
-0.038245 0.015888 -0.005256 8882055
0.023435 0.0173 0.027453 6052956
-0.038056001 -0.0093860002 0.026445 3355443
-0.021693001 0.003366 -0.044543002 657930
-0.032294001 -0.00076700002 0.038141001 1052688
0.025761999 -0.010249 0.037632 2105376
0.010776 -0.023388 0.013994 11842740
-0.014921 0.010382 0.042968001 1710618
0.017573001 -0.023174001 -0.0065580001 12763842
0.041320998 0.0097350003 -0.020333 4473924
-0.0075989999 0.000787 0.049394 0
-0.0087069999 0.0039169998 0.048609 263172
0.016045 -0.001212 -0.047293998 328965
-0.030067001 0.018929999 -0.012748 8816262
-0.047532 -0.0066240001 0.0080739995 6184542
-0.01356 -0.023086 0.013573 11908533
-0.026927 -0.017003 -0.024870999 6250335
0.0051750001 -0.002506 0.049477998 0
0.00086799997 -0.014849 -0.040215001 3421236
0.032094002 0.011144 0.031196 3158064
-0.049676001 -0.0027060001 0.0017500001 6908265
-0.032954998 -0.010888 0.030656001 3158064
0.042362999 -0.007119 0.02242 3223857
0.010316 -0.022133 -0.020833001 10000536
0.001248 0.015132 0.039781 3750201
-0.022570999 -0.019277999 0.02245 7763574
-0.0030189999 0.000551 -0.049897 131586
-0.016438 -0.0080810003 -0.044369001 1315860
-0.023073001 -0.02189 0.0071410001 11776947
0.036316998 -0.016194001 -0.011492 8158332
0.005835 0.0033799999 0.049196001 197379
-0.00028400001 0.0083579998 -0.047122002 986895
-0.036997002 0.013063 0.021182001 5066061
0.025544001 -0.01471 -0.031335 4276545
-0.002572 0.015797 0.038667999 4144959
0.037611 -0.016295001 -0.0048270002 9079434
0.035611 0.006947 0.032230999 2105376
0.018812999 0.01976 -0.024171 7895160
-0.014662 -0.022427 -0.016526001 11053224
-0.035057999 0.0072770002 0.032543998 2105376
-0.039080001 0.014745 -0.010155 7829367
0.027098 0.0042590001 -0.041147999 855309
-0.010594 -0.003795 0.048271999 65793
-0.049129002 -0.004344 0.0032899999 7566195
-0.048661001 -0.001064 0.011297 4210752
-0.036090001 0.017206 0.0036530001 9737364
0.03909 0.012722 0.018018 5329233
0.025723999 -0.018618001 0.021255 7368816
-0.042555001 0.010749 0.015064 5658198
0.0080390004 0.017974 -0.033808999 5526612
-0.030850001 0.019392001 -0.006637 10066329
0.040731002 -0.013711 -0.0094370004 7763574
0.0066180001 -0.013232 -0.041903 2763306
0.0037219999 0.018568 -0.033273999 5921370
-0.0067750001 0.017909 -0.034223001 5460819
0.016104 0.020223999 0.024588 8092539
-0.014895 -0.017138001 -0.033216 5329233
0.012083 0.017159 -0.034295999 5197647
0.032561999 -0.009974 -0.032278001 2763306
-0.0031369999 0.016822999 -0.036851998 4671303
0.01644 0.014237 -0.037668999 3552822
-0.033803001 0.018404 -0.001586 10132122
-0.001373 0.012493 -0.043288 2302755
0.0068430002 0.012719 0.042498 2631720
0.012819 -0.022381 0.018221 10263708
0.023 -0.019928999 -0.019552 8618883
-0.048360001 5.3e-05 -0.012701 3750201
0.022702999 0.021748999 -0.0096159996 11316396
0.036308002 -0.0076290001 0.030804999 2236962
0.00095900003 0.010806 0.045077 1776411
0.040785 0.014272 -0.004673 9145227
-0.0037479999 -0.013275 0.042203002 2500134
0.019355001 -0.0093480004 0.04214 1513239
0.042929001 -0.012197 -0.0078739999 7960953
0.041745 -0.002379 0.027106 2039583
2.6e-05 0.021957001 0.023909001 9408399
0.036198001 0.01678 0.0079600001 8553090
-0.011552 0.01732 -0.034155998 5197647
0.017732 0.018367 -0.028918 6447714
-0.037528999 -0.001587 -0.032887001 1447446
0.011532 -0.005963 -0.047168002 657930
-0.040699001 -0.012269 0.01554 5855577
-0.042734999 0.0092630005 0.018178999 4539717
0.024002001 0.0091329999 -0.039878 1776411
0.011351 -0.022051999 0.020640999 9539985
-0.028661 -0.018112 0.019142 7631988
-0.0089269998 -0.021873999 0.022505 9408399
-0.0077769998 -0.024372 -0.0079739997 13421772
0.01976 0.018186999 -0.028044 6513507
-0.017114 0.010463 -0.042061001 1973790
0.030037999 -0.018971 0.012576 9013641
0.037771001 0.015594 -0.010036 7960953
-0.013281 0.014675 0.038238 3552822
0.043763001 -0.0084380005 -0.017322 4737096
0.0093440004 -0.015316 -0.038398001 3815994
0.017371001 -0.019269001 -0.026704 7171437
0.00562 -0.0054810001 -0.048459001 526344
-0.042064998 -0.013462 0.0023660001 9474192
0.0153 -0.023696 -0.0044669998 13027014
0.039949 -0.013305 0.013999 6316128
0.014918 0.001371 0.047644001 263172
-0.013211 -0.0087230001 0.044957001 986895
-0.047355998 0.0080030002 -0.001119 7566195
-0.0078619998 0.012029 -0.043120999 2236962
0.018509001 0.0042719999 -0.045655001 526344
0.02605 -0.020697 0.010389 10329501
-0.031018 -0.013456 0.028524 4210752
-0.012249 0.014174 0.039324 3289650
0.049378999 -0.00092399999 0.0076330001 4210752
-0.029039999 0.0060350001 0.038872 1250067
-0.0058550001 -0.02376 -0.014404 12369084
0.0088440003 -0.012576 0.042298 2302755
0.022779999 -0.0020029999 0.044328999 526344
0.044856999 0.001204 0.021955 2434341
0.023076 -0.012032 0.037261002 2565927
0.032749999 -0.018889001 0.00054699997 12040119
0.021263 -0.010107 0.040488001 1776411
-0.016385 0.002115 0.047049001 197379
-0.007646 0.01544 -0.038573999 3815994
0.046688002 -0.007863 -0.0085399998 6645093
-0.023603 0.020217 -0.017548 9013641
-0.0074080001 0.016248999 -0.037269998 4210752
0.0020059999 0.011863 0.043967001 2171169
0.0063720001 0.0056210002 0.048301 526344
0.014657 -0.014141 -0.038539 3355443
-0.034644 -0.017261 0.010393 8487297
0.016418001 0.007435 0.044824999 1118481
0.035071999 -0.017680001 -0.0044260002 9342606
0.005039 0.0083539998 0.046856001 1052688
0.016465999 -0.022608999 -0.01357 11250603
-0.043054 -0.0020649999 -0.025085 2368548
-0.041939002 0.0094539998 -0.019586001 4210752
-0.020845 -0.00165 -0.045327999 526344
0.01674 0.019781999 0.025581 7697781
0.048994999 0.0039619999 0.0060569998 5592405
-0.0089020003 -0.021983 -0.022084 9605778
-0.014712 -0.019872 -0.026533 7566195
-0.0028929999 -0.0094980001 0.046160001 1118481
0.023526 0.0085580004 0.040663999 1710618
0.010238 -0.021818999 0.022158001 9145227
-0.033176001 -0.00364 0.036692999 1250067
0.026134999 0.019781999 0.015865 9079434
0.015461 0.022801001 -0.013471 11316396
0.034426 -0.011344 -0.028286999 3684408
0.01421 -0.018323001 0.030905999 5855577
-0.024815001 -0.0016139999 -0.043287002 592137
0.034821998 -0.010855 -0.028568 3487029
0.018610001 0.022307999 -0.012773 11119017
-0.01277 0.023613 -0.010322 12829635
0.0070139999 0.001853 0.049366999 131586
0.0080260001 -0.011809 0.043333001 1973790
-0.021312 0.013187 -0.036745001 3092271
-0.02234 0.008037 -0.041744001 1381653
0.01661 0.017519001 0.031567 5789784
0.03303 -0.013953 -0.025105 5000268
-0.021570999 -0.005872 0.043552 592137
0.0025460001 0.022412 -0.022007 9671571
-0.032820001 0.016088 0.019688001 6579300
0.010008 -0.021632999 0.022975 8947848
0.026486 0.018898999 -0.019231001 8092539
-0.014626 -0.021091999 0.022506 8816262
-0.046723999 -0.0064519998 0.01226 5131854
0.039512999 -0.01266 -0.017253 5789784
0.006788 0.02084 0.026772 8224125
-0.031495001 0.006151 -0.036832999 1447446
0.042392999 0.011248 0.014028 5592405
-0.0080000004 -0.022572 -0.019951001 10329501
0.0174 0.0098590003 0.042525999 1907997
-0.034412 0.017704001 0.0078840004 9342606
0.0062719998 -0.010754 0.0447 1579032
-0.030776 0.004776 -0.038231 1118481
-0.041988999 0.007243 -0.022958999 3158064
0.045547001 0.0074100001 -0.014347 5066061
0.022430999 -0.014512 0.033976998 3750201
0.045437001 0.001119 0.020747 2565927
0.021102 -0.021238999 0.015822001 9868950
0.022941999 -0.021868 -0.007795 11447982
-0.010427 -9.4000003e-05 0.048900001 0
-0.020842999 0.022343 0.0082879998 12105912
0.015332 0.023545999 -0.006881 12698049
-0.032876 -0.018762 -0.003327 10329501
0.0021810001 -0.014422 0.040782999 3158064
0.0085819997 0.021779999 -0.022995999 9145227
-0.034081001 -0.016995 0.013536 7895160
-0.011934 -0.0069200001 -0.046541002 921102
-0.029506 0.011846 0.032680999 3158064
0.037873998 0.0038600001 0.031716999 1710618
-0.045835 -0.005103 -0.017174 3815994
-0.019514 0.017601 0.029665001 5987163
-0.042411 -0.00376 0.025392 2631720
0.020979 -0.018532 0.026194001 6645093
0.033891 -0.018188 0.0053050001 9276813
0.035259999 0.015783001 -0.016135 7039851
-0.021840001 -0.00066700001 0.044957999 263172
-0.040941998 -0.013824 0.0077030002 8026746
0.037684001 -0.016264001 -0.0046740002 9145227
0.044484999 5.9999998e-05 0.022826999 2368548
-0.0047650002 0.01471 0.040146999 3552822
0.016824 -0.0087559996 -0.043706998 1315860
-0.030471001 -0.0075539998 -0.036649998 1776411
-0.033043001 0.016307 0.018561 6908265
-0.000589 -0.019613 0.030998999 6579300
-0.048282001 0.001224 -0.012761 3815994
-0.026965 0.00023200001 -0.042103 657930
0.015546 -0.023451 0.0076540001 13027014
-0.00066399999 -0.024442 0.010481 13421772
-0.027764 0.020703999 0.0038119999 11053224
0.047607999 0.0038360001 0.013214 3947580
0.049098998 0.003788 -0.0056500002 5789784
0.029216999 -0.0056980001 0.038942002 1250067
0.025959 -0.019475 -0.017579 8684676
-0.048163 0.0041220002 0.0106 4868682
-0.038956001 0.015647 0.0017819999 10329501
0.032035001 0.0032810001 -0.037825 1118481
0.011407 -0.020540001 -0.026121 8092539
-0.044649001 0.011 0.0047360002 8553090
-0.023277 0.0095159998 -0.039949998 1842204
0.047614001 -0.0072789998 -0.0045759999 7434609
0.049860999 5.8000001e-05 0.003724 4605510
0.0069030002 0.0084640002 0.046537999 1118481
0.0097150002 -0.015326 0.038288999 3684408
0.0035329999 0.023525 0.016548 11645361
-0.016217001 0.0094640004 0.043343998 1513239
0.018588999 0.022519 0.011225 11645361
-0.021761 -0.022469001 0.002655 12566463
-0.038869999 -0.005905 -0.029147999 2302755
-0.031799 0.018929999 -0.0074479999 9737364
-0.004183 0.017140999 -0.036155 4868682
0.0058559999 0.024766 0.0035000001 13882323
-0.00070600002 0.015694 -0.038913 3947580
-0.017678 -0.014643 0.036465999 3618615
-0.04431 -0.0064079999 0.019298 3881787
-0.034722 -0.016744001 0.013149 7763574
0.0034439999 0.024938 -0.000734 12500670
0.020377001 0.016561 0.031428002 5263440
0.032108001 0.018997001 0.0050599999 9671571
0.029038999 0.013293 0.030820001 4013373
-0.026775001 0.0029170001 -0.041822001 723723
-0.0024880001 0.0094849998 -0.046195 1250067
-0.046459001 -0.0074860002 -0.010836 5592405
0.045882002 -0.000764 -0.019812001 3092271
0.030631 -6.0999999e-05 -0.039519001 921102
-0.045908999 -0.0058499998 -0.015983 4144959
-0.025281001 -0.016984001 0.026590999 6118749
-0.040295999 0.014774 0.001775 10000536
-0.010719 0.021455999 0.023316 9211020
0.015763 0.0061960001 0.045804001 855309
-0.030896001 -0.018353 -0.014075 8618883
-0.028909 -0.003063 0.040332999 789516
0.011719 0.023685999 -0.010885 12566463
0.049575001 0.001672 -0.0055789999 4737096
0.038833998 0.015523 -0.0052959998 9013641
-0.025877999 -0.000872 0.042746998 394758
-0.025332 -0.00055900001 -0.043093 592137
-0.044838998 0.00061400002 0.022089999 2763306
-0.035045002 -0.001046 0.035601001 1315860
0.026717 0.0079380004 -0.039168999 1579032
0.024971001 0.021646 -0.001527 11974326
-0.038989 -0.004621 0.029906999 2105376
0.027724 -0.011792 -0.034281 2960685
0.0086810002 -0.023819 -0.012463 12500670
-0.030650999 -0.018562 -0.013502 8816262
-0.024261 0.012658 0.035643999 3092271
-0.031688001 0.00293 0.038229998 1052688
0.029661 -0.018877 0.013961 8816262
0.042291 0.001164 0.026572 1973790
-0.037806999 -0.016226999 0.00416 9145227
0.01107 0.00434 -0.047979999 394758
0.025320999 0.015652999 0.029643999 5000268
0.025397999 0.010507 0.037595 2500134
-0.019888001 0.015930001 0.033006001 4671303
0.0061829998 0.0064579998 0.047905002 657930
0.045187 -0.005382 0.018502001 3552822
-0.028205 0.018227 -0.019378001 7303023
-0.043336999 0.010406 0.013739 5921370
-0.023196001 0.01746 0.027248999 6250335
-0.016364001 -0.015362 0.035891999 4013373
0.042585999 0.001118 -0.026103999 2434341
0.032974001 0.014733 0.023334 5395026
0.044847999 0.010771 -0.0049589998 8026746
0.021666 -0.012616 0.037335001 2763306
0.01496 -0.0031039999 0.047304001 328965
0.0097150002 -0.020651 0.026451999 7763574
0.030423 0.0054449998 -0.038155001 1315860
0.004218 0.018195 -0.034029 5592405
0.025864 -0.018921001 -0.019977 7895160
0.041556999 0.0068060001 0.024243999 2960685
0.040842999 0.0056690001 -0.026519001 2763306
0.023810999 0.0078480002 0.041069001 1513239
-0.003116 -0.024584001 0.0085359998 12895428
0.000275 0.022756999 0.020695999 10461087
0.000367 -0.0078199999 0.047490001 723723
0.039081 -0.0091230003 0.025294 3223857
0.016401 -0.01873 0.028771 6316128
0.041949 0.0044260002 -0.025727 2763306
-0.024909999 0.00048799999 -0.043342002 592137
0.005169 0.0083179995 0.046867002 1052688
0.045789 0.0085749999 0.010451 5855577
0.020838 -0.0054739998 -0.044112999 723723
-0.035456002 0.0087050004 0.030656001 2697513
-0.042815 0.012757 0.0039929999 9605778
-0.025931999 -0.014852 0.030743999 4539717
-0.041949999 0.0087599996 0.020814 4079166
0.030483 -0.014733 0.026507 4737096
0.013542 0.0028359999 -0.047796 263172
-0.034899 0.0032599999 -0.035207 1250067
0.018573999 0.021968 0.01499 10592673
0.017991001 0.0093660001 0.042725001 1776411
0.045586001 -0.010088 0.003857 8355711
0.00103 0.01323 -0.042413 2697513
-0.031737 -0.0023640001 -0.038346 1052688
0.046239 0.000955 0.018928001 2829099
0.0068279998 -0.015857 0.038047001 3881787
0.032292001 -0.011376 -0.030652 3289650
0.036586002 -0.0021470001 0.033808999 1381653
-0.021379 -0.018036 -0.027233999 6513507
0.015396 0.023003001 0.012103 11842740
-0.016054001 -0.020005999 0.025325 7829367
-0.023475001 -0.018697999 -0.023463 7434609
-0.015489 0.022807 0.013395 11711154
0.017134 -0.019515 -0.026134999 7368816
0.00037200001 -0.0084600002 -0.047047999 1052688
0.021663999 0.019843001 0.021348 8355711
0.012906 0.009509 0.044404 1644825
0.043478001 -0.012186 -0.0039590001 9079434
0.045403 0.0032240001 -0.019924 3289650
-0.023765 0.006329 -0.042130999 1052688
0.013353 -0.023224 0.012816 11974326
0.014657 0.012021 -0.041317001 2434341
-0.020064 -0.020492001 -0.020438001 9013641
0.004346 -0.022770001 0.02018 10132122
0.018688001 -0.012691 -0.038814001 2763306
0.018297 0.014787 0.035923999 4079166
0.033025 0.0101 -0.031644002 2894892
0.018045999 -0.0199 -0.024297001 7829367
-0.039448999 0.003674 -0.029829999 1907997
-0.00147 -0.011472 0.044399999 1842204
-0.040102001 0.0029160001 -0.029289 1907997
0.027445 -0.019557999 0.014724 8947848
0.036359001 0.010647 0.026919 3552822
-0.046664 0.0059759999 -0.013402 4671303
-0.027497999 0.0063209999 0.039799999 1184274
-0.044661999 -0.010297 -0.0090110004 6842472
0.008409 0.014852 0.039331 3684408
-0.010129 0.024466 -0.001725 13619151
0.042112 -0.0080089998 0.021681 3487029
0.0068580001 -0.0081590004 -0.046762001 986895
0.024753001 -0.019846 0.017659999 8684676
-0.043451 0.00081100001 0.024685999 2434341
0.037076999 -0.0098909996 -0.027092 3552822
0.0039860001 -0.024142001 0.012363 12829635
-0.049456999 -0.0020620001 0.0060820002 5263440
0.041354999 -0.014051 0.00031 9342606
-0.0024260001 -0.002168 0.049752999 0
-0.010375 0.016261 0.036534 4539717
0.032818999 -0.015266 0.022151001 5526612
0.035659 0.015991 -0.014337 7368816
-0.047090001 -0.0054219998 0.012841 4802889
0.0076069999 -0.022802001 0.019037999 10395294
-0.029963 -0.014692 -0.027181 4868682
0.048007999 -0.0049160002 -0.0099259997 5460819
-0.033558 -0.016603 0.016468 7368816
0.0051799999 0.017635001 0.035059001 5395026
0.018617 -0.018944001 0.026794 6842472
-8.8000001e-05 0.020647001 0.028192 8092539
-0.030386001 -0.019429 0.0081759999 10329501
0.048246 -0.00099800003 0.012976 3618615
-0.024559001 -0.015559 -0.030471001 4934475
-0.041202001 0.0094450004 0.021106999 4210752
-0.0048170001 0.017479001 -0.035422999 5131854
-0.031486999 -0.019182 0.0060649998 10000536
0.038254999 0.015255 -0.01028 7895160
0.045325998 -0.010383 -0.003787 8618883
0.018773001 -0.020892 0.020044001 8882055
-0.026318001 -0.020223999 -0.013088 10066329
-0.044123001 0.011483 -0.005074 8421504
0.033043001 -0.01211 0.028663 3552822
-0.020842999 -0.022608001 0.00459 12763842
-0.011246 0.015278 0.037944999 3881787
0.025696 0.021424999 0.00188 11776947
-0.046640001 -0.001661 -0.017712001 3223857
-0.0060200002 0.024249 -0.010571 13092807
-0.034446999 -0.017867999 -0.006029 9276813
0.02022 0.020948 -0.018327 9474192
0.005663 0.016034 0.037941001 4342338
-0.041937999 -0.013045 -0.0077829999 7895160
0.000444 0.024297999 -0.011755 12961221
0.0073719998 -0.021694999 0.023726 8816262
-0.027902 0.0025279999 -0.041181002 789516
-0.020626999 0.02053 -0.019712999 8816262
0.0040290002 -0.0086979996 0.046702001 921102
-0.0058229999 0.011539 0.043972 2105376
0.040275998 -0.0054230001 0.027572 2302755
-0.019648001 0.016749 -0.031493999 5131854
-0.046944998 0.00025300001 -0.017201999 3158064
0.0016439999 -0.0015979999 -0.049871001 131586
0.018723 0.016853999 -0.031830002 5329233
0.02134 -0.001528 0.045113999 460551
0.0055470001 0.015671 -0.038559999 4013373
0.014965 0.013935 -0.038720999 3355443
0.042679999 0.010185 -0.016233999 5460819
0.026001001 -0.015763 0.02881 4868682
-0.0052089998 0.003061 0.049350001 131586
0.011482 0.020264 -0.026937 7631988
-0.012841 -0.011623 0.042365 1973790
0.016229 -0.02114 0.021189 8882055
-0.025969001 0.018994 -0.019556999 7829367
-0.030283 -0.018510999 -0.014568 8618883
0.002811 -0.02208 -0.023279 9539985
-0.049040001 -4.2e-05 -0.0097500002 4079166
-0.039276 -0.01047 0.022779999 4144959
0.025320999 -0.0089119999 -0.039258 1710618
0.024906 -0.0088830004 0.039547998 1644825
0.020633999 -0.00076000002 -0.045519002 328965
0.015773 -0.020776 0.022905 8487297
0.026590001 0.020459 -0.010894 10263708
0.028859001 -0.002018 0.040631 855309
-0.044787999 -0.002051 0.021845 2894892
-0.043924 -0.0060700001 -0.020574 3421236
-0.049022999 -0.001962 0.009021 4737096
0.047906999 -0.003085 -0.012919 4408131
0.01602 0.019687001 -0.026325 7434609
-0.0055880002 -0.0086239995 0.046597 855309
-0.000765 0.0080730002 -0.047315001 921102
-0.0139 0.021260999 -0.022329999 8816262
0.022545001 -0.007731 -0.041864999 1250067
-0.028000001 -0.0028619999 0.041028 657930
-0.015062 -0.006484 0.045880001 526344
-0.042027999 -0.001676 0.026877999 2302755
0.034899 0.016968001 0.011418 7960953
0.044172 0.0094189998 0.013928 5131854
0.0024079999 0.024871999 0.004437 13092807
-0.0081930002 0.012962 -0.041963 2631720
0.000604 0.021360001 -0.025975 8487297
-0.020945 0.022335 0.0081179999 12105912
0.032685999 0.015502 -0.021687999 6118749
0.029981 0.015985001 -0.024064999 5855577
0.027644999 0.0033110001 0.041133001 986895
-0.039175998 0.0045480002 -0.029707 1973790
0.025111999 0.0050059999 -0.042061001 921102
0.028034 -0.019584 -0.013416 9276813
0.012128 -0.018634999 0.031044999 5921370
-0.0044869999 0.004493 0.048981 328965
0.047502 0.0033750001 -0.014072 4144959
-0.022554001 0.019879 0.020262999 8487297
-0.03472 0.0080469996 -0.032179002 2171169
-0.026084 0.001514 0.042548999 526344
0.017524 0.023355 -0.003327 12566463
-0.030056 -0.012011 -0.03193 3289650
-0.012956 0.021465 0.022118 9342606
0.043939002 -0.011917 0.001159 9145227
0.026446 0.018807 -0.019641001 7960953
0.017658001 -0.018462 0.028719001 6250335
0.016311999 -0.011679 0.04109 2171169
0.0098989997 0.00193 -0.048858002 131586
-0.046229001 0.0069599999 0.013005 5066061
0.013369 -0.018102 -0.031789001 5921370
-0.020500001 -0.0036220001 0.045026001 328965
-0.019633001 -0.017938999 0.028762 6184542
0.042330999 0.0076339999 -0.021794001 3684408
-0.021049 -0.020096 0.021012001 8487297
0.019561 0.022839 0.005566 12632256
0.0086150002 0.0093860002 0.045534998 1447446
0.012198 0.021516999 -0.022345999 9211020
-0.019300999 -0.021904999 0.014428 10724259
0.032093 0.018146999 0.012363 8289918
-0.0099219996 -0.00045600001 0.048997 0
0.028883001 -0.002571 0.040488999 855309
-0.044443998 -0.006122 -0.01936 3618615
-0.0050940001 0.01147 -0.044133 1907997
0.046333998 -0.0091850003 -0.0039630001 8026746
0.036178 -0.01485 -0.017580001 6579300
-0.044983 0.010075 -0.0083969999 6974058
-0.027590999 -0.019006001 -0.017140999 8618883
-0.0056130001 0.021078 0.026292 8553090
0.014125 -0.00031599999 -0.047959 263172
-0.014229 0.021955 -0.019223001 9934743
-0.012185 -0.02366 -0.010595 12895428
0.031996001 0.019112 0.003886 9737364
0.0025889999 -0.021695999 -0.024707001 9079434
0.0041530002 -0.017069001 -0.036295 4868682
0.047614001 -0.0076259999 -0.00056199997 7763574
-0.024055 -0.020655001 0.014656 9934743
-0.049571 -0.0030159999 0.002506 6776679
-0.043636002 -0.0036180001 0.023313999 2894892
-0.019672001 -0.018208001 -0.028051 6447714
-0.036070999 0.0053329999 0.032942001 1776411
-0.025660999 0.004069 -0.042134002 789516
-0.047051001 -0.0012460001 0.016734 3618615
-0.024599001 0.016295999 0.028857 5395026
0.0098289996 0.020656999 -0.026392 7895160
-0.022335 -0.0057760002 0.043217 592137
-0.01722 0.00060500001 0.046925999 131586
0.003669 0.018678 -0.033031002 5987163
-0.015625 -0.023619 0.0049399999 13027014
0.036307 0.015627 0.014319 7039851
-0.044013001 0.011714 -0.003733 9145227
-0.0095159998 0.012184 -0.042610001 2302755
-0.028229 0.020478001 -0.0050710002 10658466
-0.049835999 -0.001836 0.0017049999 6316128
0.0067699999 -0.024064001 0.01174 12763842
0.044002999 0.011526 -0.005692 8158332
-0.040360998 -0.0067079999 -0.026287001 2763306
0.034651 -0.015557 -0.018198 6645093
0.018991999 0.023120999 -0.00098999997 12500670
-0.031498998 0.015176 -0.024220999 5197647
-0.011398 -0.010297 0.044112999 1381653
-0.01725 -0.0023129999 -0.046702001 526344
-0.016948 0.021826001 0.017529 10263708
0.033955 0.0093430001 -0.031589001 2763306
-0.02819 0.02011 -0.0093609998 9934743
-0.049291 -0.0039570001 0.002781 7697781
0.0023139999 0.002788 -0.049633998 197379
0.0079990001 0.010749 -0.044427998 1842204
-0.026548 -0.017085001 0.025053 6381921
0.021387 -0.019422 0.023104001 7500402
0.041140001 0.001049 0.028338 1842204
-0.0070110001 -0.000314 -0.049502 197379
-0.038975 0.01397 0.014152 6776679
-0.042309001 -0.0079060001 0.021446001 3750201
0.015073 -0.0099020004 0.043366 1513239
0.0055260002 -0.013829 0.041285999 2829099
-0.013558 0.022976 -0.014306 11711154
0.024055 0.012901 -0.035434999 3289650
0.032365002 -0.013404 -0.027089 4408131
-0.042417001 0.0078750001 -0.021276999 3487029
-0.03754 -0.010682 0.025186 3881787
0.044481002 -0.011144 0.0049620001 8289918
-0.046309002 0.0024339999 0.018215001 3355443
-0.018507 -0.021724001 -0.016422 10461087
0.049206 -0.0042519998 0.002544 7105644
-0.027821001 0.011217 0.034967002 2697513
-0.0067520002 -0.0036530001 0.048999999 65793
-0.019409999 0.0024999999 0.045807 328965
-0.010728 -0.024405999 0.001529 13750737
0.0029780001 -0.017534001 0.035514999 4934475
-0.017132999 0.012633 0.0396 2631720
0.018494001 0.02232 0.012852 11119017
-0.024938 -0.017952001 0.024269 6908265
-0.0154 -0.012695 0.040226001 2500134
0.017990001 0.019811001 -0.024625 7763574
0.0038060001 0.024156 0.012309 12829635
0.015765 -0.018129 0.030608 5723991
-0.00416 0.024475999 0.0092989998 13092807
-0.0092810001 0.0069840001 -0.047104001 789516
0.047743 0.00091100001 0.014742 3289650
-0.027891999 0.020577 0.005326 10921638
-0.028983001 0.016046001 0.025101 5789784
-0.0080669997 -0.00618 -0.047772001 789516
-0.044643 -0.001223 -0.022383001 2631720
-0.044121999 0.0095229996 0.013804 5658198
-0.047029 -0.0082980003 0.0035860001 8158332
0.00027399999 0.001588 -0.049897999 131586
0.029072 0.017181 -0.021774 6842472
-0.035135999 0.016728001 -0.012087 7960953
0.0058129998 -0.0030950001 0.049274001 65793
-0.025026999 0.016913 0.027008999 5921370
-0.033994 -0.015185 -0.020546 5921370
-0.023613 0.0099780001 -0.039296001 1973790
0.027965 0.016135 0.026012 5658198
0.049006999 -5.1999999e-05 -0.0099149998 4210752
-0.043474 -0.011103 -0.010812 6579300
-0.027243 0.013716 -0.031706002 3815994
0.0045889998 0.018209999 0.033948001 5855577
0.0072679999 0.0098660002 0.045364 1579032
0.043852001 -0.005384 -0.021472 3421236
0.012809 -0.013791 -0.039687999 3026478
0.022707 -0.0084459996 -0.041219 1447446
-0.018111 -0.016027 0.033831999 4605510
0.033431001 -0.018271999 -0.0068490002 9539985
0.030084999 -0.0035860001 0.039287001 986895
0.0050240001 -0.024336001 -0.010289 13224393
-0.026939999 0.0023459999 0.041859999 657930
-0.030347999 0.00029500001 0.039732002 789516
-0.012513 -0.014187 -0.039221998 3421236
-0.018189 0.001913 -0.046417002 460551
0.011708 0.020400001 0.026424 8026746
0.023623001 -0.021371 0.010727 10790052
0.039693002 0.012445 0.017463 5395026
-0.041173 0.013944 -0.0052049998 9013641
-0.026869001 -0.020936999 -0.0049609998 11776947
0.026296999 -0.013777 -0.032393001 3750201
-0.0094860001 -0.02014 0.028063999 7500402
-0.047502998 -0.0044049998 -0.012876 4342338
0.0093769999 -0.015181 -0.038603 3750201
-0.024719 -0.0068490002 0.041246999 986895
0.014885 0.023094 -0.012049 11711154
0.0045030001 0.006213 0.048222002 526344
-0.0054299999 0.004462 0.048896998 328965
-0.040592 0.0037189999 0.028231001 2171169
-0.032262001 0.018498 -0.009509 9211020
0.00059900002 -0.017882001 -0.034938 5460819
-0.021809001 -0.005138 -0.043804001 986895
0.038157001 -0.007557 0.028558001 2565927
-0.003858 -0.02492 0.001059 13487565
0.0098449998 -0.015859 0.037377 4013373
0.001584 0.024954 -0.0025790001 13948116
0.03957 0.00165 0.030386001 1644825
-0.040142 -0.0025780001 -0.029361 1907997
0.018412 0.014397 0.036495 3881787
0.048443001 -0.00063199998 -0.012316 4013373
-0.013035 0.006759 0.046339002 723723
0.012055 0.024203001 0.003398 13092807
-0.018398 -0.018071 0.029245 6184542
-0.012537 0.01545 -0.037255999 4013373
-0.01706 0.023415999 0.0039710002 12895428
-0.048136 -0.0052189999 0.0086009996 5592405
-0.01291 0.0096819997 -0.044252999 1579032
0.048618998 0.0057410002 0.0020930001 6974058
0.030128 -0.018564999 -0.014618 8618883
-0.0091779996 0.001606 -0.049045 197379
0.020261001 -0.02149 -0.015564 10132122
0.049968001 0.00043799999 -0.001573 4539717
0.023615001 0.003941 0.043361001 855309
0.048744999 0.001957 0.01042 3947580
0.045267001 -0.002666 -0.020555001 3223857
0.0082250005 -0.018735001 0.032067001 5855577
-0.000176 0.01708 -0.036511 4802889
0.00098999997 0.0027950001 -0.049676999 197379
0.040495001 0.013794 0.0099529997 7303023
0.013306 0.01235 0.041386999 2697513
-0.019337 -0.0083179995 0.043003999 1052688
-0.010421 -0.001243 -0.048838999 263172
0.048712999 0.003579 0.0087099997 4671303
0.035835002 0.00079899997 -0.034832999 1315860
-0.024529999 0.0047960002 -0.0425 855309
-0.0072260001 0.012822 -0.042311002 2565927
0.027029 -0.020715 0.00728 10724259
0.032017 0.012587 0.029003 3947580
-0.038559999 -0.007406 -0.028174 2631720
0.039834 -0.011803 -0.018869 5263440
-0.0066550002 0.01705 0.035955999 5066061
-0.0097080003 0.017708 0.033932999 5592405
-0.037482999 -0.014512 0.015895 6447714
-0.044537999 -0.0062859999 -0.018929999 3750201
0.0241 0.01863 0.023041001 7434609
0.031771 -0.017062001 -0.018061001 7434609
0.025342001 -0.014226 0.032377001 3881787
0.044815999 0.001482 0.021972001 2434341
0.002688 -0.021029999 0.026900999 7960953
-0.033266999 0.018510999 0.0047579999 9803157
-0.0095610004 0.022833001 0.017976001 10921638
0.003516 -0.024215 0.011926 12961221
-0.027859 -0.015012 0.028679 4868682
-0.026753001 -0.01481 -0.030115999 4539717
0.036031 -0.014982 0.017433999 6118749
0.032086 0.015536 -0.022471 5987163
0.046158999 0.0081439996 0.010199 5855577
-0.045295998 -6.9000002e-05 -0.021172 2697513
0.044744998 -0.0048690001 0.020076999 3158064
0.01939 -0.022538999 0.0095939999 12040119
-0.0021530001 0.019881001 0.030239001 7303023
0.030387999 0.017922999 -0.017077999 7960953
-0.032143999 -0.018129 -0.012337 8684676
0.034899998 0.017671 0.0057310001 8882055
0.0057020001 0.019962 0.029557001 7368816
-0.015379 -0.0061229998 0.045972999 460551
-0.030552 -0.019259 -0.00911 9934743
-0.029712999 -0.017554 0.019611999 7303023
0.01033 0.010567 0.044121001 1907997
-0.032391001 0.016709 -0.018278999 6710886
0.043244001 -0.012522 0.00166 9211020
0.013994 0.023172 0.012508 11776947
-0.036331002 0.012886 0.022714 4802889
0.021707 -0.0035850001 -0.044468001 592137
-0.042846002 0.0058809998 0.022933001 3158064
-0.035631999 0.014894 -0.018522 6118749
-0.012147 -0.023908 0.0081310002 13355979
-0.029857 0.018850001 -0.013682 8618883
0.046494 -0.0080190003 -0.0090030003 6579300
-0.020228 -0.021880001 -0.013259 11250603
-0.001686 0.014462 0.040748999 3421236
-0.017762 -0.022343 0.013699 11250603
-0.033410002 0.0073210001 -0.034196001 1842204
-0.045988999 0.0088280002 -0.0085650003 6447714
-0.030843001 -0.019525001 -0.0048830002 10395294
0.049511001 -0.0033529999 0.00193 6710886
-0.030871 -0.0075650001 -0.036306001 1842204
-0.001682 0.023218 -0.018464999 10921638
0.017232999 -0.023376999 -0.0041430001 12961221
0.041536 -0.004741 0.026169 2368548
0.0088360002 0.0080840001 -0.046480998 986895
-0.021989999 -0.010815 -0.039352 2368548
0.00028599999 -0.021144001 0.026678 8092539
-0.041790001 -0.01118 -0.015926 5460819
-0.025862001 -0.021392999 0.00071200001 11513775
0.035202 0.0063729999 0.033142 1907997
0.024378 0.019073 0.021227 7895160
0.038502 -0.015414 -0.0082029998 8487297
0.029162999 0.0010629999 0.040559001 855309
-0.042902 -0.0057029999 -0.023006 2960685
-0.022462999 -0.02122 -0.013935 10658466
0.049582999 0.0031359999 0.001481 6908265
-0.036426 -0.016040999 0.011995 7500402
-0.0032609999 -0.00062599999 -0.049878001 131586
0.024057001 -0.015303 -0.031376999 4473924
-0.035489999 -0.011553 -0.026581001 3881787
0.044243999 0.0031580001 0.022419 2631720
-0.041175999 -0.00025499999 0.028359 2105376
-0.035044 0.017283 0.0087789996 9013641
-0.019366 0.019072 0.025883 7303023
0.045699 -0.0031669999 0.019274 3092271
-0.00094 0.019879 -0.030305 6974058
0.026466999 0.0067400001 -0.040222 1315860
-0.030801 0.019215001 -0.0086279996 9539985
-0.036881 0.015119 0.015016 7039851
-0.044438001 -0.0092390003 0.013558 5526612
-0.048655 -0.002873 -0.0099849999 4539717
0.024414999 0.00012500001 0.043632999 592137
-0.0035959999 0.0021939999 -0.049676999 197379
-0.016952001 0.022547999 0.013376 11579568
0.042236 0.0057649999 0.024150001 2763306
0.031422 0.010836 0.032294001 3026478
0.026069 -0.0035620001 0.042066999 789516
0.020623 -0.018238001 0.027279001 6316128
-0.0039940001 0.017484 0.035514999 5329233
-0.00070199999 0.017304 -0.036081001 5000268
0.003604 0.024935 -7.7999997e-05 13092807
-0.022249 0.0092019998 0.040819999 1579032
-0.025122 -0.010147 0.038171001 1973790
-0.049458999 -7.0000002e-05 -0.007332 4210752
0.045293 0.006877 0.016105 4079166
-0.044642001 -0.003306 0.021526 3092271
0.019487999 0.0096739996 0.041783001 1907997
-0.0013980001 -0.019865001 -0.030324001 7105644
0.045127999 0.0095030004 -0.010113 6381921
0.0010479999 -0.024488 0.010011 13421772
0.023619 -0.019353 0.021072 7763574
0.021358 -0.022504 0.004247 12105912
-0.044404998 -0.0082999999 -0.015896 4737096
0.038872 -0.0034709999 0.030671 1710618
0.013416 -0.023755999 -0.0079140002 12763842
-0.027409 0.020842001 -0.0033499999 11053224
-0.035537999 -0.016280999 -0.013297 7500402
-0.028297 -0.011922 -0.033627 3158064
-0.038213 0.002593 0.031824999 1776411
-0.045256 -0.0065810001 0.016694 4473924
-0.0111 0.024196001 0.0059139999 13619151
0.045394 -0.0027129999 -0.020246999 3223857
0.0036220001 -0.0026839999 -0.049578998 197379
-0.045577001 -0.002686 0.019847 3289650
0.00052399997 -0.021385999 0.025889 8355711
0.003085 -0.018222 -0.034093 5658198
0.017941 -0.014114 0.037167002 3355443
0.0098019997 0.020372 0.027274 7895160
0.0090969997 -0.016348001 -0.036718 4408131
0.044082001 0.010972 -0.0086740004 7237230
-0.0036800001 0.013578 0.041820999 2960685
-0.035992999 -0.014343 -0.019533999 5789784
0.035362002 -0.017645 0.002024 9276813
-0.039053001 -0.014198 0.012982 6842472
0.010521 0.012352 -0.042178001 2434341
0.027098 -0.020826999 0.005541 11119017
0.0034360001 0.017475 0.035590999 5263440
