# .PCD v0.7 - Point Cloud Data file format
VERSION 0.7
FIELDS x y z rgba
SIZE 4 4 4 4
TYPE F F F U
COUNT 1 1 1 1
WIDTH 1149
HEIGHT 1
VIEWPOINT 0 0 0 1 0 0 0
POINTS 1149
DATA ascii
0.023926999 0.027812 0.01232 8487297
0.020021999 -0.022461001 0.030676 5395026
-0.017081 -0.0027900001 -0.046801001 263172
-0.012377 -0.019888001 0.037932001 3684408
-0.00057500001 -0.0070130001 0.048854001 526344
-0.045727 -0.0090039996 0.01493 3421236
-0.043381002 -0.014322 -0.012133 4408131
-0.036400001 0.0167 0.023126001 4210752
-0.015797 0.01456 0.041997001 2039583
0.018274 0.030716 -0.000463 10526880
0.0077780001 -0.024876 -0.031920999 6184542
-0.028688001 -0.026970999 -0.002659 8947848
-0.025371 0.00291 -0.042858001 460551
-0.019370001 -0.013063 0.04163 1907997
0.049975 0.00069999998 0.00118 4802889
0.01754 -0.026317 -0.024543 7237230
-0.04321 -0.015363 -0.0095429998 5066061
0.01918 -0.0032220001 0.045915999 328965
0.045626 -0.0086420001 0.01571 3552822
-0.013286 -0.026385 0.026931001 7105644
0.0069729998 -0.020509001 -0.038545001 3881787
-0.043802001 -0.0032579999 -0.023600999 1579032
0.035953 -0.010195 0.031125 1973790
-0.015301 -0.026373001 0.025868 7171437
-0.007551 -0.032225002 -0.007681 10329501
0.015163 0.028848 0.018964 8816262
-0.042399999 0.012352 0.018762 3815994
0.038601998 -0.001239 -0.031723 1250067
-0.0072829998 0.0054339999 -0.048776999 263172
-0.0077470001 0.0096859997 -0.047166001 789516
0.022007 -0.013647 -0.039852001 1973790
0.020971 -0.019616 0.034306001 4144959
-0.024277 -0.012147 -0.039647002 1776411
-0.04501 0.0081529999 -0.017930999 2697513
0.013153 0.027989 0.022991 8026746
0.043506 -0.013644 -0.013411 4473924
0.049706001 0.003511 0.001019 5921370
0.017707 0.02644 -0.024116 7303023
0.049295999 -0.002136 0.007708 3355443
0.013347 -0.03173 -0.003245 10790052
0.011283 0.028301001 0.023108 8026746
0.017409001 -0.016646 -0.039507002 2565927
0.012913 -0.003731 0.047972001 263172
0.038451999 0.020341 -0.0084619997 6447714
0.023366001 0.021737 0.029484 4737096
-0.047669999 -0.0088480003 -0.006914 4144959
0.023387 -0.020746 0.031064 4737096
-0.048827998 0.0070310002 -0.001529 5921370
-0.049830999 -0.00085800001 0.0038980001 3289650
0.010403 -0.00014800001 -0.048905 16777215
0.018236 0.029931 0.010525 9671571
-0.0066760001 0.027409 -0.027031999 8026746
-0.033020001 0.021369999 0.019006999 5723991
0.048016999 0.0091329999 0.0017 5197647
0.029327 0.017684 -0.030365 3618615
-0.036706999 0.00121 0.033900999 1118481
-0.01031 0.018355001 -0.040252998 3158064
0.0082719997 0.028820001 -0.022909001 8816262
0.048654001 0.006701 -0.0054500001 4276545
0.04919 0.0033509999 0.0073850001 3947580
-0.014495 0.018052001 -0.039266001 3026478
-0.031337999 0.000436 -0.038954999 526344
0.002535 -0.0081040002 -0.048402 592137
-0.024420001 0.028372999 -0.0074590002 9671571
0.01433 -0.028743001 -0.019951999 8816262
0.031826001 -0.020525999 -0.022802001 5263440
-0.019518999 0.028589999 0.015573 8816262
-0.014004 -0.026365001 0.02661 7105644
0.025332 -0.0086759999 0.041053999 1052688
0.038401999 -0.021088 -0.0020989999 7763574
-0.026945001 -0.012783 0.037400998 2171169
0.020470001 0.012218 -0.041692998 1315860
0.030237 0.023636 0.017413 6513507
-0.025632 0.023498001 0.023987999 5987163
0.043641001 0.014205 -0.011502 5066061
-0.04738 0.001057 0.015892999 2368548
0.012651 0.0036530001 -0.048055001 65793
-0.0075369999 -0.031971 0.0098289996 9934743
-0.002053 -0.031109 -0.016557001 10132122
-0.028184 0.0097019998 -0.038594998 1250067
-0.044496998 0.01018 0.016797001 3552822
-0.040777002 -0.018885 0.004305 6645093
-0.0099579999 0.02434 -0.032260999 6118749
-0.025172001 -0.027673 -0.010407 8684676
0.038589999 0.020977 -0.00078399997 8553090
0.038589999 0.020578999 -0.0062119998 6513507
0.0026430001 0.031720001 0.013537 9737364
-0.024608999 0.017317999 -0.034727 3092271
0.020343 0.01029 0.042931002 1315860
0.015065 0.019831 0.037016999 3815994
-0.00050899998 0.029146999 -0.023441 9013641
0.038782001 -0.020819999 0.00090500002 7566195
-0.0038409999 -0.032896001 -0.000955 10592673
-0.019812999 0.001553 -0.045846999 394758
-0.039446998 -0.019276001 -0.0095340004 5855577
0.048291001 0.00297 -0.012153 3158064
0.0076339999 0.024088001 -0.033310998 5658198
-0.024877001 0.016951 0.034949999 3092271
-0.014709 -0.029885 0.015277 9276813
-0.047741 -0.0097279996 0.001877 4934475
0.042312 -0.0098179998 0.022098999 2763306
0.026055001 -0.0054250001 -0.041875999 460551
-0.011782 -0.015223 0.042769 2105376
-0.017984999 -0.001502 -0.046597999 328965
0.019824 0.024331 -0.027349999 6250335
0.049063999 0.0063550002 -1.6e-05 6184542
0.034062002 0.0051190001 -0.035772 855309
0.032590002 -0.018942 -0.024784001 4605510
0.0031969999 0.018944999 0.040814999 3158064
0.047566 0.0098630004 0.0037700001 5329233
0.020055 0.018813999 0.03585 3487029
-0.031500999 0.025581 0.002325 8158332
-0.0030129999 -0.023511 0.034956001 5395026
0.019605 -0.024970001 -0.02616 6381921
-0.016724 -0.018007001 -0.038417999 3289650
-0.011778 -0.030564999 0.014717 9474192
-0.0064070001 0.020006999 -0.039243001 3750201
-0.043458 -0.0081230002 -0.021446001 2434341
-0.006455 -0.019192999 -0.040158998 3684408
0.040061999 -0.013818 -0.021371 3421236
-0.022523001 -0.011279 0.041239001 1644825
-0.043526001 0.016215 0.0013830001 6447714
0.041453999 0.0099769998 -0.023517 2697513
0.045554999 -0.0087700002 -0.015753999 3355443
-0.033606 0.024428001 -0.00085800001 7303023
0.029906999 0.01812 0.029185001 3815994
-0.021538001 -0.025086001 -0.024320001 6908265
0.015522 0.030376 0.011866 9803157
-0.00032299999 0.0041499999 0.049601998 263172
-0.0069670002 0.0060820002 -0.048647001 328965
-0.036582001 0.022329999 -0.0041240002 7039851
-0.049805999 0.0025589999 0.0020890001 3881787
-0.0054580001 -0.021351 0.037732001 4276545
0.023654999 -0.017762 -0.034874 3355443
-0.038669001 -0.0024329999 -0.031482 986895
0.023452999 -0.0066729998 0.042986002 723723
-0.010976 -0.026169 0.028416 6842472
-0.036300998 0.003212 -0.034038 921102
-0.015992999 0.012114 0.043673001 1447446
-0.016595 -0.012093 -0.043460999 1579032
-0.033186 -0.023390001 -0.011948 7039851
0.036784999 -0.018410999 0.019204 5000268
-0.003031 -0.010679 -0.047212999 1250067
-0.016042 0.017981 0.038734999 3092271
0.0155 -0.015115 0.041655999 2302755
-0.049423002 -0.0029190001 -0.006151 3289650
0.0097820004 -0.026935 -0.027181 7303023
-0.040798001 0.017665001 0.010915 5855577
0.017074 -0.013187 0.042536002 1776411
-0.018911 -0.029208001 0.013561 9013641
-0.022738 0.000696 -0.044518001 394758
-0.00094100001 -0.005781 0.049217999 394758
0.038635001 0.016026 -0.020438001 4079166
0.027543999 0.021547001 -0.025991 5329233
-0.017154999 -0.030068001 -0.011413 9539985
-0.008471 -0.028446 -0.023889 8618883
0.027734 -0.020586999 -0.02753 4737096
-0.021622 0.028454 -0.013186 8750469
-0.037937 0.000114 -0.032568999 855309
-0.02135 -0.024026999 0.026812 6052956
0.042105999 0.016918 0.0083689997 5855577
0.006083 -0.030392 -0.018508 9408399
0.010587 -0.018114001 0.040431 3223857
-0.030038999 0.0023950001 0.039806001 723723
-0.031167001 0.025443001 -0.0065210001 8355711
0.023746001 -0.0063510002 -0.042936999 526344
0.012212 0.030537 0.014497 9539985
0.030170999 0.013924 0.033831999 2368548
-0.02723 -0.0074820002 0.040373001 1184274
0.024057999 0.027821001 0.012012 8487297
-0.0034700001 -0.032545999 -0.0074999998 10592673
0.0073520001 -0.001411 -0.04941 0
0.0027129999 0.011099 0.047008999 1118481
-0.01127 0.032086998 0.0030720001 10526880
0.001712 0.031261001 -0.015924999 10132122
-0.048873998 0.003422 0.0091880001 3158064
0.0091960002 0.019626999 0.039129 3552822
-0.022983 0.029146001 -0.0046529998 10132122
0.026921 0.024677999 0.019422 6710886
-0.027102999 0.0043870001 0.041487999 789516
-0.017554 -0.017235 -0.038858 3026478
0.036878999 0.012781 -0.027657 2829099
-0.029513 0.026626 -0.001181 9079434
0.0093139997 0.025761999 0.029828001 6184542
0.035365 -0.023002001 -0.0058920002 7566195
-0.035394002 -0.0082299998 -0.033041999 1447446
0.023972999 -0.014119 0.038309999 2236962
-0.010289 0.0086890003 -0.047125001 723723
0.047784001 -0.002747 -0.01412 2894892
0.014872 -0.020366 0.036423001 4144959
0.028317999 -0.022330999 0.023521001 5855577
0.023002001 0.027432 0.0156 8355711
-0.017646 0.030874999 -0.00038899999 8618883
-0.0013980001 -0.019641001 -0.040155999 3750201
0.024713 -0.024044 -0.023708999 6250335
0.049727999 -0.0024880001 -0.0035880001 3684408
0.027718 0.027454 0.001187 8553090
0.033842999 -0.023442 0.0096479999 6974058
0.0066510001 -0.032648999 -0.002938 9671571
-0.014392 -0.031086 -0.0086319996 10066329
-0.049965002 0.00086799997 0.001319 3881787
0.005686 0.023703 -0.034320001 5592405
-0.011541 -0.027237 -0.025764 7829367
0.029293999 0.017656 -0.030433999 3618615
-0.006333 0.029955 0.019997999 9079434
-0.048229001 0.0081200004 0.0047530001 4934475
0.024571 0.011572 -0.039861001 1315860
-0.021404 0.028074 -0.015248 8684676
-0.031801999 0.002595 0.038382001 789516
-0.001214 0.021090999 -0.038435999 4210752
0.013338 0.020399 0.036970999 3947580
-0.029993 -0.022266001 0.021499 5658198
0.037241999 -0.001954 -0.033231001 1052688
0.015744001 -0.018510999 0.038282 3289650
-0.021531999 -0.01042 -0.042273998 1315860
0.013167 0.028875999 0.020307001 8553090
-0.0049780002 0.030871 0.016951 9737364
-0.043756001 -0.010045 0.018809 3026478
0.010319 0.001696 0.048856001 65793
0.023387 -0.0029519999 -0.043967001 131586
0.012074 0.031001 0.012162 9934743
-0.049051002 0.0063399998 -0.001324 4802889
-0.011611 -0.029397 -0.019526999 9276813
-0.028727001 0.013553 -0.035399999 2105376
-0.00092299999 0.013595 0.045550998 1776411
-0.001915 0.012795 0.046048999 1579032
-0.013083 0.020141 0.037384 3815994
0.042362001 -0.005905 0.025009001 1907997
-0.041917998 -0.016147999 -0.012011 5066061
0.021934999 0.028616 0.011786 9145227
0.043365002 0.0087759998 0.02104 2960685
-0.01043 0.013846 -0.044171002 1710618
-0.025320999 0.02813 0.0065049999 9145227
-0.048560001 0.00728 0.0045050001 4934475
-0.015049 -0.003457 0.047393002 394758
0.021233 -0.01606 -0.038171001 2565927
0.0067059998 0.031473 0.013455 9474192
-0.034355 -0.0057859998 -0.035255 1118481
-0.040589999 -0.0039869999 -0.028565001 1184274
0.0076759998 0.010928 -0.046549998 921102
0.016263001 0.025427001 0.027410001 6381921
0.043701999 -0.001118 -0.024233 1907997
0.027675999 -0.019995 0.02857 4605510
-0.030081 -0.025346 0.010971 7566195
-0.015683001 -0.0042309999 -0.047042001 394758
0.022946 0.01133 0.040973 1513239
-0.034673002 -0.022275001 -0.012599 6645093
0.0033 0.032435 -0.0086030001 10526880
-0.025389001 -0.0047940002 0.042456999 855309
0.035668001 -0.022947 -0.0043600001 7105644
0.009265 -0.0099339997 0.046771999 986895
-0.038615 0.006391 -0.030251 1381653
0.0231 0.022400999 0.028538 5066061
-0.03221 0.011774 0.033826999 2105376
-0.018058 -0.025006 0.027172999 6513507
-0.02727 0.026626 -0.011351 8092539
0.011913 0.012316 0.044831 1447446
-0.045836002 0.012912 0.0040369998 5460819
0.016542001 0.030987 0.0047030002 9868950
0.029193999 -0.023193 -0.020316999 6118749
-0.007518 0.028178999 0.024910999 7895160
-0.011132 -0.020004001 -0.038176 4079166
-0.019376 0.020919001 -0.033466998 4408131
-0.0052180002 -0.0050059999 0.049144998 328965
-0.023472 0.0057959999 -0.043265998 526344
-0.004216 -0.028114 0.025839999 7895160
-0.049454998 -0.001963 -0.0067360001 3158064
-0.0085490001 -0.022301 -0.035849001 5131854
-0.021346999 0.0029470001 -0.044992998 394758
-0.017191 0.0038739999 0.046583001 526344
-0.040429 -0.0074550002 -0.027163999 1776411
0.040135 0.018216001 -0.011291 5789784
0.035347 0.0022390001 -0.0352 789516
-0.041108999 -0.018003 0.0081230002 6118749
0.0017960001 -0.032678999 -0.0067199999 10197915
0.014842 0.017511001 -0.039696001 2697513
0.001886 0.004551 -0.049486 131586
0.038812999 -0.0196 -0.010563 6118749
-0.031005001 -0.0061599999 0.0381 1118481
0.015926 -0.028139001 -0.020703999 8487297
-0.045382999 0.0062199999 0.018750001 2697513
0.042146001 0.0082559995 0.023817001 2500134
-0.027891001 -0.0063749999 0.040358 1052688
-0.030896001 -0.021464 0.022087 5395026
-0.040693 -0.016658001 0.014387 4934475
-0.012484 0.029733 0.017738 9408399
0.003027 0.029167 0.023192 8355711
-0.029539 0.0040879999 0.039864 789516
-0.020358 0.0094269998 0.043377001 1118481
0.043552 -0.015737001 -0.0058920002 5921370
0.046882 0.0059199999 -0.014887 3026478
-0.001515 -0.016713001 0.043086998 2565927
-0.011443 -0.011586 0.045396999 1250067
-0.0089579998 -0.015605 -0.043136001 2500134
0.045623999 0.0085570002 -0.015823999 3355443
0.00089299999 0.0076669999 -0.048624001 394758
0.035638001 -0.022107 -0.010389 6842472
0.0022479999 0.032228999 0.010508 10263708
0.016739 -0.020528 -0.035390001 4144959
-0.039266001 0.019470001 -0.0093780002 6052956
-0.019088 0.01206 -0.042447001 1447446
0.025150999 0.027479 0.011572 8487297
-0.047093999 -0.00077300001 -0.016756 2105376
0.017062001 0.014576 -0.041487001 1842204
-0.025431 0.023076 0.025115 5658198
0.043480001 0.00054600002 0.024674 1579032
-0.001356 0.027821001 -0.026856 8224125
-0.045143001 0.0071840002 -0.018539 2565927
-0.024373 -0.018224999 -0.033815 3684408
-0.018263999 0.0055849999 -0.045768999 526344
0.042684 -0.016816 0.0053790002 6381921
-0.0049649999 -0.030820999 0.017162999 9539985
0.0097139999 -0.0035270001 0.048755001 197379
-0.021399001 -0.014041 0.039868999 2171169
0.028872 0.013706 -0.035145 2105376
-0.00073799997 -0.018733 -0.041157 3421236
0.040010002 0.017235 -0.01474 4934475
-0.032740999 0.0092970002 0.035066001 1710618
0.045387 -0.003422 0.020326 2236962
0.028876999 -0.015209 -0.033691 2763306
-0.039813001 -0.00097499997 -0.030211 1052688
-0.016992001 -0.011371 0.043754999 1447446
-0.043949999 0.0012910001 -0.023762001 1579032
-0.0096279997 0.011398 -0.045924 1118481
0.047727998 0.00048300001 0.014882 2500134
0.026009001 -0.027174 -0.011328 8816262
-0.044936001 0.0052140001 0.020454001 2368548
0.024155 -0.0051469998 -0.043078002 328965
-0.021694001 -0.0086420001 0.043102998 1118481
-0.003116 0.028690999 -0.024506001 8816262
0.042737 0.012798 0.01725 4013373
0.037969999 0.013927 -0.024758 3289650
-0.011884 -0.012923 0.044445001 1579032
0.0080540003 -0.030486001 -0.017366 9605778
0.007863 0.015203 0.043676 2105376
-0.039205 0.013101 -0.023853 2960685
-0.020816 -0.019747 0.034226999 4013373
0.045283999 -0.0098449998 0.015062 3750201
-0.010466 -0.031022999 0.013454 9605778
-0.0272 0.024274999 -0.020183999 6842472
-0.041717999 0.01512 0.015323 4539717
0.0062529999 0.0084610004 0.047922 657930
-0.018172 0.027725 0.020129999 7960953
0.028511999 0.025335999 -0.014611 7303023
0.019842001 0.025807001 0.024027999 7039851
-0.025051 0.025155 -0.02049 7105644
-0.007065 -0.032609001 -0.0029859999 10724259
-0.016245 0.026134999 0.025846999 6908265
-0.04885 -0.0065049999 0.004071 4539717
-0.0054120002 0.025745001 0.030807 6316128
-0.035457999 -0.00318 -0.034922 921102
0.039421 -0.0047050002 -0.029919 1579032
0.03937 0.010463 0.026432 2565927
2.6e-05 0.030164 -0.020277999 9671571
0.010395 0.032278001 -0.00026599999 9803157
-0.0088029997 0.031328999 0.013013 10000536
0.022702999 -0.028974 -0.0075759999 10000536
-0.020268001 0.022386 -0.030639 5263440
0.0044820001 0.016386 -0.043168001 2368548
0.015652001 0.017751001 -0.039136 2829099
-0.018758001 0.030317999 -0.0061570001 9737364
-0.030332999 0.025185 -0.011125 7500402
-0.019447999 0.025614001 -0.024812 7105644
-0.0083959997 0.031152001 0.014199 9803157
-0.01349 0.030251 0.014737 9671571
-0.035758998 0.021609999 0.012215 6645093
0.011155 -0.0085749999 -0.046976 657930
-0.012294 -0.027355 -0.025119999 7960953
-0.001418 -0.029837999 0.02131 9079434
0.0031419999 0.029107001 0.023348 8289918
0.022079 0.014813 0.038844001 2236962
-0.016592 0.031024 0.0038920001 10592673
0.019871 -0.022419 -0.030843001 5197647
-0.041212 0.0050730002 0.027248999 1710618
0.013856 0.03073 0.011836 9868950
-0.022294 -0.0059099998 0.043850001 855309
0.001339 -0.032984 -0.00081100001 10987431
-0.0093520004 -0.030959001 -0.01457 9737364
-0.0052140001 -0.025436999 0.031424001 6316128
0.00062100001 -0.030816 -0.017876999 10000536
-0.014477 0.0031620001 0.047618002 394758
0.0083489995 0.03153 -0.012166 10132122
0.026085 -0.0083750002 -0.040725 921102
0.014335 -0.00043700001 -0.047896001 16777215
0.0067079999 -0.032644998 0.0029249999 9737364
-0.016605999 -0.016158 -0.040309999 2697513
-0.001983 -0.018376 0.041483 3158064
-0.044008002 0.005258 0.022357 2302755
-0.049155999 -0.0053639999 -0.0041979998 4342338
-0.026262 0.023662999 -0.022910999 6316128
0.033991002 -0.010364 0.033135999 1842204
-0.022704 0.003333 -0.044261001 394758
-0.047240999 -0.010176 0.005533 5066061
0.049049001 0.001371 0.0094790002 3092271
-0.015711 0.028622 -0.019300001 9145227
-0.045926999 -0.0095889997 -0.013404 3487029
-0.00075800001 0.005194 0.049371 328965
-0.035071 -0.022213001 0.011718 6513507
0.038605001 -0.001696 0.031670999 1118481
0.037199002 -0.021021999 0.010086 6316128
0.015969999 -0.010598 -0.044576999 1052688
0.00063099997 -0.015607 -0.044050001 2236962
-0.01739 -0.030634001 -0.006569 9934743
-0.019869 -0.027649 0.018714 8289918
-0.046512999 -0.0039639999 0.017333999 2434341
-0.043076999 0.01394 -0.014079 4473924
-0.010396 -0.032274 -0.00086799997 9145227
-0.020235 0.021095 -0.032696001 4671303
0.025420001 0.012311 -0.038805999 1579032
0.049444001 -9.8999997e-05 0.0074319998 3092271
-0.01296 -0.030724 -0.012847 9868950
-0.047587998 -0.0037440001 -0.014255 2434341
0.025039 0.010141 -0.040460002 1118481
0.010291 -0.00428 0.048498001 197379
-0.048356999 0.0066829999 -0.0076830001 3881787
-0.040391002 -0.0084349997 0.026557 2236962
0.042513002 0.0062970002 0.024528001 2236962
0.024431 0.015652999 0.036614999 2565927
-0.037478 0.0077590002 0.030939 1907997
0.022105999 0.029565001 0.0021619999 10263708
-0.033121999 0.018765001 -0.024382999 4276545
0.0084760003 0.020459 0.038304999 3881787
-0.021290001 0.019087 0.034791 3618615
0.0093959998 -0.0070830001 -0.047922 460551
-0.0087580001 -0.014574 -0.043995999 2236962
-0.010888 -0.029687 0.018928001 9079434
0.043065 0.00563 -0.023929 2105376
-0.012286 -0.0048480001 -0.047906999 460551
-0.046301 -0.010886 0.0091730002 4605510
0.018905999 -0.003155 -0.046039999 197379
0.026450999 -0.0098280003 -0.039732002 1250067
0.0026 -0.031656001 -0.013881 10066329
0.00063700002 0.0058400002 -0.049206998 263172
-0.013627 -0.031665001 -0.0035329999 10263708
0.016155999 0.018316999 -0.038323998 3092271
-0.029305 0.022514001 0.021853 5658198
0.040056001 0.016364001 0.016756 4605510
0.011144 0.031932 0.0059199999 9934743
0.0028550001 0.032646 0.0067230002 10197915
0.001546 0.032910999 -0.003337 9605778
-0.036536001 -0.020852 -0.012922 6184542
0.01515 0.0068799998 -0.046495002 328965
0.029151 0.011789 0.036483999 1710618
0.0060749999 0.012182 0.046069998 1315860
-1.9999999e-05 -0.018890999 0.040996999 3355443
-0.0040000002 -0.028255999 0.025518 8026746
-0.043628 0.0077470001 -0.021419 2434341
0.027672 -0.025087999 -0.017011 7434609
0.019224999 0.030401999 -0.0029170001 10921638
0.047008999 -0.010271 0.0069220001 4868682
0.048533998 0.0041160001 0.010273 3618615
0.029538 0.02025 -0.026195001 4802889
-0.027822999 -0.026951 0.00764 8289918
0.033195999 -0.023097999 -0.013162 6842472
0.042427 -0.0088139996 -0.022838 2631720
0.011518 -0.002108 0.048549999 197379
-0.045600999 -0.0093740001 0.014792 3552822
0.036742002 0.021195 -0.010897 6513507
0.009633 -0.020145001 -0.038412999 3750201
0.006577 -0.030169999 -0.019162999 9342606
0.0029819999 -0.013 -0.04586 1513239
-0.014235 -0.030631 -0.011976 9803157
0.006844 -0.029165 0.022369999 8750469
0.041616 0.00066600001 0.027696 1315860
0.01144 -0.018348999 -0.039951999 3092271
0.025796 0.0055709998 0.041992001 657930
0.043172002 -0.01116 0.018715 3684408
0.017960999 0.017351 -0.038552001 2829099
-0.0060530002 -0.02795 0.025884001 7829367
0.024507999 0.023703 0.02469 5987163
0.035583001 0.0098860003 0.031771999 1842204
-0.036727998 0.021400001 0.0099870004 6316128
-0.047800001 0.0085829999 0.0067870002 4605510
0.030715 0.014792 0.032469999 2565927
-0.0028929999 0.011838 0.046581998 1381653
-0.0040520001 -0.013846 -0.045205001 1973790
-0.023751 0.018580001 -0.033814002 3618615
-0.028223 0.016307 0.033059999 3026478
0.0084920004 0.003695 -0.048955001 65793
0.046073001 -0.007491 0.015763 3355443
-0.023343001 -0.017568 0.035307001 3289650
0.014473 -0.030391 -0.013049 9803157
-0.024843 -0.024617 0.022174001 6710886
0.029960001 -0.025347 -0.011292 7763574
0.019365 -0.010794 0.043099001 1250067
-0.015814001 0.031252 -0.002789 9737364
-0.010281 -0.032253999 0.002449 8750469
-0.0082369996 0.010932 -0.046452001 1052688
-0.0090260003 0.026761999 -0.027828 7631988
0.0021259999 0.025948999 0.030816 6250335
0.015687 -0.017934 -0.038931001 2960685
-0.048714999 -0.0063169999 -0.005934 3815994
-0.041310001 0.014489 0.017650999 4276545
-0.042667001 0.017005 -0.0039610001 6316128
0.0065120002 -0.0082869995 -0.047958001 592137
-0.0082210004 -0.030026 0.019045999 9079434
-0.034169 -0.016008001 -0.027279999 3618615
-0.01637 0.025002001 -0.02823 6645093
0.014346 0.015209 -0.041990001 1973790
0.043102 0.016511001 0.0040540001 6052956
0.026715999 0.027194001 0.0094130002 8289918
0.004739 -0.017035 -0.04256 2697513
0.037815999 0.0051139998 -0.031778999 1315860
0.031284999 -0.025087999 -0.0087390002 7960953
0.020710999 0.020527 -0.033222999 4210752
-0.019948 0.016694 0.038240001 2763306
0.028543999 0.00042999999 0.041046001 526344
0.033922002 -0.023808001 -0.0069329999 7631988
0.033698 0.00067600003 -0.036924999 592137
0.014938 -0.031490002 0.00069299998 10921638
-0.0063789999 0.026269 0.029581999 6645093
0.047584999 0.0077260002 0.0099309999 4144959
0.0057600001 0.030541999 0.018038999 9342606
-0.0319 -0.025317 -0.0033189999 8487297
0.006815 0.029545 0.021203 8618883
0.034729999 0.019236 -0.02108 5000268
0.014328 0.0055940002 -0.047146998 197379
-0.045639999 -0.013478 -0.000115 2171169
0.025597 -0.01998 -0.030469 4210752
0.013082 0.0087940004 0.046381999 855309
-0.0054700002 -0.027829001 0.026310001 7697781
0.018300001 0.029794 0.011279 9605778
0.023406999 0.028178999 -0.01137 8684676
0.01434 0.016192 0.041140001 2631720
0.015442 -0.031298 0.0035850001 10987431
-0.042151 0.0066109998 0.02496 2171169
0.033190999 -0.02392 -0.0092129996 7631988
-0.015306 0.029614 -0.015887 9605778
-0.004284 0.028556 0.02469 8026746
0.006416 0.025801999 0.030505 6118749
0.045465 -0.011817 -0.010601 4802889
0.024964999 -0.022088001 0.027509 5460819
-0.045322001 -0.013928 0.00077500002 5855577
0.047676001 0.0070830001 -0.010574 3684408
-0.048300002 -0.003604 -0.011719 2631720
0.031860001 -0.002535 0.038343001 657930
-0.020428 -0.026000001 0.023039 7237230
0.024993001 -0.022541 0.026625 5723991
0.025053 0.028550001 -0.0010930001 9408399
-0.035502002 0.022426 -0.0092209997 6513507
0.029146001 0.01044 0.037420999 1447446
0.039613999 -0.011314 -0.025237 2763306
0.012778 -0.001244 -0.048303001 0
-0.0024610001 -0.019506 -0.040254999 3750201
-0.037572999 -0.0077289999 0.03084 1710618
0.001818 -0.0087930001 0.048158001 723723
-0.009993 -0.032333001 -0.00045399999 6645093
-0.01622 0.030866999 -0.0070500001 10329501
-0.0071899998 0.029983001 0.019610001 9145227
0.018499 0.024388 -0.02815 6250335
-0.012546 -0.015437 -0.042374 2500134
0.026258999 0.027962999 -0.0039309999 9474192
-0.011341 0.031218 -0.011582 10132122
-0.039976999 0.010029 -0.025903 2236962
-0.035631001 -0.015509 0.026044 3618615
0.014841 0.0071390001 0.046505 657930
-0.001927 -0.019304 -0.040507 3618615
0.028445 0.019887 0.027981 4408131
0.0072559998 -0.025373001 -0.031136001 6513507
0.0047180001 -0.0055889999 -0.049051002 263172
0.048560999 -0.0051520001 -0.0089919996 3684408
-0.0051520001 0.022739001 -0.035867002 5066061
0.049857002 -0.001236 0.003276 3355443
0.049001999 -0.0053380001 0.0057760002 4144959
-0.0046319999 -0.030276 0.019344 9276813
-0.015453 -0.019182 0.037636999 3618615
-8.6e-05 -0.0091570001 -0.048037 789516
-0.028147001 -0.024336001 0.018658999 6447714
0.011104 -0.002145 0.048643 131586
0.006821 0.006393 0.048576001 328965
0.027264999 0.02751 -0.0043919999 9342606
0.037827 -0.019107001 -0.015199 5658198
0.0020290001 0.0084480001 0.048291001 657930
0.031481002 -0.025621001 -0.001413 9342606
0.032570001 -0.021863 -0.018491 5987163
0.047386002 0.0070440001 -0.011862 3552822
-0.0092000002 0.0063379998 -0.048199002 328965
0.048645999 0.0076250001 0.000363 1579032
0.0028830001 0.021893 -0.037301 4605510
-0.042031001 0.012414 -0.019483 3355443
0.043508001 -0.0022809999 -0.024394 1973790
0.002109 0.0028329999 -0.049771 0
0.0026420001 -0.027604001 0.027271001 7697781
-0.046193998 -0.0067400001 0.016179999 2829099
-0.038796999 -0.019698 -0.010203 5789784
0.026958 0.027791999 0.000105 9079434
0.0021190001 -0.032122999 0.011255 9868950
0.026116 -0.014333 -0.036692999 2302755
0.025532 -0.024506999 -0.021664999 6710886
-0.011836 0.023066999 0.033739999 5066061
-0.016016001 0.019849 0.036593001 3750201
0.012781 0.012422 -0.044523999 1250067
0.042498 0.017379999 -0.00068200001 4408131
0.028763 0.015931999 0.033015002 2829099
0.013463 -0.015721999 0.041848999 2434341
-0.021918001 -0.022011001 0.030122999 5000268
-0.002479 -0.0093700001 0.047878001 855309
-0.031546999 -0.025164001 0.0071479999 7829367
-0.023743 0.0038030001 -0.043623999 460551
0.0088590002 0.0176 -0.041356999 2763306
0.012407 0.0056269998 0.047680002 328965
-0.022386 0.029313 -0.0051290002 9803157
-0.001253 0.020285999 0.039416999 3618615
0.007913 0.018034 0.041119002 2960685
-0.017603001 0.0051580002 0.046140999 592137
0.008719 -0.026815999 0.027806001 7303023
-0.015102 0.010723 0.044810001 1250067
0.017579 0.028542999 0.017907999 8750469
-0.0094250003 -0.029163999 0.021415999 8816262
0.017065 -0.019750001 -0.03624 3815994
0.027420999 -0.001785 -0.041722 131586
0.011848 -0.019308999 -0.038777001 3487029
-0.045867998 -0.0099020004 -0.013078 3618615
0.018246001 0.00065 0.046542 197379
0.036552999 0.020602999 -0.013761 6052956
0.024613 0.0042670001 0.043039002 657930
0.026773 0.008107 -0.040401999 789516
0.016171001 0.018774001 -0.037806999 3223857
-0.025203999 -0.028491 -0.0011390001 8882055
0.01428 -0.014919 0.042250998 2171169
-0.0081749996 -0.021887001 -0.036516 4934475
-0.028282 -0.013773 -0.035562001 2500134
0.044707 -0.0098660002 -0.016669 3618615
0.00057799998 -0.032864001 -0.004501 10263708
-0.0021639999 0.0058490001 -0.049160998 263172
-0.049109999 0.001359 -0.0091660004 2565927
-0.014629 0.023498001 -0.031911999 5658198
0.022012999 0.016454 0.037335001 2697513
0.047736 -0.0092730001 0.004888 4934475
0.0022499999 -0.022762001 0.036132 4934475
0.020680999 0.0057279998 -0.044688001 263172
-0.046999998 0.011235 0.001104 5131854
0.0095990002 -0.022413 -0.035420001 4802889
0.042204 -0.017225999 -0.0061340001 6052956
0.029894 -0.026287001 -0.0044740001 9013641
0.027717 0.024704 -0.018185999 6842472
-0.0040270002 -0.017123999 0.042552002 2697513
0.011786 0.028543999 0.022151001 8289918
0.047538999 -0.00483 0.013656 2894892
0.017911 -0.009141 0.044580001 986895
0.043356001 0.0062520001 0.023033001 2368548
0.010928 -0.032170001 0.0021929999 10132122
-0.032566998 -0.023077 0.014724 6645093
-0.041136999 -0.01045 0.023600999 2763306
0.026098 -0.013883 0.037101001 2302755
-0.033155002 -0.0048130001 0.036710002 986895
-0.016419001 -0.025521001 -0.027114 6842472
0.043938 -0.0086960001 -0.019895 3026478
-0.0056759999 -0.032242998 -0.0090089999 10395294
-0.020571001 0.022188 -0.030766999 5197647
-0.014696 0.024258999 -0.030545 6118749
0.009749 0.022647001 -0.035036001 4934475
-0.031047 -0.010933 0.035519999 2039583
0.0091049997 -0.01565 0.043067999 2236962
-0.028498 -0.019869 0.027957 4539717
-0.032793999 0.010579 -0.034171 1710618
-0.028088 0.022728 0.022917001 5723991
0.034201998 -0.013047 -0.030649999 2631720
0.028403001 0.027017999 -0.0041820002 9079434
-0.015851 0.020719999 0.035541002 4079166
0.010105 0.021303 -0.036823999 4210752
0.027141999 -0.026675999 0.011387 8289918
-0.046907999 0.0068600001 0.013841 3158064
0.0418 -0.0071569998 0.025203001 1973790
0.043528002 0.0024009999 -0.024333 1842204
0.034177002 0.023871999 0.0048659998 7763574
0.020662 -0.0081989998 0.043804001 855309
0.0076870001 0.01345 0.045007002 1644825
-0.045205999 0.01226 0.010552 4802889
-0.018381 0.022840001 0.031057 5263440
0.002113 -0.030629 -0.01849 9737364
0.015618 0.027505999 -0.022786999 7960953
-0.0096610002 -0.032035001 -0.0071259998 10132122
0.0086740004 0.028105 0.024726 7763574
-0.033992 -0.024089999 -0.0035019999 7368816
-0.011998 -0.0026400001 0.048374001 263172
0.027906001 0.014841 0.034866001 2500134
-0.027953999 -0.024706 -0.017813999 7303023
0.034692999 -0.010712 -0.032140002 2105376
-0.035099 -0.001642 0.035521999 921102
-0.033525001 0.0058050002 0.036038 1184274
0.015582 0.017424 -0.039500002 2697513
-0.016226999 -0.026051 0.026053 6974058
-0.02568 0.01531 -0.036088999 2500134
-0.044133 -0.013808 0.010707 5000268
0.0071009998 0.02634 0.029270999 6579300
-0.040073 -0.00526 -0.028821001 1381653
0.0071200002 0.010633 -0.046794999 921102
-0.022245999 0.021733001 0.030344 4934475
0.019324999 -0.001346 -0.046069 65793
-0.037152 0.015322 0.0241 3815994
-0.019370001 -0.028515 -0.016068 8750469
0.035618 0.022488 -0.0083910003 6710886
-0.039503001 -0.00091599999 -0.030619999 986895
0.00066399999 -0.014772 0.044705998 1973790
-0.005223 0.022328001 -0.036444001 4868682
0.019326 0.030368 -0.003063 10724259
0.033381999 -0.0081160003 0.035133999 1381653
0.017941 -0.025876001 -0.025318 6908265
-0.025897 0.027863 -0.0068600001 9276813
0.0053420002 -0.0035580001 0.049421001 131586
-0.001981 -0.017047999 0.042764999 2697513
0.01283 0.010375 -0.045697998 789516
0.010289 0.032140002 0.004772 9737364
-0.00046700001 0.0025309999 -0.049851 131586
0.044544 -0.0021530001 0.022476001 1842204
0.045095 -0.011906 0.011877 4605510
-0.048009001 -0.0037410001 -0.012767 2631720
0.032883 -0.020819001 -0.020584 5460819
0.004766 0.014733 -0.044486001 1907997
0.040431999 -0.014193 0.020068999 3881787
0.025122 -0.011892 0.039297 1710618
0.032127999 0.020416999 0.022601999 5066061
-0.028098 -0.026706999 0.0085519999 8092539
-0.021331999 -0.00011 0.045221001 526344
0.039384998 -0.018134 -0.013925 5395026
0.0086059999 -0.018137001 -0.040874999 3092271
0.027956 0.027346 -0.0013079999 9145227
0.033291001 0.010913 -0.033442002 1776411
0.025831001 0.023277 -0.024267999 6052956
-0.001342 -0.0026080001 -0.049826 131586
-0.00065499998 -0.028052 0.026325 7829367
-0.030977 0.01918 0.026380001 4342338
-0.011936 -0.0022710001 -0.048432 197379
-0.012186 0.020191001 -0.037625 3881787
-0.021442 0.011043 -0.041956 1250067
0.025397999 -0.0057060001 -0.042192999 460551
-0.036663 -0.021615 0.0091249999 6579300
0.020732 -0.030028 -0.00038700001 10197915
-0.046590999 -0.011967 -0.00070600002 5329233
-0.010291 0.030777 0.01482 9803157
0.013611 -0.022417 0.034074001 5066061
0.0073719998 0.0070529999 -0.048285 263172
0.025787 -0.016843 0.034405999 3289650
-0.0059449999 0.027415 0.02719 7368816
0.044985998 -0.003705 -0.021089001 2302755
-0.031066 -0.022209 0.020063 5789784
0.0079939999 0.017833 0.041304 2894892
-0.022303 -0.003183 0.044489998 657930
0.012049 -0.028129 -0.023203 8355711
-0.021537 -0.019145001 -0.034564 3947580
0.00073000003 -0.031872001 -0.01294 10526880
0.039746001 0.0081350002 -0.027719 2039583
0.0018720001 0.010482 -0.047373999 921102
0.037377998 0.006114 -0.031892002 1315860
0.034255002 0.01709 -0.025614999 3881787
-0.0041 0.0022789999 0.049711999 197379
0.046909001 0.0050929999 0.015493 3158064
-0.007429 0.020707 -0.038217001 4013373
0.030501001 -0.014977 0.032476999 2829099
-0.035840999 -0.017209001 0.023142001 4210752
0.042341001 0.010387 0.021438001 3092271
-0.015637999 -0.031115999 0.0057219998 10066329
0.031422 0.024439 -0.011893 7303023
-0.030625001 -0.024062 -0.015264 7105644
-0.0087789996 -0.017510001 -0.041462 3092271
0.011837 -0.025828 -0.028782999 6710886
-0.017137 -0.014957 -0.041143 2368548
0.040408 -0.0091829998 0.025953 2171169
0.018371999 -0.011625 -0.043037999 1250067
-0.0033789999 -0.032434002 0.0085779997 10329501
-0.036408 0.017495001 -0.021721 4210752
-0.036070999 0.022807 0.002166 7960953
-0.0066860002 0.0094720004 0.047426999 921102
0.012553 0.029539 0.018421 8947848
0.001783 -0.032331999 -0.0098519996 10066329
0.029262999 -0.0059620002 -0.039523002 723723
-0.043451 0.015331 -0.0085110003 5395026
0.03585 -0.022786999 0.00477 7105644
0.029909 0.019619999 -0.026865 4539717
-0.00044 -0.005101 -0.049396999 263172
-0.0096770003 0.032262001 0.0041140001 10592673
-0.022572 0.01544 0.03799 2565927
0.048266999 -0.0031280001 -0.012158 3026478
-0.006232 -0.024652001 0.032650001 5921370
0.035838 -0.0020560001 -0.034726001 921102
-0.036966 -0.021212 0.010028 6316128
0.004704 0.024096999 0.033836 5329233
0.0051810001 0.030655 -0.01777 9803157
-0.031376 0.024932999 -0.0094039999 7697781
0.041898999 0.017101999 -0.0085450001 5460819
0.023881 0.028531 0.0078090001 9079434
0.005041 -0.021844 -0.037137002 4539717
-0.029294999 0.0057160002 -0.039583001 657930
-0.032267999 0.0090619996 -0.035640001 1447446
0.049355 0.0034759999 -0.0060239998 3881787
-0.039928 0.019776 -0.002815 7500402
-0.01554 -0.028844001 0.018669 8816262
0.010229 -0.030939 -0.014066 9868950
-0.017919 -0.028124999 -0.019052999 8684676
0.015745001 -0.0079950001 -0.045883998 657930
-0.018526999 0.0081909997 0.044752002 855309
-0.026188999 0.001418 -0.042537998 394758
0.018692 -0.0074749999 0.044969998 723723
-0.038038 -0.012123 -0.026753999 2631720
-0.0054819998 -0.018093999 -0.041453 3289650
-0.027759001 -0.022933001 0.022849999 5855577
-0.03624 -0.015358 0.0254 3618615
-0.001466 -0.020195 0.039517 3815994
0.0095330002 -0.031674001 0.010293 9803157
0.010411 0.032253999 -0.00183 10461087
0.045290001 -0.0074539999 -0.017925 2894892
0.0079460004 0.03249 -0.0036760001 10724259
-0.044289 -0.015056 -0.004253 5592405
-0.046642002 -0.010314 0.0089619998 4408131
-0.025617 -0.023739001 0.023453999 6052956
-0.00023600001 -0.001716 0.049931999 65793
-0.023643 0.01942 0.032790001 3881787
-0.043954 0.0059779999 -0.022046 2039583
0.037303001 -0.001833 0.033178002 986895
-0.044654001 0.014729 0.0028210001 5658198
-0.002322 -0.0054620001 -0.049256001 394758
0.0054830001 0.028075 0.025700999 7566195
0.031259 0.01131 0.03506 1842204
0.041382 0.0037179999 -0.027491 1644825
0.049725 -0.00098600006 -0.00502 3289650
-0.030414 0.0056679999 0.038745999 986895
-0.016522 -0.015713001 -0.040746 2500134
0.010197 -0.032306001 -0.000363 10395294
-0.041841 0.002379 -0.027136 1315860
0.016161 -0.017752999 -0.038926002 2960685
-0.027594 0.027323 -0.0049760002 8816262
-0.017546 0.00054500002 -0.046813 263172
0.0043520001 0.027782001 -0.026631 7960953
-0.024413001 0.028793 -0.00085900002 10132122
-0.031495001 0.023477999 -0.015579 6645093
-0.048416998 -0.005655 0.009075 3684408
0.040316999 -0.008285 -0.026776001 2302755
0.013199 0.018716 0.039007999 3355443
0.02695 0.027437 0.0067480002 8816262
-0.036889002 -0.0045690001 0.033034001 1250067
0.035889 -0.006883 -0.033213999 1381653
0.0063999998 0.030339001 -0.018601 9605778
0.018619001 -0.030207001 0.0076569999 10000536
-0.03118 0.0064829998 -0.037833001 855309
-0.01062 -0.030273 0.016834 9408399
-0.038447 -0.00076899998 -0.031945001 789516
-0.020577 -0.021279 -0.032205001 4868682
0.032919999 -0.014063 0.031021001 2763306
-0.022856999 0.002899 -0.044252001 460551
0.0079140002 -0.032117002 0.0083259996 9737364
0.016581999 0.028065 0.020417999 8421504
-0.0091030002 0.018482 0.040410001 3158064
-0.0057780002 0.029689001 -0.021051999 9539985
-0.034333002 0.00336 0.035990998 986895
0.049082 -0.0020699999 -0.0090060001 3092271
0.004156 0.001104 0.049798999 0
0.038562998 0.019551 0.011637 5723991
-0.008231 0.011713 0.046014 1381653
0.00098000001 -0.012727 -0.046121001 1513239
-0.022 -0.020807 -0.031971 4671303
-0.026301 0.011347 -0.038892999 1447446
0.026981 0.018523 -0.031374 3815994
0.021506 -0.016333001 0.037751 2894892
0.040784001 0.017511999 0.011517 5329233
-0.0066490001 -0.027935 0.025775 7829367
0.043928999 0.01548 0.0044920002 6184542
-0.0061460002 0.025914 -0.030340999 7039851
0.041884001 -0.0053770002 0.026063999 1776411
0.023091 -0.019719001 -0.032775 4079166
0.029948 -0.011353 0.036155999 1776411
0.037342001 -0.001687 0.033151999 986895
-0.024987999 -0.023383999 0.024905 5789784
-0.0088889999 0.029007001 0.022120999 8618883
-0.047602002 0.0099820001 0.0023050001 5460819
0.025242001 0.0084429998 0.041221 986895
-0.042826999 -0.0089959996 -0.021911001 2500134
0.0082879998 0.019975999 -0.038926002 3618615
-0.047068998 -0.005624 -0.014557 2697513
0.020072 -0.016650001 -0.038219001 2763306
-0.047495 0.007584 0.010593 3881787
0.017591 0.029474 -0.014012 9211020
0.041719001 0.0175 0.0075130002 5921370
-0.041347001 0.016801 0.011937 5526612
0.0072209998 0.02922 0.022086 8421504
0.042192999 -0.017299 0.005723 6316128
0.046751 0.011217 -0.005049 4868682
-0.047541 -0.00072499999 -0.015447 2236962
-0.00034699999 -0.015703 -0.043974999 2302755
-0.034550998 0.023566 -0.0055959998 7697781
-0.037622999 -0.011534 -0.027912 2368548
-0.017224001 0.027198 0.022476001 7631988
-0.011656 0.027799999 0.024288001 7763574
0.039953999 0.012032 -0.023902999 3092271
-0.003553 0.003398 -0.049607001 131586
0.040901002 -0.002174 0.02857 1381653
0.0073449998 0.0056870002 0.048700999 263172
-0.031702999 -0.024493 0.01085 7303023
-0.047896001 0.001912 -0.014058 2236962
-0.016284 -0.0058599999 0.046433002 657930
-0.026033999 -0.013675 0.037322 2368548
-0.010936 0.031915002 -0.006486 10592673
0.011743 0.022477999 -0.034672 4868682
-0.043905001 0.012227 0.015137 4210752
-0.032823998 0.010846 -0.033948999 1776411
-0.00483 -0.030610001 -0.018046999 9803157
-0.035296999 -0.003021 -0.035115998 855309
0.014174 0.022391999 -0.033882 4934475
-0.041048001 0.0093459999 -0.02479 2105376
-0.0090330001 0.032437 -0.001748 11513775
0.043400999 -0.015683001 -0.007191 5592405
0.029842 -0.004642 0.039496001 723723
0.014274 -0.028348999 -0.021243 8487297
0.021492001 -0.026715999 -0.019990001 7895160
0.0048290002 0.032566 0.0064810002 10066329
-0.037216999 -0.013189 0.026749 2960685
-0.028894 -0.0024059999 0.040642999 723723
0.021179 -0.028556 -0.013393 9474192
-0.013661 -0.029045001 -0.019408001 9145227
-0.042389002 -0.016104 0.010383 5460819
-0.049534 0.0044399998 -0.0010779999 5987163
-0.030034 0.020287 -0.025557 4737096
0.023848999 -0.015398 0.037241001 2697513
0.019358 0.030355999 0.0031330001 10461087
-0.040860001 0.011313 0.023165001 3092271
-0.043659002 0.014807 -0.0095159998 5131854
0.021470999 -0.025952 0.022201 7434609
-0.025165999 -0.025142999 0.020381 6908265
-0.02916 0.023232 -0.020262999 6447714
-0.022530001 0.01008 -0.041942 1118481
-0.024405999 0.027706999 0.011915 8750469
-0.047262002 0.010567 -0.0031630001 5526612
-0.019616 -0.0053039999 0.045283999 723723
-0.043017 -0.012832 -0.016476 3815994
0.039728999 -0.015434 0.019359 4342338
-0.02173 -0.02963 -0.00352 10197915
0.001829 0.028681999 -0.024659 8618883
0.048537001 -0.0077800001 -0.002287 4737096
-0.041825999 -0.016505999 0.011186 5526612
0.039758001 -0.019724 -0.0051239999 6974058
0.0036539999 0.018358 -0.041388001 3092271
-0.01466 0.0046250001 0.047286 526344
0.035886999 -0.01151 -0.030134 2302755
-0.021258 -0.012603 -0.041030001 1776411
0.031736001 -0.025342001 0.0043029999 8224125
-0.023122 0.018964 -0.033760998 3750201
-0.0065139998 -0.001487 -0.049523 65793
-0.047385 -0.010087 0.0045940001 5000268
-0.00043399999 -0.031851999 0.013066 9934743
-0.038141001 -0.020137999 -0.010689 5987163
-0.049520999 -0.00096799998 0.0067480002 2960685
0.021435 0.011503 -0.041673999 1184274
-0.049989 -0.00067799998 9.2000002e-05 3289650
-0.022484999 -0.011065 -0.041393001 1447446
0.026036 -0.02293 -0.024800999 5723991
0.037806999 0.00081699999 -0.032697 1052688
0.0041780001 -0.011409 -0.046730001 1118481
-0.011269 -0.020401999 0.037648998 3947580
0.0040790001 -0.015159 -0.044225 2105376
-0.0051210001 0.032756999 -0.003241 11447982
-0.047329001 0.0079410002 0.010735 3947580
0.023158999 -0.027698001 -0.014228 8882055
-0.046273999 0.011986 -0.0053719999 5395026
0.037273999 0.010078 0.029623 2105376
0.0033780001 -0.025597 0.031376 6447714
0.042613 -0.011354 -0.019701 3289650
0.042959001 0.002445 -0.025315 1776411
0.046372999 0.0099449996 -0.011066 4210752
0.032272998 0.012017 -0.033569999 1973790
-0.036474999 0.015317 0.025119999 3618615
-0.021824 0.0063530002 -0.043944001 657930
0.013626 0.016752999 -0.040865999 2434341
-0.021712 -0.0063780001 0.043990999 921102
0.047207002 -0.0093689999 0.0083670001 4605510
-0.021593999 0.018102 0.035797998 3355443
-0.048535001 0.00068300002 -0.01197 2236962
0.046838 -0.0069599999 -0.013963 3421236
0.045109 -0.0037839999 -0.020792 2302755
0.0052029998 0.018145001 -0.041437998 2960685
0.034556001 -0.021829 0.014559 6381921
0.0039860001 0.016268 0.04332 2302755
-0.049198002 0.005107 0.0044399998 4473924
0.031660002 -0.022946 0.016997 6513507
0.021871001 -0.0096650003 0.042511001 1118481
-0.027319999 -0.027195999 0.0074669998 8355711
0.020795001 -0.012585 0.041280001 1710618
-0.0051230001 -0.016772 0.042753998 2565927
0.0029509999 0.029813999 -0.021228001 9408399
0.023393 -0.0021550001 0.044069 460551
-0.003643 0.025537999 0.031456999 6052956
0.045736 0.013231 0.0025200001 5460819
-0.025684001 0.018888 0.031957999 3750201
-0.021299999 0.026888 0.019662 7697781
-0.014025 0.019809 0.037450001 3684408
-0.001006 0.032689001 0.0067710001 10395294
0.044149 0.010063 0.017843001 3355443
0.016446 0.002021 -0.047118001 16777215
0.0035389999 0.028114 0.025942 7697781
-0.0047920002 -0.024901001 -0.032458 6447714
-0.0066519999 -0.032467 0.005988 10197915
0.020479999 -0.030029999 0.003217 10197915
-0.022329001 -0.026542 -0.019599 7960953
0.042211998 -0.011767 0.020006999 3552822
-0.018053999 -0.0075369999 0.045207001 855309
0.021345001 -0.029695 0.0044780001 10592673
-0.027689001 -0.02241 -0.024091 5855577
0.011172 -0.0059620002 -0.047890998 328965
0.002903 -0.028224999 0.025742 8092539
0.0021269999 -0.0056599998 -0.049213 263172
-0.033670999 0.018857 -0.023451 4408131
-0.008409 -0.032361999 0.0050050002 10197915
-0.016793 0.019925 -0.036146 3815994
-0.002443 -0.032768 -0.0053949999 10592673
0.014257 0.021016 -0.035815999 4276545
-0.001566 0.021755001 0.037563 4276545
0.035580002 0.022948001 0.005012 7566195
-0.041230001 0.017814999 0.0084549999 6316128
-0.040348001 -0.019384 0.0030799999 7039851
0.022260999 -0.017603001 0.03596 3289650
0.045906 0.01307 0.000718 5395026
-0.002108 -0.02905 0.023627 8553090
-0.033195 -0.0072329999 0.035749 1381653
-0.03128 0.0038350001 -0.038571998 592137
-0.049222998 0.003765 -0.0066740001 3684408
0.01146 0.02881 -0.021523001 8750469
-0.016982 -0.019277999 0.036857001 3618615
-0.019115999 -0.010628 -0.043304 1315860
0.048386 -0.003885 0.01114 3026478
0.041643001 0.015101 -0.015567 4539717
-0.033741001 -0.019026 -0.023033001 4934475
0.0069610002 -0.032349002 0.0070130001 9605778
-0.0064340001 0.021946 -0.036782 4671303
0.034084 0.001591 -0.036502998 592137
0.018124999 0.011024 0.043503001 1381653
0.044418 0.010579 -0.016435999 3684408
-0.00026599999 -0.026280999 -0.030238001 7039851
0.023565 -0.0068979999 -0.042842999 592137
0.027550999 0.0044439998 0.041177999 592137
0.013278 0.010133 0.045694001 1052688
0.020196 0.028725 -0.014068 8947848
0.019224999 -0.014743 -0.040391002 2105376
-0.020517999 0.015199 0.039354 2434341
-0.045621 -0.011109 -0.011636 4013373
0.017519999 -0.021122999 -0.034187 4408131
-0.039647002 -0.017793 0.014188 5329233
0.018168001 0.0041350001 -0.046158999 131586
0.001197 -0.016465001 -0.043315001 2500134
-0.0052829999 -0.032714002 0.0038989999 10658466
-0.020506 -0.011992 0.041825999 1710618
0.036210001 0.0058309999 -0.033328999 1184274
-0.023324 0.015434 -0.037539002 2500134
-0.0083640004 0.005326 -0.048631001 197379
-0.036284 -0.014655 0.026276 3355443
0.0080019999 0.029068001 0.022275001 8421504
-0.023546999 -0.017326999 0.035443999 3223857
0.0087780003 0.027984001 -0.025003999 8224125
0.044046 0.013653 0.01149 4802889
-0.010748 -0.012294 -0.045139 1710618
0.025609 -0.012257 -0.038720999 1776411
0.047623001 -0.00079899997 -0.015185 2697513
-0.023892 -0.028929999 -0.0028049999 9605778
0.024689 -0.007305 -0.042047001 657930
-0.044094 -0.0098860003 0.018203 3092271
-0.017976001 -0.030748 0.0025289999 9934743
-0.049711 0.0033849999 0.001587 4342338
0.011107 0.0138 0.044039 1776411
-0.02397 0.015745999 -0.036827002 2631720
0.0096380003 -0.030813999 0.015078 9605778
0.0029450001 0.023668 0.034719002 5197647
0.0068450002 -0.031067001 -0.01541 9803157
0.022348 0.0076859999 -0.043184999 526344
-0.001125 0.0069920002 -0.048852 394758
0.0058019999 0.0038360001 -0.049321 65793
-0.033794999 0.020097001 -0.020753 5066061
0.017795 -0.024573 -0.028233999 6118749
-0.0032589999 0.030223001 -0.01981 9868950
0.041907001 0.016861999 0.00954 5526612
0.048230998 0.007617 0.0063689998 4737096
-0.030781999 0.018162001 -0.028200001 3881787
-0.014131 -0.030820001 -0.010942 9934743
0.027751001 -0.025286 -0.016187999 7566195
0.0166 -0.026564 0.024587 7631988
0.047488999 0.0056469999 -0.013101 3092271
-0.031913001 -0.024893999 -0.0076779998 7500402
0.045511998 -0.012825 0.0071439999 5395026
-0.049082 -0.0024049999 0.008812 2960685
0.0080000004 0.0096819997 -0.047125001 723723
-0.019083999 -0.014218 -0.040886998 2171169
-0.017802 -0.030836999 0.000102 9803157
0.027113 -0.0026 0.041825 526344
0.012535 -0.02726 -0.025238 7631988
-0.040720999 0.016272999 0.015294 4934475
0.002565 -0.016206 -0.043480001 2368548
-0.0086949999 0.0060879998 -0.048365999 263172
0.048622001 -0.00758 0.0020089999 4605510
-0.046248998 -0.007493 0.015235 3026478
-0.029391 0.025766 -0.010585 7829367
0.0032039999 -0.031975999 -0.011936 10197915
0.047970999 -0.0035389999 -0.013039 3026478
-0.031690001 0.019299001 0.025312999 4605510
0.048303999 -0.0042539998 0.01119 3092271
0.037223 0.01375 -0.026085 3092271
-0.02132 0.01016 0.042525999 1250067
0.022087 0.028561 -0.011811 8750469
-0.048092999 0.003423 -0.012655 2434341
0.041125 0.015035 -0.017022001 4473924
0.029088 0.0031979999 0.040378001 592137
-0.046122 -0.012545 -0.003388 5460819
-0.043559998 0.016192 0.00082000002 7039851
0.0041769999 0.026513999 0.029472999 6513507
0.031491 0.0087750005 -0.036490001 1118481
0.040222999 0.002269 -0.0295 1315860
0.0076290001 -0.025407 -0.030982001 6513507
-0.0021619999 -0.0024870001 -0.049810998 131586
-0.0062569999 0.022679999 0.035778001 4802889
-0.0083259996 0.0036009999 -0.048999 131586
-0.004276 0.0054350002 -0.049132001 328965
0.029479999 -0.014333 0.034049001 2565927
-0.035395999 0.015019 0.027004 3289650
-0.021034 -0.018456001 0.035716001 3552822
-0.0070509999 -0.015778 0.043345001 2236962
0.010116 0.0044820001 -0.048493002 65793
-0.023097999 0.020918 -0.031016 4737096
-0.012748 -0.029224999 0.019409999 8882055
-0.014411 0.0024860001 0.047729999 394758
-0.038713001 -0.020284999 0.007526 6513507
0.012276 0.031723998 0.0062370002 10066329
-0.022826999 -0.0034479999 0.044176999 723723
-0.037872002 0.017689999 0.018635999 4934475
-0.018353 0.028602 -0.016883999 9013641
-0.033160999 0.022328001 -0.015993999 6316128
0.023778999 0.004561 0.043437 657930
0.034058999 0.020548999 -0.01925 5526612
0.019212 0.001237 -0.046124 65793
-0.031684998 0.025133001 0.0067779999 7763574
-0.015236 -0.029812001 0.015085 9276813
-0.00661 -0.028666999 0.023869 8421504
-0.001106 0.013462 0.045637 1776411
0.023319 -0.026234999 -0.019393999 7697781
-0.042761002 -0.000216 0.025909999 1579032
-0.044124 0.0057120002 -0.021867 2039583
0.013762 0.017402999 0.040190998 2960685
0.027108001 0.025341 0.017059 7171437
-0.044562001 0.0058909999 -0.020845 2171169
-0.014252 0.029407 -0.017651999 9737364
-0.040231999 -0.013388 0.021677 3421236
0.03765 -0.0060990001 -0.031576999 1579032
0.045747001 -0.012723 -0.005967 5592405
-0.0048199999 -0.031606 -0.013548 10132122
0.013729 -0.025482999 -0.028649 6645093
0.016686 0.031029001 0.0033549999 9934743
-0.037362002 3.7000002e-05 0.033227 1118481
0.0087320004 -0.032442998 -0.002721 10132122
-6.1999999e-05 -0.031823002 0.013236 10000536
0.037268002 0.0091700004 -0.030300001 1842204
-0.001238 -0.0031590001 0.049755 131586
0.0046430002 0.00087599998 -0.049766 16777215
0.016714999 0.030156 0.011531 9671571
-0.038042001 -7.7999997e-05 0.032446999 1052688
