ply
format ascii 1.0
comment PCL generated
element vertex 1427
property float x
property float y
property float z
element camera 0
property float view_px
property float view_py
property float view_pz
property float x_axisx
property float x_axisy
property float x_axisz
property float y_axisx
property float y_axisy
property float y_axisz
property float z_axisx
property float z_axisy
property float z_axisz
property float focal
property float scalex
property float scaley
property float centerx
property float centery
property int viewportx
property int viewporty
property float k1
property float k2
end_header
0.99510515 -0.97191358 0.95438182
0.5256294 0.90251505 1.5382471
-0.98906672 -1.1011825 1.23435
0.13083689 -0.17194387 1.0124464
-0.51239145 -0.30762389 0.83208752
-0.499836 0.46236533 0.96394563
-0.048189983 -1.3494906 2.8188028
-0.19005896 -0.073802315 0.96932435
-1.1396472 -0.35495222 -0.17280459
0.43173462 0.70031989 1.3040531
0.25872153 0.49969268 1.1827559
-1.1728777 -0.92885804 0.48713523
1.0777984 -0.91198504 0.67006749
-0.4759742 0.23731381 0.82976639
0.17507394 0.83811378 1.6717839
-0.22181696 0.37653369 1.0925748
-1.3521106 0.64944786 -0.40642107
-0.1550747 0.2468695 1.0368963
0.80769593 0.2772744 0.42450839
1.0571479 0.8553856 0.61412305
-0.66574621 1.3432493 2.3611012
0.075998425 -0.30667374 1.088273
0.75573087 -1.0960827 1.6302681
1.401494 0.21433152 -0.91824758
-0.52584314 -0.64005685 1.1331617
-0.72607237 -0.39274091 0.62706441
0.76007813 0.32227197 0.52614051
-0.058228329 0.21741123 1.0438771
-1.0321651 -0.53296757 0.21868986
0.47036371 -0.77646965 1.3816631
-0.76006448 -0.11876135 0.43640625
0.16610073 -0.14242724 0.99269605
-0.4598701 -0.86468875 1.5362061
1.1355853 0.11212713 -0.27698135
-0.4976491 0.27667618 0.82889503
-0.71021086 0.82082963 1.1693619
-0.52223277 -0.45117643 0.9308331
0.54797041 -1.3832765 2.6131825
-0.74653476 0.00096302707 0.44268674
0.38785768 -0.5092122 1.1088635
1.4543744 0.18752822 -1.0800381
0.37663722 -0.10983269 0.87020761
-0.77342391 -0.70851862 0.9038142
0.83602726 0.19400433 0.33869606
0.56841314 -0.12883547 0.69350505
1.494123 -0.12249231 -1.2173994
0.55531937 0.15902162 0.71690828
-1.090914 0.41146615 -0.020788908
1.1996765 0.87881148 0.33308578
-1.3968511 0.53856742 -0.66113794
-0.75017357 -0.42599809 0.61871415
-0.066998295 0.86221766 1.7389306
0.32592273 -0.089964822 0.90186805
-0.83485341 -1.2296656 1.8150973
1.2483253 -0.83067071 0.13169789
-0.27941674 -0.19576588 0.96025056
1.380047 -0.5345211 -0.61881673
1.4704682 0.10360944 -1.1515417
0.067020103 -0.21263118 1.0407203
0.01989479 -1.0158536 2.0315623
0.95944381 -0.52384871 0.35388517
-0.0024054328 0.16529375 1.0273162
-0.92446101 -0.80748665 0.79740661
-0.4889465 -1.064002 1.8930317
0.32278341 0.46342808 1.1105765
0.10598962 1.1031936 2.2058024
1.348341 -0.65710711 -0.38623333
0.48126262 -0.22289634 0.81806904
-1.310001 -0.61111516 -0.34264052
-0.81643099 1.2532747 1.9041378
0.23596933 0.15974782 0.96983784
-0.13842282 0.096656889 0.99018168
-1.4436361 0.079289205 -1.0777986
-0.97943556 -0.66674376 0.48525327
-1.2942549 0.317904 -0.5740329
1.3215463 0.45697057 -0.53766286
1.04368 0.64715755 0.32954502
-0.69035172 0.98918903 1.5019095
0.13374043 0.00017930982 0.98211354
-0.60383415 0.34444165 0.75402439
0.77394891 1.0836599 1.5753217
0.28248879 -0.23743805 0.97657692
0.47572464 0.64918673 1.1951295
1.129914 -0.25940025 -0.20941722
-1.020522 0.68637669 0.42964768
0.50950545 1.410815 2.730803
0.043665186 1.4290493 3.0402753
-1.0762267 -0.25041968 -0.095553756
0.60053134 0.045391187 0.64142251
1.474556 0.24561779 -1.1139872
-0.36664283 0.046901431 0.86777282
0.90421534 -1.1536906 1.5133963
-0.66761541 0.59190547 0.90464175
-0.18189174 1.3909379 2.9016237
0.14682084 1.2367076 2.5078893
-1.3589274 -0.33217189 -0.73634541
-0.78607357 1.2310693 1.8976204
-1.4558197 0.35815659 -0.99113476
0.030838259 1.4589869 3.1276917
0.3423177 1.2865672 2.5380735
-0.16450588 -1.4220476 2.9951572
0.06256824 0.089486457 1.0040931
1.2425069 0.010003592 -0.54372334
-0.014340548 -0.060936548 1.0035076
0.47113597 -0.9885906 1.7553425
-1.210922 0.099427119 -0.45644641
0.55282605 -1.1994064 2.1329589
0.60644329 -0.65711212 1.064023
-0.60990834 -0.17942441 0.66020495
-0.82353079 -0.50867081 0.58054304
0.27110511 -0.51197153 1.1886169
0.40781003 0.63566208 1.2377572
-1.3163228 -0.45649543 -0.52431762
-0.48342589 -0.73839968 1.3115335
0.5855155 0.17617108 0.68820786
-0.919559 0.28498808 0.23562944
-0.17617202 1.4080654 2.9516115
0.035407566 -1.1280053 2.2711422
-0.4103348 1.4350109 2.8908815
-0.11374629 0.51835513 1.2557538
0.25934827 0.95254433 1.8400791
-0.10733792 0.062898323 0.99243474
0.88082546 0.76776183 0.81360501
0.16710845 1.3046223 2.6741142
-0.72064131 0.37533569 0.62155294
-0.98033249 0.41426665 0.21056503
1.3451045 -0.49379843 -0.56546926
-1.3100011 0.73055756 -0.18238866
0.075069368 0.35035747 1.1171149
-0.3202872 1.0552995 2.0110731
0.99658108 -0.37205103 0.14524794
0.89942205 0.23761748 0.24750203
-0.54553866 0.71137202 1.2084377
-1.3330767 0.13417573 -0.7590903
-0.089576736 0.99353111 1.97908
0.1271234 -1.4887843 3.2003183
-0.77569711 -0.19789353 0.43745589
-1.328096 0.013067205 -0.76366842
-1.1012095 0.2573759 -0.14642012
-0.20247158 0.48029584 1.1896894
-1.0172112 -0.30208808 0.056538701
0.96923459 1.1438277 1.368926
-0.83297992 1.2183502 1.7905219
1.4669254 -0.11933097 -1.1376297
-0.77802122 -0.87065995 1.1527318
0.65927911 -1.2984669 2.2513676
0.6003058 0.1264677 0.65562701
0.3499299 -1.3625276 2.7340307
-0.59758115 -0.96809793 1.5801105
0.33565062 0.07639496 0.89317483
0.85352236 0.23326126 0.32591051
-1.1640877 0.86493349 0.3930099
0.4737401 -0.064779595 0.77976668
0.12892613 1.4693764 3.1424451
-1.0485502 -1.0471032 0.99696738
-0.36467627 0.67469859 1.3222295
-0.45593163 1.4205663 2.8101349
-0.71631002 -1.1411089 1.7890294
1.3256489 0.20263213 -0.71628535
0.35419095 1.2703555 2.4883518
0.13480921 -0.061537944 0.98561341
0.015392572 0.16439208 1.0267879
0.094628528 -0.071160808 0.99610931
-0.88174856 1.1811714 1.6176853
-0.42819756 1.3408637 2.614562
-1.3128512 0.11862854 -0.70950532
0.20667708 0.49326575 1.2005956
0.66057968 -0.34251514 0.68095112
0.13842297 -0.7089982 1.4835175
-1.1220398 -0.89374459 0.53980625
-0.075495481 -0.2902948 1.0785716
-0.037337348 -0.019443506 0.99898398
-0.83365363 0.58276373 0.6446352
-0.83010602 -1.2019892 1.7557017
0.4775334 -0.42067391 0.94892842
0.7020694 0.4158982 0.68006992
0.98657417 -0.79518664 0.65899336
0.18289629 -0.90322304 1.7823608
-0.3454985 0.5055846 1.1362466
-0.78382677 1.0965117 1.5879536
-0.73869962 -0.10056385 0.46443588
1.1854491 -0.10259226 -0.39476442
-0.082462937 -0.40968251 1.1610396
1.0513384 -1.0698918 1.039356
1.3544545 0.63808817 -0.42739093
0.79089022 -0.54002714 0.66612208
-1.2963134 0.74941146 -0.11881101
0.19308758 -0.78234154 1.5747755
-0.29230496 -1.4461943 3.0060356
0.031080628 1.4213316 3.0192177
-0.42217642 1.2242758 2.3206186
-0.75601083 0.41421524 0.60002184
-0.51416105 -0.72569716 1.2622747
0.012642257 -0.0012518873 0.99984175
-0.66712916 1.1139096 1.7957332
-0.40807495 -0.50550485 1.08901
0.68377632 1.1987262 1.9693946
-0.48196876 -0.21145818 0.81242067
-1.4304655 -0.35103545 -0.92300558
-1.0603354 0.93531549 0.75050408
1.0378866 -0.56998771 0.24767733
-0.99605566 0.84588987 0.72340256
0.10226724 -0.78294528 1.6025447
0.83383834 1.2457905 1.8567075
-1.0502067 -0.97111809 0.84013629
0.30589008 0.20024952 0.94653112
-0.14779082 -1.4915433 3.2028594
1.0451473 0.93915772 0.78968436
-0.10331465 -0.4555316 1.1968352
-0.17586353 0.15805438 0.99405318
-0.1093476 0.048249356 0.99037111
1.1921743 -0.77986121 0.18690419
-0.85138297 -1.2287037 1.7848599
-0.84762722 0.068087682 0.28616405
0.50080192 -0.30466035 0.84201533
0.23310241 -0.71391416 1.4553368
0.43990135 0.7109046 1.3118722
0.15260117 0.27648035 1.0531542
-0.84496832 0.96288997 1.2131857
-0.068811156 0.037038587 0.99663687
-0.20182091 -1.4849665 3.1643939
1.232338 -0.8370924 0.18206698
0.10007428 0.016586956 0.99026024
0.63569856 -0.88711327 1.3828573
0.71922523 0.69558239 0.96654993
0.37650615 -1.4278731 2.8970652
-0.059826039 1.2152698 2.4733019
0.22617102 0.34460926 1.0676023
0.63094229 1.1905951 2.0194287
0.31706411 0.24039569 0.95726043
-0.4453612 -0.047769841 0.80393541
1.1068144 -0.62171561 0.16149229
0.34445262 0.22364736 0.93137056
-1.1371425 -0.95641959 0.62164533
-0.13200101 0.079036474 0.98882252
-0.60379142 0.24039498 0.69322568
-1.2692151 -0.38061047 -0.46604252
-1.1522534 -0.89864326 0.47987187
-0.9906773 1.1057363 1.2412108
-0.57936656 1.3825545 2.5757914
-0.18646541 -0.44475237 1.1630353
0.24931979 0.072124839 0.94304162
0.29130173 -0.84174991 1.6236861
0.071377479 -0.090796247 1.0031493
0.10972597 -0.15677957 1.0125401
1.2666962 0.5100652 -0.34435272
0.062901996 -0.073407911 1.0014321
0.20633326 0.05715432 0.96069318
1.2087404 0.54805148 -0.16069305
-1.2679412 0.79689741 0.027370691
-0.26190603 -0.62682259 1.3243119
-0.71196449 -0.70769191 0.99393433
0.33522215 0.93338263 1.7588291
0.50641364 -1.3823416 2.6544137
-0.21979481 -0.50199336 1.2036875
1.3112328 0.42614889 -0.53772831
0.073695868 0.43407989 1.1829942
-0.049643792 0.11319904 1.0103495
-0.2253314 0.7372275 1.4927301
0.65731579 0.0071333665 0.56798685
0.19933587 0.21520995 1.0065805
-0.028941959 -0.0015634866 0.99916482
1.4287874 0.3872506 -0.89147019
0.48096326 -0.16211113 0.79495436
0.37070814 1.3034475 2.5615509
-0.41514331 -0.26993936 0.9005233
0.23814416 0.91198337 1.775001
1.0050242 1.0214139 1.0332128
-0.29926133 0.10515723 0.92150068
0.58434141 -0.1272729 0.67474353
0.070959277 0.023659859 0.99552459
-1.1388813 -0.011947064 -0.2969079
0.62478167 0.52156866 0.8816818
-0.45041585 1.3652952 2.6611567
1.2174799 -0.082296684 -0.47548425
-0.52407217 -0.17875196 0.75730067
-0.18877581 0.2138623 1.0101007
1.082479 0.94468963 0.72067761
-0.22237171 -0.18992847 0.98662364
-0.8054198 -0.086846344 0.35884124
-0.44293785 0.23840752 0.86064422
-0.33101597 -1.3347692 2.6720374
-0.33311075 0.65240735 1.3146725
0.96308303 0.21675642 0.11945444
0.00064319518 -0.0051501365 1.0000261
0.65256679 -0.46237749 0.7879495
1.423538 0.15246284 -1.0032151
0.48349518 0.3305974 0.87552702
0.25741458 1.3973917 2.8864408
-0.89740789 -0.20420128 0.23635727
-0.12980071 -0.38794622 1.133654
-0.14467816 0.26077771 1.0470732
0.87722838 1.1889129 1.6439842
-1.0052336 0.18567482 0.023980319
-0.056355648 -0.0025765295 0.9968307
-0.29230511 -0.16005898 0.94017661
0.97481549 0.67945176 0.51138961
-1.3548687 -0.530994 -0.55371428
0.99061263 1.0370247 1.0941069
0.16394867 0.44113463 1.1677206
-0.36452702 -0.25035849 0.92979944
-0.26871556 -1.3809568 2.8348336
-0.82404065 0.0061233146 0.3209945
-0.069323488 -1.1542175 2.3274121
0.27725503 1.1097405 2.1546535
0.38020164 -0.17864855 0.887362
-0.71936029 0.82651448 1.1656469
1.4778324 -0.24973229 -1.1216228
-0.40747949 -1.4197655 2.8496943
-0.14051215 0.91902959 1.8248718
-0.6054374 0.27422303 0.70864385
0.94141799 1.1596811 1.4585925
0.74266708 0.95649946 1.3633367
1.0832307 -0.34290701 -0.055803657
-0.18599278 0.63127583 1.3639158
0.23632537 0.44285804 1.1402736
0.03204526 0.50088811 1.249862
-1.0974288 -0.028594421 -0.20353222
-0.28290573 -1.0033897 1.9267552
-0.37231785 0.099411406 0.87126207
-1.3971578 -0.18238991 -0.9187839
0.24719 -0.47083092 1.1605788
-0.52083945 -0.70997262 1.2327874
-1.0766492 0.80878973 0.49496722
0.043764383 1.2864978 2.6531613
-1.161122 -0.52490699 -0.072676659
-1.17278 -0.18942925 -0.33952963
0.35141394 1.2413435 2.4174418
-0.60062444 0.38133672 0.78466803
1.1244634 -0.41301113 -0.093840003
-0.17112535 0.50630802 1.2270639
-1.2196381 -0.85092783 0.23656094
0.4679473 0.021646308 0.7814939
-0.22268683 1.1534045 2.2807522
-0.62070352 0.90478396 1.4333611
-0.41598785 -0.44811782 1.0277637
1.0354693 1.0670507 1.0664005
0.0060992735 -0.96820146 1.9373769
-0.034567028 0.67363805 1.4525933
1.0168378 1.1026665 1.181914
0.51833701 -1.1002684 1.9419174
0.56760585 1.1993408 2.1162419
-1.1765177 0.76690257 0.2039454
0.80748439 0.081286281 0.35457641
-0.18141352 -0.050293513 0.96961856
-0.69454062 -0.10374577 0.52837646
0.49271438 0.25459409 0.82205069
-0.2935721 0.25355166 0.97810388
0.23003846 1.2777681 2.5797734
0.42577583 -1.4033834 2.7881999
-1.2129709 0.81541634 0.19360554
-1.364289 0.60360295 -0.496948
0.61911511 -0.54130518 0.90970773
-0.24051103 0.60912883 1.3131925
-0.73597682 1.2777576 2.0910029
-0.42028832 -0.55296344 1.1291263
0.49531594 0.60108751 1.1159683
-1.482674 0.011201696 -1.1981964
0.35479155 1.4557763 2.9934077
-0.69718003 0.77693987 1.1175755
-0.50172287 0.080400586 0.75473839
-1.1987023 -0.86988306 0.31980956
0.06330879 0.00420191 0.99600965
-0.66638613 -0.74522597 1.1112913
-0.83458221 -1.2036123 1.7521551
0.085116774 -0.26452267 1.0627273
0.63256824 -0.7789048 1.2065501
-0.90245908 -0.59283847 0.53702515
-0.39410138 0.22328357 0.89453965
0.80594075 -0.6837132 0.81792331
-0.82763761 1.2403815 1.8535624
1.235713 -0.84693599 0.19031411
-0.91779989 1.0980781 1.3634191
1.4309611 0.2946642 -0.96082246
1.2394706 -0.70249784 -0.042784095
-0.66434509 1.2499093 2.1209188
-0.081397533 0.32799777 1.100957
1.1353092 -0.42279437 -0.11017203
1.2496241 -0.74756765 -0.0027028322
-1.4376442 -0.28794858 -0.98390651
1.29193 0.06420809 -0.66496038
-0.42653126 -0.43746632 1.0094478
-0.8776443 -0.37495738 0.37033361
-0.064295828 -0.0536515 0.99874455
1.0812826 1.0396109 0.91161841
-0.15570241 -1.4830575 3.1752167
1.3320773 0.28283477 -0.6944344
1.3469086 -0.44256169 -0.61830199
0.082924433 0.021788342 0.99359828
0.18929642 -0.039994571 0.96576643
-0.87626815 0.81755912 0.90055692
-0.76963878 1.0389417 1.4870561
0.20774344 1.1806436 2.3507619
0.61142147 -0.12265278 0.64120746
1.0396553 -1.081257 1.0882335
-0.15705875 -0.53037602 1.2566313
0.63020456 -1.1301293 1.8800346
-0.033499766 -1.4190693 3.0126352
-1.2829932 -0.42322299 -0.46695364
-0.92236817 0.89449763 0.94936305
0.31515986 -0.4030264 1.0631045
0.33160284 0.39126188 1.0431254
-0.003797767 -0.40750486 1.1660458
-0.18985915 0.90178567 1.777171
0.96113682 0.44767833 0.27663201
-0.01639262 -1.4813604 3.1941597
-0.4442873 -0.12756974 0.81888282
0.7351644 0.68274188 0.92566973
-0.32124713 0.25096884 0.95978564
0.91416466 -0.63601726 0.56882095
-1.2065117 -0.73999894 0.091927886
0.88138652 1.1527919 1.5520868
0.46111459 -0.18717875 0.82240921
0.5845046 -1.3805188 2.5641866
0.0038725906 0.84772658 1.7186253
0.25512183 0.41297036 1.1054574
-0.3893376 1.1494663 2.1696892
0.23677236 -0.0091980668 0.94402343
-0.87212765 0.74381256 0.7926504
0.79565811 -1.2554252 1.9430205
-1.4225516 -0.24121365 -0.96546888
0.27751237 -0.18385173 0.95678836
-0.046572842 -0.11315241 1.0106344
0.20146112 -0.3263799 1.0659373
0.82341313 0.71320415 0.83065081
-0.70295858 0.98521096 1.4764899
-0.87166947 1.2204831 1.7297716
0.85993063 0.80437386 0.9075368
-0.23628742 0.20284282 0.98531348
0.22763008 -1.3453116 2.7580481
0.20380825 0.20282912 0.99960184
-0.08007358 -1.4580932 3.1196241
0.079140715 1.1063383 2.217721
-1.3692502 0.19848955 -0.83544791
1.2553036 0.094308734 -0.56689322
1.2899361 0.74365699 -0.11090934
0.038565926 -0.026161365 0.99919707
-1.1073656 -0.91493785 0.61085302
1.4723949 0.14949466 -1.1455982
-0.26888877 -0.53017312 1.2087824
0.042010807 0.10454475 1.0091647
0.72468328 -1.3011903 2.1679301
-0.23042801 -0.02716447 0.94764084
0.19921726 -0.3895922 1.1120945
1.0620394 -0.94827628 0.7713002
-0.039171334 -0.010622244 0.99857843
-1.1283917 -0.29357731 -0.1870805
-0.8808434 0.37981051 0.36837077
0.40533161 0.047334731 0.83794683
-0.11864498 0.080206804 0.99235648
0.19452716 1.4863667 3.1714449
-0.55774933 -0.25863284 0.75580662
-0.79264951 0.10655886 0.38306147
-0.21210858 -1.4847281 3.1594276
-0.99921668 -1.0236466 1.0494183
-0.58088833 -0.57757276 0.99615902
-1.3303244 0.66059911 -0.33337235
-0.15587851 0.2035757 1.0171449
-0.66500622 0.44595006 0.75663811
0.70321572 -0.95401043 1.4156234
0.27537823 -1.389394 2.8545828
-0.38196689 1.2118726 2.3227363
-0.49505979 -0.99710083 1.7491258
0.98888755 0.72604281 0.54923964
-0.91098523 -1.1913255 1.5893626
-0.087423548 -0.56562346 1.3122871
1.1980344 -0.039100915 -0.43375742
1.4919808 0.092090189 -1.2175262
-1.0873437 0.18130866 -0.14944375
0.45715302 -0.092054024 0.79948503
0.9160983 1.1065333 1.38518
1.2710354 -0.73310184 -0.078092813
1.0758619 0.33719862 -0.043775916
-1.4804296 -0.11097203 -1.1793573
-1.2964156 0.42147258 -0.5030539
-0.03562849 -0.99526244 1.9892781
0.0079058912 -0.20139447 1.0404972
-1.3869202 -0.47742933 -0.69560874
0.22190008 -1.3101517 2.6672578
1.0096602 1.0491985 1.0814039
0.35755616 0.56142598 1.1873527
-0.20872897 0.66818619 1.402905
0.73642409 0.99178636 1.4413198
-0.96434975 -1.0025587 1.0751534
1.3742273 0.40137291 -0.7274003
-0.14079762 -0.812078 1.6396468
0.50493795 1.2610841 2.3353705
0.011227178 -1.0189173 2.0380664
0.93370903 -0.59130031 0.47782338
-0.48343891 -1.2684913 2.3753567
-1.0285954 -1.0503465 1.0452193
-1.1758914 -0.75915122 0.19358981
-0.65012836 0.085230492 0.58459741
0.43408012 -0.98927522 1.7902399
0.077481396 -0.25149736 1.0572475
-0.086815298 -0.18081379 1.0251567
0.031926252 -0.1037437 1.0097435
0.1937183 0.16411033 0.98940545
-0.23819679 1.0673511 2.0825005
-1.1757127 -0.53454441 -0.096562743
-0.61328322 1.0162237 1.6565942
-1.4881353 -0.1438731 -1.1938472
1.0098559 -0.47516567 0.20597345
0.061298557 -0.7193768 1.5137455
-1.4577699 -0.28525326 -1.0437236
0.21880615 0.67749417 1.4111222
0.71102273 -0.57382083 0.82371706
-1.3348082 -0.34566575 -0.66222787
1.2401724 -0.53181958 -0.25519562
-0.77808857 -0.79930556 1.0334675
-0.3800056 1.1694622 2.2232375
-0.16548255 -0.42103338 1.1498846
-0.17888837 0.85452068 1.6982045
1.411988 0.39468443 -0.83793414
-1.3599682 -0.3693929 -0.71306252
0.44734257 -0.3338517 0.91134161
1.178773 -0.83525991 0.30815327
-0.62365502 0.42708769 0.79345834
-0.3198927 -0.68419379 1.3657898
-0.43450972 -0.81504178 1.4754944
-0.41788328 -0.4102881 0.99370986
-1.0157384 1.1013466 1.1812398
-0.21819283 -0.36293682 1.084115
1.0805409 -0.93282425 0.70259249
-0.14135975 1.4919093 3.2058105
-0.72744858 1.2760036 2.099004
0.045646653 -0.097489379 1.0074205
-0.2479856 -0.40499452 1.1025237
0.54418445 -1.0660052 1.8402302
-0.65829468 -1.2032925 2.0145607
-0.60086358 1.3367814 2.4259477
0.024172844 0.95262265 1.9069057
1.3267348 -0.15416183 -0.73645973
1.2432277 0.41268423 -0.37530708
0.47744635 -1.0423925 1.858627
1.0307209 -1.0552156 1.0510944
-0.8526634 -0.58250731 0.61227989
1.0520902 -0.28873828 -0.023523927
0.41280264 0.57267165 1.1575468
0.91299796 -1.1234025 1.4284679
-0.53112614 0.66020191 1.1537716
0.78799129 -0.096181542 0.38832068
0.30340123 1.3161831 2.6402855
-0.034470949 0.18035784 1.0313407
-0.13588114 0.18911156 1.0172995
-1.0813121 0.7210688 0.35070425
-1.3222736 -0.15584692 -0.72411919
1.1283426 -0.98835272 0.70368397
-0.096706808 0.28098771 1.0696019
0.29182652 0.47450703 1.1399943
-0.089513704 -0.14022648 1.0116508
-0.99375272 -0.41538292 0.18499851
-0.25342345 1.4753177 3.1123393
-1.4556262 -0.13024345 -1.1018846
-0.90998554 1.0399203 1.2533606
0.63567573 -0.9571799 1.5121098
-0.72523189 -0.30788016 0.56882894
0.7789759 -0.56782341 0.71561986
-0.78597713 0.16433248 0.40924513
0.33388686 -0.74695063 1.4464548
0.66183746 0.70647979 1.0610849
-1.3310776 0.14483193 -0.75079107
0.97511363 -0.96708995 0.98441648
0.47224939 0.64253366 1.1898301
-0.41985887 1.1712567 2.1955607
-0.051318582 0.15955675 1.0228248
-0.35856038 0.51535916 1.1370295
0.26587054 1.3622353 2.7849979
-0.82601893 0.74761933 0.87662745
1.0140252 0.3400076 0.087358057
0.38211882 0.30159837 0.94494677
-1.2670181 0.24527782 -0.54517353
-0.26820394 -1.3489468 2.7477241
-0.78367174 0.26514456 0.45616025
-1.0569506 -0.33700675 -0.0035709143
1.2680838 0.018467812 -0.60769546
-1.4942869 0.11026838 -1.2207341
-0.6438725 1.2036344 2.034164
0.90456444 -1.191781 1.6021054
-0.68966109 -0.18795592 0.55969501
0.17200033 -0.69388402 1.4518909
0.4446494 0.43072584 0.98781168
-0.3725259 -1.2647865 2.4609089
0.023573387 -0.40572709 1.1640588
0.74794018 0.38297564 0.58725584
0.41103593 -0.69834816 1.3187397
-0.33796281 -1.1776083 2.2725425
0.87085652 -1.1690508 1.6082888
-0.56071675 -1.0761366 1.8436666
-0.74323517 -0.61676884 0.82800543
-1.2916198 -0.5584783 -0.35638356
0.20380707 -0.14421457 0.9792605
0.8116048 0.57138592 0.66777956
-0.19971067 0.11447316 0.97321975
-0.050245017 -0.18353581 1.0311608
1.1612619 0.94928432 0.55261147
0.31644252 -0.94585919 1.7945137
-1.0158815 -1.1032853 1.1852233
-1.265291 -0.62805068 -0.20651352
-1.1165552 -0.73978412 0.30058491
0.43831652 1.3943042 2.7519624
0.20877069 -0.37802798 1.0993199
-0.14205135 -1.2528679 2.5494995
-0.70152885 1.2512522 2.0734892
0.27208883 -0.030594472 0.92690372
-1.0273592 -1.0703096 1.0900958
-1.4076976 -0.498126 -0.73348296
-1.0764189 -0.78580177 0.45880675
0.0053990828 -0.082364611 1.0067548
-1.1922086 -0.8976742 0.38445735
1.1677953 -0.16968469 -0.33495295
0.93741059 -0.21552484 0.16771221
1.3429625 -0.49955308 -0.55399501
-0.31953847 1.4634699 3.0396392
0.56174695 -0.048151635 0.686759
0.42369899 0.71949577 1.3381534
-0.0070357686 0.019488296 1.0003303
0.14457837 0.09820132 0.98874056
-0.63975847 -1.3123208 2.3128951
-1.2303772 0.46266383 -0.29977036
-0.22390468 0.24496609 1.0098751
0.096882358 0.35083374 1.1136981
-0.68602937 -0.50679523 0.78620511
-1.2171345 -0.60811144 -0.11161673
0.35849261 -0.70353711 1.3664474
0.41892803 -0.76692677 1.4126761
0.69158924 -0.58509308 0.86403823
-0.66248482 -0.36668578 0.69557232
-0.47470915 0.39676726 0.93207544
-0.80257177 1.131063 1.6351824
-0.07516624 -1.4967619 3.2346466
-0.20401137 -0.086013958 0.96577775
-1.3157741 -0.075463176 -0.72556663
0.71714443 0.42004269 0.66213977
1.2876451 0.75876236 -0.082309365
0.84847414 -1.2167884 1.7606654
-0.2067626 -0.14647849 0.97870517
-0.6201092 0.62331808 1.0039899
0.15627965 -0.18530281 1.0099138
-1.1589816 -0.46766862 -0.12452424
0.99993479 0.99734974 0.99483711
-0.061271057 0.0044146292 0.99626535
0.12960303 0.29548532 1.0705147
0.8178153 -1.2097974 1.7947881
0.78101546 -0.34569389 0.5095191
1.2122272 -0.40232876 -0.30762625
-0.40603375 -1.4427986 2.9168048
-0.15950218 -0.92590821 1.8318651
0.40692616 0.75092196 1.3982948
-0.88275158 0.62137705 0.60685903
-0.53449088 0.91342032 1.5486562
-0.081914783 -0.30556625 1.0866607
-0.1270141 0.36479425 1.1169423
0.50240493 0.54672945 1.0465024
1.2095821 0.24050085 -0.40524817
0.41991132 -0.5677796 1.1460482
1.1379972 0.65740108 0.13713855
0.54412413 0.97621447 1.6569238
-0.05416631 0.034897387 0.99828386
0.71443146 -1.1103034 1.7223614
0.24815086 0.88524926 1.7220874
0.40293461 0.046496533 0.8398056
-0.35298735 1.0310364 1.938436
1.0348352 1.0786619 1.0926276
-1.4247757 -0.44628745 -0.83081329
-0.070583694 -0.53626794 1.2826012
0.2754699 -1.445145 3.0125606
0.15397993 -0.35623837 1.1031959
-0.24816599 -0.031969193 0.93943566
0.017316435 1.480212 3.1907277
-0.29530078 -0.35429525 1.0383226
-0.30164933 -1.1069895 2.1344335
-0.52589834 0.21056229 0.76776743
0.68686384 -0.041589253 0.52994776
0.5852716 -0.48165992 0.88945341
0.16319193 0.4189969 1.1489269
-0.66251379 -0.63296521 0.96172041
0.35468417 0.021760512 0.87467265
0.59987539 -0.19362943 0.67764187
-1.1985486 0.90190852 0.37692022
-0.28371814 -0.50650394 1.1760502
-1.0868592 1.0054004 0.82956713
-0.7977252 -0.33919704 0.47868919
-0.38505554 -0.078522153 0.857898
0.59615576 0.74680644 1.2023182
-0.62251592 -0.71516263 1.1239316
0.96215832 -0.90761507 0.89801663
-1.2634151 -0.039556198 -0.59465289
0.27739045 1.473966 3.0956302
0.25398946 0.44416922 1.1327757
-0.62761313 1.1993506 2.0445437
0.063937142 0.23494381 1.0511106
-0.8632766 -0.38906306 0.40612358
1.0386609 -1.0789976 1.0854194
-0.69115496 0.88508809 1.3056858
0.11357188 0.01168471 0.98723799
-1.1286882 0.86645961 0.47681493
-0.18627827 0.031950742 0.96632123
-0.019525453 -0.013026397 0.99978846
1.0626758 0.30269265 -0.037657142
0.27723786 -1.2353365 2.4491954
-1.2945664 -0.1520662 -0.65277815
0.10982629 0.016570929 0.98821276
1.0358697 -0.1057632 -0.061840296
-0.68088627 -0.081445709 0.54302728
-0.42857099 0.55229288 1.1213543
-1.4684174 -0.086358733 -1.148792
0.097272031 -0.34466702 1.1093335
0.24547878 -1.2778344 2.5726008
-0.51433206 -0.34688181 0.85578954
1.2942982 -0.55965769 -0.36199117
0.6930725 1.0917163 1.7114952
1.3692259 0.071155861 -0.86971641
-0.35954323 1.3776476 2.7686417
-0.84326935 -0.99263215 1.2742155
-0.76731974 1.2378564 1.9435089
0.64886683 0.061188467 0.58271587
0.15530448 0.095618188 0.98502338
0.24476516 -0.22835693 0.99223691
-0.29375243 1.3952153 2.8603351
0.2317185 1.3412448 2.745244
0.034131728 1.1180086 2.2487783
0.05566109 0.17428043 1.0272756
0.032334276 -0.083406717 1.0059112
-0.40219107 -1.3736402 2.7251296
1.0087003 0.90894914 0.80871248
1.1413425 0.10101747 -0.29245806
0.1032703 -0.019325554 0.98970872
0.92513448 -0.59003443 0.49226677
-1.0540118 -1.0436466 0.9782573
-0.14509003 -0.099917501 0.98893237
1.3858469 -0.25879902 -0.85359478
0.11577076 -0.24822427 1.0482124
-0.71491182 -0.98067522 1.4506251
0.21513359 0.22935179 1.0063198
1.0889465 0.78531015 0.43090767
-1.1956954 -0.57026738 -0.10448265
0.84891796 0.50193143 0.53127348
-0.36525077 0.32817388 0.97428995
0.0067855432 -0.41014057 1.1681693
-0.17468712 0.57242036 1.2971495
-0.17228848 -1.2317758 2.4875879
0.73996657 0.96724749 1.3880172
-0.13082789 0.22603998 1.0339781
0.19230723 -0.04985689 0.96550363
-1.1769778 -0.89260769 0.41147184
1.2803011 -0.70126045 -0.14740479
0.54786754 0.94740307 1.5974138
-0.55142701 -0.60474795 1.0616484
-0.9461807 0.37684327 0.24675292
-0.0086921947 -1.4886634 3.2160432
0.94831145 0.83908176 0.80476362
0.65732378 -0.58914733 0.91502005
0.93682301 0.60720086 0.49105561
0.58561802 0.39323759 0.81168735
-0.86880815 1.1147319 1.4877995
-0.088122748 -0.37770653 1.1348966
-0.18852359 -0.61206377 1.3390809
0.033437975 -0.16571034 1.0263418
0.93852782 -0.55273342 0.42467988
1.4962662 -0.059563555 -1.235265
-0.11645 0.38344508 1.1334696
1.2457635 0.81767178 0.11666018
-0.64966828 -0.93833542 1.4584044
-0.08062011 0.4258126 1.1748168
-0.13533412 0.010906436 0.9818036
-0.95823145 -1.0518988 1.1882838
-0.87100303 1.2188507 1.7269509
0.47959995 -1.3934484 2.7116823
0.099201381 -0.46710822 1.2083492
-0.1358892 0.61824828 1.3637651
-0.0022871885 0.0093643926 1.0000825
0.0077959439 0.043732766 1.0018518
0.01064868 -0.013285043 1.0000631
0.96832407 0.16287367 0.088876307
-0.0030284082 -0.095028982 1.0090213
-0.05056911 0.19005838 1.0335649
1.2828147 -0.56371194 -0.32784247
-1.4425853 -0.048386768 -1.0787113
0.72750425 0.59120178 0.82025713
-0.60164332 -1.3001013 2.3282886
0.48884523 -1.15005 2.0836453
0.2342214 0.69544667 1.4287864
0.0023798973 -0.0043589957 1.0000134
-1.122311 -0.84811532 0.45971763
0.41626176 -0.31080353 0.923325
0.0078832954 -0.82763189 1.6849124
0.093976445 -0.082450613 0.99796653
0.48224312 0.97080278 1.7098994
0.88435125 -0.12839982 0.23440933
-1.1441672 -0.11360833 -0.29621172
0.14245543 0.84227955 1.6891413
0.061829031 -0.70934254 1.499344
0.4068867 1.0462543 1.9290912
-0.036842685 -1.2117938 2.4670868
1.3757296 0.48838025 -0.65411615
0.47755069 -0.36857155 0.90779036
-0.028381377 -0.43420041 1.1877245
1.4370871 0.28329924 -0.98496056
1.1336175 0.76767415 0.30423498
0.014328616 0.031465944 1.0007848
-0.30825719 -0.041699961 0.90671641
0.62196213 1.2944703 2.2888165
1.1238707 -0.74384964 0.29022706
0.31504473 0.43193328 1.0873132
-1.2149773 -0.46768123 -0.25744367
-0.74667156 -0.5865885 0.78656757
-1.3559401 0.23581502 -0.78296494
1.212288 -0.48655879 -0.23290277
-0.80620944 -0.96207893 1.2756222
1.1989708 -0.282738 -0.35759032
0.49538159 0.41296479 0.92513698
-0.62988555 -0.2564812 0.66902673
1.3727853 -0.42504466 -0.70387685
-0.19274622 0.10697573 0.9742927
0.20965214 1.4090936 2.9415908
1.0347613 0.26299259 -0.001565814
-0.92734563 -0.20641936 0.18263912
0.83156061 1.218251 1.7926424
-1.0966065 -0.54718119 0.096861482
-0.27737343 0.53764141 1.2121223
0.31328458 -0.060097296 0.90546447
1.2651101 -0.75940645 -0.02380538
-0.21264732 0.6326822 1.3550678
0.21883272 0.17194688 0.98167795
-0.31425312 -0.075716704 0.90697801
-0.89338541 -0.99910408 1.2000713
0.77642107 -0.37936217 0.54108608
-0.55269527 0.0054204687 0.69455731
0.090469152 -0.37223783 1.1303763
0.060951643 -0.030180054 0.99719572
-0.15671845 -0.018947724 0.97579837
0.01960383 -0.25252599 1.063385
0.15409638 0.35465309 1.1020331
-1.0318592 0.027153863 -0.063995719
0.14257368 0.78444475 1.5950263
0.6552282 -0.53812289 0.86025232
0.018478826 -0.86413562 1.7463889
-0.17220375 -0.19202448 1.0072193
-0.59957933 -0.91576636 1.4791327
0.86360013 -0.023851817 0.25476372
0.49733275 -1.2846849 2.4030755
0.61293209 -0.91922319 1.4692855
0.59818542 -1.1756212 2.0242593
-1.0473804 -0.93904757 0.78480464
-0.091785625 1.483398 3.192045
-0.66883689 -0.68840969 1.0265651
-1.4081595 -0.084998183 -0.97568846
0.61219633 -1.0656236 1.7607694
-0.4487769 1.2075409 2.2567544
-1.4289238 0.43679565 -0.85103273
0.77421272 1.0715768 1.5488716
-0.085733421 -0.43803883 1.1845278
0.80358553 1.0756083 1.5111834
0.83150768 -0.22000813 0.35699856
0.17881157 0.11752016 0.98183739
0.45757794 0.0028388668 0.79063046
-0.60804337 -0.35407388 0.75565159
-0.93259871 -1.0957628 1.330956
0.41656753 0.99019074 1.8069491
1.4651127 0.20094645 -1.1061759
0.39169329 -1.2800806 2.4851825
0.18938708 1.2175899 2.4466577
0.26579866 0.065783732 0.93367857
1.326151 0.010120072 -0.75857389
-1.1271346 0.96586943 0.66247165
1.0416865 -1.0646782 1.048429
0.42129552 -1.3739675 2.7102971
-0.23965278 0.092306927 0.95108712
1.3438714 -0.4800778 -0.57551539
0.00095322268 -0.17832555 1.0317991
-0.6450448 0.83422077 1.2798414
0.26651067 -0.10696234 0.940413
-1.1971018 -0.82929409 0.25467569
-0.54348707 0.77312148 1.3023385
0.67106432 -1.2002974 1.9903865
0.1771971 1.3681903 2.8405459
1.4752991 0.1694414 -1.1477971
0.24457225 -0.1053787 0.95128906
-0.29636627 -0.024967916 0.91279042
-0.37624106 0.26598656 0.92919153
-0.88173425 0.72510785 0.748326
-0.77261698 0.31562316 0.5026809
0.37316257 -0.40842792 1.0275631
0.55684203 0.61622381 1.0696588
-0.10052408 0.52552783 1.2660744
0.81171501 -1.1004367 1.5520797
-0.60378367 -0.69130015 1.1133412
-0.89482617 -0.44548854 0.39774632
-0.2477667 0.27250957 1.0128732
0.8722291 0.08359281 0.24620426
-0.26091838 1.0097146 1.9514452
0.57493329 -1.094696 1.8678112
-0.31706497 -0.96860051 1.8376567
-0.6165508 0.69704378 1.1057352
-0.31731832 -0.94980586 1.8014404
0.31334594 0.27154022 0.97554839
1.4272859 0.39181978 -0.88362241
-0.070211805 0.41042113 1.1635158
-1.3097745 0.59951544 -0.35609066
-0.19426259 -1.164028 2.3172231
-0.39742756 1.403559 2.8120289
-0.18753499 0.27007622 1.0377718
-0.24675623 0.27905643 1.0169839
0.58760804 0.94971466 1.5566747
0.42912549 -0.66550535 1.2587487
0.54647583 -0.25195217 0.76484412
-0.91053879 0.48774689 0.4088161
-0.51883799 0.20601229 0.7732482
-0.85501575 -0.11036496 0.28112859
-0.48203659 0.82200456 1.4433322
-1.3294626 -0.65049112 -0.3443321
-0.50223315 1.3100922 2.4641037
1.446551 -0.00023426863 -1.0925095
-1.4467456 -0.23406246 -1.0382876
1.0575496 -0.031606838 -0.11741233
0.7342087 0.92734313 1.3209028
0.67257696 -1.3399353 2.3430669
0.16359258 0.82421899 1.6525744
-1.1790929 0.74691677 0.16762453
0.93940604 -0.50157458 0.36909336
-0.62422419 -0.23657528 0.6663121
-0.071864702 0.065243877 0.99909222
-0.60705167 -0.51128232 0.89289784
0.48663461 0.35717654 0.89076185
-1.021463 -1.0557456 1.0712116
-0.52259111 0.71033937 1.2314805
0.97762787 -0.88133097 0.82098794
0.2140477 -0.49368319 1.1979066
0.045952793 1.3151069 2.7273943
-0.40658385 0.94171822 1.7215228
-1.2563876 -0.79565495 0.054557025
-1.4217676 -0.26055372 -0.95353484
1.0125415 -0.34100005 0.09104079
-1.0794342 -0.81751966 0.50316072
1.0352434 1.0790263 1.092569
-0.96554214 -0.79582554 0.70106673
-0.025871627 0.024819653 0.99994665
-0.02459917 -0.041798349 1.001142
0.39889169 -0.92314577 1.6930835
1.0658571 1.0205026 0.90537417
0.45022959 1.4249663 2.8278222
-0.2459697 -0.3073751 1.0339783
1.0061216 1.094633 1.1859409
1.3594614 -0.27937627 -0.7700845
0.3480086 -1.1103063 2.1116703
-1.0516002 -0.9368847 0.77188981
-0.037660733 -0.65745616 1.4308302
0.39943367 -1.1768161 2.2253487
1.1182418 -0.89775306 0.5554961
0.092846185 0.028641315 0.9921999
1.1960353 -0.55958056 -0.11737001
-0.3332791 -1.1913059 2.3081346
-0.81319165 -1.1152108 1.5824144
-0.44604337 1.4224603 2.8244388
0.93976915 1.1078556 1.344178
1.0959122 -0.72302961 0.3217482
1.1557328 -0.92721128 0.52400267
-0.10069366 0.052218083 0.99258751
1.4123023 0.066353962 -0.99019456
-0.69599295 0.50409359 0.76970422
-0.034687404 -0.067251265 1.0033195
0.49865919 1.3583251 2.596386
0.0098215602 0.015636466 1.0001481
0.19739342 0.15172055 0.98405498
-0.56078345 0.400352 0.84580368
1.1586809 0.57860243 -0.0077605247
0.34740755 -0.88963634 1.6707609
-0.94582546 -1.1481512 1.4236652
0.16551261 0.23462234 1.0276532
1.0519917 -0.54757607 0.19315302
-0.47944897 0.59009802 1.1183444
-0.73033559 -0.77367264 1.0651792
-0.18334228 0.17094009 0.99560612
-0.22096539 1.3907231 2.8852854
-1.2027469 0.4326227 -0.25943768
0.18965551 0.5151248 1.2293843
-0.50691646 -1.3134429 2.4681678
-0.65647596 -0.1439728 0.58976746
-1.0140762 0.90611351 0.79269087
0.77553678 -0.52566338 0.67486477
0.025049724 -0.096119307 1.0086114
1.0587164 0.95654565 0.79409897
0.059873171 -1.034435 2.0664711
0.38424093 0.14880559 0.874502
-0.027572591 -0.078059629 1.0053331
0.076483577 0.24411683 1.0537432
0.29341677 -0.69938117 1.4030406
-0.29330721 0.8061403 1.563833
1.0875005 -0.96233332 0.74342817
-1.1236573 -0.63469088 0.1402266
-0.036190517 0.97103429 1.9415978
-0.23459883 0.077843845 0.95102304
0.04048986 0.067057341 1.0028572
0.45327857 -1.4123881 2.7893782
-0.86466515 -0.83294296 0.94614816
-0.71728683 1.2530339 2.0555935
-0.60085392 -1.3539648 2.4721951
1.4712881 0.11513165 -1.1514335
0.088944852 0.3207866 1.0949929
-0.27418214 0.35739839 1.0525577
1.3938406 0.48857373 -0.7040869
0.58756143 -0.16087742 0.6806531
-0.83694494 0.71856111 0.81585312
1.0495762 0.42068225 0.075363338
0.75029385 -1.1249175 1.7024987
-0.37069976 -0.27487773 0.9381395
-0.20658612 0.11665032 0.97092944
1.3884045 0.42096639 -0.75045419
0.68079627 0.14736347 0.55823243
0.91075397 0.96035779 1.092814
-1.4137884 -0.46821794 -0.77956963
0.91548729 0.42068294 0.33885723
0.32082987 -0.19897471 0.93665916
-0.24129255 -0.4898451 1.1817261
0.08490134 0.12034827 1.0072755
0.89568126 0.1218102 0.21259278
-0.084525011 -0.05152858 0.9955107
0.10888648 0.053559545 0.99101233
0.030750304 0.60972857 1.3708234
0.0099720694 0.39840165 1.1586244
0.1121093 -0.68203592 1.4526045
0.34047717 0.78876066 1.5062188
0.80123472 -0.59669769 0.71407109
0.05139545 -0.31359968 1.0957032
0.38849491 0.20813322 0.89239115
-1.1728017 -0.72379768 0.14841938
-0.88700378 0.98052776 1.174659
0.75409251 -0.87063646 1.1893524
-0.11634685 -1.483164 3.1862385
-0.40676874 0.30627042 0.92834073
-1.3051983 -0.6349647 -0.30036247
0.59330487 0.40667358 0.81337279
-0.60616142 0.4534809 0.83821332
0.90797693 1.0094606 1.1945887
-0.44575781 1.3204696 2.54494
-0.055947632 -0.35838836 1.1253121
0.059946824 0.41189316 1.1660624
-0.07867901 0.56913769 1.3177273
0.14007157 0.17482969 1.0109453
0.89773786 0.3371014 0.30770409
1.2878684 -0.39363822 -0.503654
0.74384832 -1.0244884 1.4962662
-0.37518471 1.1133795 2.0988507
-0.15034366 -0.10709549 0.98886621
-0.00053665787 0.019806039 1.000392
0.70212024 -0.33564174 0.61968255
-0.099783964 0.059356906 0.99356639
0.83044457 -0.075511351 0.31606382
0.19183177 0.51303959 1.2264102
-1.4324574 0.44438756 -0.8544544
-0.79363942 0.0078966534 0.37019891
-1.0228088 -0.50195241 0.20581859
0.59922785 0.3696745 0.77758527
0.58674389 -0.80189878 1.2987733
0.33417508 -0.26878965 0.96057492
-0.66929436 0.2116904 0.59685785
-1.1502862 -0.39688459 -0.16564095
0.33745736 0.56903088 1.2099187
1.011013 0.093965977 -0.013317943
0.88186884 -0.69406134 0.70402837
0.045329168 -0.79084414 1.6233797
0.64271754 0.43936229 0.77995336
0.21726197 -0.30884704 1.0481838
0.19017214 -0.016682552 0.96411288
0.45493582 1.3997415 2.7523098
-1.1877825 -0.26932484 -0.33829165
-0.37339944 -0.33202404 0.9708128
-1.0680884 0.55425251 0.16638285
1.0884434 -0.33430409 -0.072949886
0.64352018 -0.28269583 0.66579872
0.58122629 1.2777997 2.2949481
-0.41014057 -1.0310712 1.8948926
-0.25684977 -0.60992885 1.3060414
-1.0233855 -0.64534938 0.36915779
-1.105602 -1.0107156 0.79919028
1.3653673 -0.25711641 -0.79811907
-0.10671806 0.28883711 1.0720382
-0.66223258 -0.21833685 0.60911906
0.89976156 1.1876669 1.600982
0.45417184 1.2496216 2.3552823
1.1112517 -0.1762971 -0.20379961
1.3819287 0.40339804 -0.7469964
0.78486383 -1.2699385 1.9967324
-0.25183848 0.88157248 1.7137475
-0.041056938 -0.98547775 1.9694808
-0.22953916 -0.2618202 1.0158616
-0.96617413 -0.83870113 0.76992702
-0.64838243 -1.0269122 1.6341491
0.45305738 0.95869958 1.7138438
0.89072704 0.0092776315 0.2066915
-0.013759488 -0.13089792 1.0169449
0.085056007 0.16587049 1.0202785
1.107695 0.26847082 -0.1549114
0.28551152 0.7710216 1.5129575
-0.10640009 1.404196 2.9604454
-0.9966644 -0.19960335 0.046501458
1.0738481 0.98430079 0.81569844
0.096462399 -0.18182427 1.0237551
0.53764349 0.15869838 0.73612463
-0.018202875 -0.92269838 1.8510411
-0.82440734 1.1298199 1.5968459
-0.037354246 -0.16461089 1.0257014
-0.36571214 -1.3364172 2.6522655
-0.04717325 0.51824379 1.2663513
-0.78814352 -0.78579581 0.99630481
-0.53879797 -1.2415181 2.2510641
0.047737703 0.6393531 1.4064935
-0.91562122 0.68519086 0.63112426
-1.2397447 -0.73000646 -0.004057169
-0.67352819 0.17004377 0.57527459
0.036916431 -0.0048088972 0.99866033
0.39100322 0.22704716 0.89866692
-0.37443864 -0.17264685 0.8896026
1.32508 0.46437615 -0.54019165
0.86057907 0.18260871 0.29274958
-1.1511023 0.79829931 0.31224549
0.22262366 0.4956255 1.1960834
-0.29194883 0.41424549 1.0863652
-1.4064201 0.063376002 -0.97400117
0.093202472 -0.53355712 1.2759964
1.0746096 -1.0314522 0.90910804
-0.53013158 0.081611231 0.72562087
-0.25314957 0.52272362 1.2091553
-0.33882308 0.27185893 0.95910621
-0.65193832 0.1467891 0.59652346
0.029792801 -1.4766586 3.1796329
0.41372976 -0.60777599 1.1982193
-1.3963417 -0.37352502 -0.81024885
-0.015296491 -1.4332641 3.0540121
0.93537873 0.16824383 0.1533727
-1.1624004 0.89284068 0.44598979
0.73897529 1.2528389 2.0235205
-1.4259956 -0.46135396 -0.82061577
-0.19648254 0.038937703 0.96291077
0.74121249 0.74166423 1.00067
0.0083373711 0.013179417 1.0001042
-0.34996831 -1.319703 2.6191382
0.10486984 0.09811914 0.99862969
-1.4963256 -0.088115662 -1.2312262
0.11242656 -0.046983741 0.98956776
-0.8207438 0.92959201 1.190521
-0.80149806 0.45216739 0.56205624
-0.18595554 -0.032033633 0.9664467
-0.81195778 -0.80303645 0.98559213
-1.2522571 -0.45172209 -0.36409485
0.21601897 0.080900714 0.95988071
0.83215016 0.48695245 0.54464865
-1.3455915 -0.25161198 -0.74730814
-0.00075566088 -0.0080522047 1.0000643
-0.28356895 -0.57152122 1.2462251
0.024617862 0.73487902 1.5394412
0.14307198 -0.16547225 1.0069115
-0.078100026 0.01345663 0.99408144
0.083383419 -0.0084444247 0.99311852
-0.36859843 0.010966321 0.86425543
0.61319995 -0.17264925 0.65379357
-1.060813 -0.89051902 0.66770017
0.57025105 0.27105695 0.74828565
-0.62122595 1.0591898 1.7359614
-0.43711692 0.26317412 0.87818938
-0.85645813 1.223753 1.7640508
0.78809977 -1.2353741 1.9050477
-0.48246959 -1.2889118 2.4285169
1.3397838 0.58491492 -0.45289481
-0.73401833 0.80078387 1.1024721
-0.3349424 1.3664243 2.7549291
-0.60487634 -0.32827252 0.74188745
-0.22309417 -0.098487332 0.95992875
0.98041344 1.1106324 1.2722936
1.3446941 0.29336628 -0.7221384
-0.043991778 0.0080948388 0.99813026
-0.3823179 0.022735879 0.85434997
-0.97424787 1.1039823 1.269618
0.22405373 1.1940703 2.3756039
-0.05078131 1.3676565 2.8679056
-1.2053082 -0.75455856 0.11659104
1.1561602 0.89688671 0.46769923
0.86842006 0.19148929 0.28251475
0.14108208 -0.44179147 1.1752756
0.11256132 0.74402106 1.5408974
0.82084966 -1.2536461 1.8978348
0.27279764 -1.4286925 2.9667439
-0.66833407 -1.1478819 1.8709624
-0.86567461 0.14614156 0.27196479
1.1923409 -0.90942359 0.40537447
-1.2452371 0.57502598 -0.21996081
-0.36526692 0.0044164229 0.86659956
-0.59400511 0.19499601 0.68518138
-1.2836404 0.1387687 -0.62847602
-1.0134786 -0.42094076 0.15005219
-0.22989871 0.64846182 1.3676493
-0.78543186 1.2062519 1.83814
-1.2120676 -0.67702305 -0.010747671
0.37039992 1.3450624 2.6719968
-1.4511987 0.21625638 -1.0592108
-1.2073032 -0.37179148 -0.31935203
1.2164735 -0.41481417 -0.30773699
-0.087143615 -1.4024802 2.9593568
-0.42970753 -0.82743406 1.4999986
-1.2588639 0.74699688 -0.026734233
-0.12617144 -0.68658924 1.4554856
0.88026655 -0.36529025 0.35856771
0.15527707 -1.3977304 2.9295392
0.92332673 0.52515525 0.42325574
1.2619159 0.4715122 -0.37010777
1.3564042 -0.091864146 -0.83139324
0.37366846 -1.2385995 2.3945007
0.17747965 -1.3792772 2.8709068
-0.027831959 -0.10173285 1.009575
0.041041523 -0.81838405 1.6680681
-1.0412195 0.65222687 0.34126198
-1.3542916 -0.022775251 -0.83358705
-0.69464624 -0.76914799 1.1090553
1.2137794 -0.21251708 -0.42809725
-1.3540808 0.38137496 -0.68808806
0.56767899 -0.55412787 0.98479831
0.087604165 0.821558 1.6672831
-0.0026319942 0.0020012814 0.99999708
0.45146173 1.4269729 2.8324339
-0.008003572 1.0874186 2.1824148
0.73254591 0.72154117 0.98399818
-0.27165097 -0.25279534 0.99011123
-1.2707505 -0.61272502 -0.23937476
-0.34335196 1.100454 2.0931087
-0.17672184 0.19483426 1.0067297
-0.93676275 0.22203898 0.17177683
-0.1042924 0.12347189 1.0043684
0.016230904 0.018839123 1.0000914
0.13030933 0.48757184 1.2207458
-0.41512942 1.2356825 2.3545787
-0.7975812 0.018005833 0.36418831
0.61636454 -0.94318438 1.5096917
1.0211561 -0.046072252 -0.040637016
-0.10656229 -0.85223198 1.7149439
-0.017792974 -0.085901864 1.0070626
-0.6851939 0.21220225 0.57553911
0.058911487 0.32878843 1.1046313
0.066721231 -0.90460908 1.8138659
-0.27206606 0.067800604 0.93057698
0.69204164 0.33791441 0.63526452
1.1122978 0.99262714 0.74810243
-1.1732507 -0.92862785 0.48583245
-1.0824878 -0.0060424479 -0.17174327
-1.169265 0.20547988 -0.32495868
0.58779144 -0.78180546 1.2657211
-0.93799728 0.94907928 1.0209125
0.90040433 -0.2776078 0.26633823
0.22622117 0.12162515 0.96361667
-0.814224 0.23741665 0.39340603
0.49542272 0.5934009 1.106681
0.3584986 -1.3930845 2.8121634
0.055717088 0.0047823573 0.9969185
-0.50592756 -0.83104831 1.4346786
0.19364265 -0.53618807 1.2500001
0.28736013 -0.48453033 1.1521938
0.21911258 -0.067449674 0.95653915
-1.2580181 0.76869196 0.008277595
-0.36256525 0.17410395 0.89885861
-0.14834729 0.43411219 1.1664464
-0.50280017 -0.48980713 0.98710304
-0.0064594671 -0.012669435 1.0001187
-1.3810813 -0.034907129 -0.90616739
0.3325195 1.4112136 2.880955
-1.163394 -0.57073557 -0.027746439
-0.91492307 0.74489188 0.71777987
0.43502241 -0.68213308 1.2760611
-0.21852544 0.62724274 1.3456801
0.055338651 0.14843257 1.0189699
-0.0053057633 -0.0056022983 1.0000032
1.2565409 0.80204111 0.064374745
0.14320616 -0.14174795 0.9995845
-1.0190482 0.59679556 0.31770563
-0.56472802 -0.42080402 0.85815829
0.1316139 0.4241353 1.1625686
-0.022190114 -0.78331822 1.613095
1.3535517 0.52941346 -0.5518235
0.64281827 -1.3224245 2.3355913
0.15804188 0.048961148 0.97741997
0.84817296 1.1062313 1.5043503
-0.43182296 -1.4258453 2.8465636
-0.73439443 1.2918241 2.1294742
-0.2687813 -1.3391792 2.7211571
-0.32862183 0.24663663 0.95283735
-0.10134903 -0.075547002 0.99543571
1.0423503 -0.66110665 0.35056812
-0.93333846 0.050606266 0.13144034
-0.039950963 -0.42992216 1.183237
1.1677488 0.58923995 -0.016433477
0.010716633 -1.1450995 2.3111382
0.080056906 1.4977946 3.2369797
0.97678721 0.72399765 0.57005936
0.30995154 -0.17696311 0.93524599
0.107468 -0.1231402 1.0036142
0.045968428 -0.012200927 0.99803579
-1.1249368 -0.67149383 0.18542099
-0.36579168 -0.11186638 0.87871057
0.30709264 1.0684413 2.0472608
-1.3424323 -0.46952069 -0.58167458
0.31013581 0.63196486 1.3031955
-0.27880365 -0.29631129 1.0100689
0.32162198 -0.45542169 1.1039683
1.0136369 -1.0356607 1.0451335
0.24164534 0.043398526 0.94349098
0.83942592 -0.45950735 0.50651121
0.11803284 0.72039938 1.5050435
-0.21425456 1.262556 2.5481424
-0.83579075 0.19994214 0.34143078
0.006473884 1.2834259 2.64714
0.49115652 0.76790607 1.3484449
-0.55935299 0.92025149 1.5339873
0.36503446 -0.3896417 1.0185705
-0.18265167 -0.30019861 1.0567576
0.55524397 0.76290786 1.2737325
-0.55961531 -1.1561788 2.0235801
-0.8573404 0.8897109 1.056553
-0.8217715 0.48814011 0.56297225
-1.0649853 0.50669998 0.12255114
0.48622292 -1.4049581 2.7374947
0.1031834 1.141098 2.2914581
0.11791459 1.4833748 3.186497
1.1246946 -0.99026871 0.71569431
0.29432312 -1.2986872 2.5999625
-0.042215478 -0.15748398 1.0230191
-0.27635044 -0.53867793 1.2138044
0.0025233482 0.054040469 1.002914
-0.39368778 -0.33768487 0.959041
0.90610778 -0.69702196 0.66480827
0.081599697 0.19754215 1.0323644
-0.61265951 0.029287815 0.62550616
-0.43196771 0.44424632 1.0107586
0.42679942 0.82490897 1.4983171
1.2265725 0.71876675 0.012145281
0.46236974 0.23721799 0.84248662
1.1534741 0.46454781 -0.11469746
-0.9280113 -0.77463436 0.73885345
0.19632567 -1.4869651 3.1725216
0.56452441 -1.3643684 2.5428133
0.82989967 -1.2456781 1.8629801
-1.2592244 -0.81061161 0.071444869
-0.57253098 0.48275322 0.90525895
-0.0062260889 -0.0011705493 0.99996263
1.3756002 -0.48559779 -0.65647101
-0.10394192 0.602548 1.3522601
-0.9766801 0.18168332 0.079104781
0.70813817 -0.0019772567 0.49854428
-0.51801747 -0.58043283 1.0685601
-0.78934801 -0.85080314 1.1007957
0.20107812 -1.1785086 2.3484504
-0.57584119 -0.45122373 0.87200981
0.93761945 0.10349675 0.13158119
0.60694993 0.69848037 1.1194867
-0.056632295 -0.23451895 1.0517919
-0.82829225 1.2228807 1.809369
-0.29500526 0.057553757 0.91628432
0.57922858 0.2901873 0.74870288
0.17271875 -1.4108772 2.9607425
0.74087405 -0.90493673 1.2700162
0.61305386 0.11181574 0.63666767
0.87421012 -1.2189133 1.7215064
0.57047707 -0.38269186 0.82100898
-0.82047486 1.2415676 1.8683112
0.12166743 0.017037977 0.98548734
-0.046636973 0.88410509 1.7794669
-0.26325876 -0.56225026 1.2468201
-0.79571629 -0.92424035 1.2210559
0.85794532 0.47627243 0.49076515
-0.90494156 0.078708321 0.18727577
-0.13488963 -0.74765676 1.5407954
-0.49237835 0.68885356 1.2320828
0.15274391 -1.4479359 3.0731878
1.4209324 0.44956836 -0.81693697
0.42195439 0.070042431 0.82686043
-0.002413746 0.25738615 1.0662419
0.44788143 0.12807946 0.81580657
-0.21984249 -0.078111149 0.95777065
0.45159811 -0.14958075 0.81843352
-0.13510311 0.0082600983 0.9818154
0.7348088 -0.77101409 1.0545188
0.18810618 -1.4684267 3.1208928
-1.0904286 -0.93535078 0.68584633
0.0055561694 1.2312745 2.516006
0.4707312 1.00297 1.7843611
-0.45401636 0.038775731 0.79537272
-0.67862844 -0.30087787 0.62999105
1.0845791 0.71417189 0.33372945
-0.031967722 0.64403868 1.4137639
0.79552794 -0.85507441 1.0982876
0.52893925 0.16967085 0.74901152
-0.23088041 0.36908406 1.0829173
0.088594973 0.48542464 1.227788
0.73595464 0.20891726 0.50201726
0.37608728 -1.4430969 2.941087
0.82512927 1.0180821 1.3556529
-0.084330209 0.40121526 1.1538621
0.11043167 0.46943837 1.2081772
-0.62598372 1.3516943 2.4352221
-1.2699699 -0.79822397 0.024337709
0.11351711 0.33487839 1.0992573
-0.82188785 0.58977258 0.67233205
1.2710415 -0.79595757 0.018002093
0.62075162 0.43655682 0.80524927
-0.1031994 -0.11714876 1.0030737
-1.2005868 0.36585799 -0.30755675
0.77768064 0.47698832 0.62273073
0.21810575 -1.2181473 2.4363127
-0.31481367 -0.72989333 1.4336367
-1.4828938 0.19495998 -1.1609647
-0.86444223 1.09269 1.4467111
0.88201582 1.0329082 1.2889473
-1.3100002 -0.27277222 -0.64169586
-0.65732992 -0.14826223 0.589899
0.22153229 -0.52773714 1.22943
-0.031360921 0.042663813 1.0008367
0.32359082 1.003698 1.9026988
0.082445242 -0.50729603 1.2505521
0.016679794 0.58165467 1.3380439
-0.10363202 0.54014707 1.2810193
0.59770542 -0.94182861 1.5297893
-0.31060791 -0.13432889 0.92156696
-1.3053257 -0.20658845 -0.66119647
0.078545287 0.91664398 1.8340666
0.59261209 1.0075452 1.6639584
-0.58620185 -1.3768554 2.5520983
-0.40802175 0.67641729 1.2910587
0.31692514 0.50922287 1.1588664
0.5605275 1.0865228 1.8663408
