# .PCD v0.7 - Point Cloud Data file format
VERSION 0.7
FIELDS x y z
SIZE 4 4 4
TYPE F F F
COUNT 1 1 1
WIDTH 1390
HEIGHT 1
VIEWPOINT 0 0 0 1 0 0 0
POINTS 1390
DATA ascii
-0.010877389 0.28371164 1.080374
0.27671337 0.14520974 0.94451559
-0.016119 -0.0038245087 0.99975479
0.041362669 0.19462141 1.0361667
0.19372194 0.041714355 0.96421188
0.23342636 0.01042791 0.94562089
-0.00021659446 0.017676696 1.0003124
0.055326737 -0.022480052 0.99744433
-0.01973295 -0.010257343 0.99971581
0.058650978 -0.014637315 0.99677432
0.052325688 0.31310126 1.0952945
-0.24939123 -0.016042687 0.93806136
0.089969032 0.082365625 0.99868965
0.22238818 -0.2123379 0.99563086
0.33085334 -0.22184841 0.93975276
-0.19806546 -0.026826018 0.96148968
0.16531885 0.35387754 1.097899
0.24008203 -0.20843318 0.98580503
-0.11189064 -0.066622689 0.99191904
-0.35800046 -0.13203484 0.88926888
-0.03393212 0.40047446 1.1592284
-0.36628973 0.18313523 0.89937031
-0.33061397 -0.17390656 0.9209379
-0.18636328 0.036919631 0.96663177
-0.23009314 0.3273322 1.0542035
0.12243097 0.38059014 1.1298594
-0.076837912 -0.31415814 1.0927913
0.038890019 -0.20527104 1.0406238
0.1259419 -0.33749247 1.0980397
0.26059276 0.18865332 0.96768147
0.3307614 0.18840876 0.92609477
0.21300793 -0.21320656 1.0000846
0.053264521 0.27447367 1.0724987
0.2339953 -0.029005611 0.94608754
0.26746184 -0.30716559 1.0228149
-0.14205006 0.073282644 0.98519212
0.15024391 0.10908176 0.98932558
-0.21707718 -0.2722753 1.0270113
0.03058851 0.13764383 1.0180101
0.19453602 -0.35187405 1.0859711
-0.038313396 -0.010274475 0.99863768
0.19539158 0.21847673 1.0095541
-0.0058400184 -0.10968648 1.011997
0.35098439 0.20262447 0.91786665
-0.20047973 -0.097662814 0.96934593
-0.025529599 0.36171237 1.1301841
0.056810644 -0.16028863 1.022465
0.026487399 -0.015128961 0.99952728
0.10338421 -0.077848636 0.99537212
0.13257368 -0.24599244 1.0429364
-0.26800525 0.11721013 0.9419114
0.31206176 -0.26223969 0.97138715
0.32504991 0.24654849 0.95512873
0.082996584 0.33498934 1.1053294
-0.033269875 -0.042012166 1.0006582
0.16531099 -0.15293801 0.99606234
0.017401479 0.0085343085 0.99977005
-0.20945984 0.08503712 0.96335787
0.36868584 -0.17712352 0.8954435
-0.26623806 0.31179488 1.0263333
-0.1058454 -0.36436751 1.1215605
0.22945799 0.33957055 1.0626571
0.0057439008 -0.092812084 1.008581
-0.35336494 -0.074150011 0.88063145
0.3655228 -0.068288334 0.87105644
-0.34150112 0.19219722 0.92031676
-0.25358215 -0.22203811 0.98499703
0.29494241 -0.11823757 0.92698908
0.098989382 -0.15853259 1.0153337
0.39881086 0.092341244 0.84947681
0.037255481 0.098389193 1.0082924
-0.1505028 -0.26322553 1.0466366
0.12208445 -0.055169363 0.98813903
0.15226772 0.082546972 0.98362857
-0.27978826 -0.29019493 1.0059316
-0.22963983 0.27045727 1.0204127
0.37546504 0.16315857 0.88564676
0.11714545 -0.17925239 1.0184084
-0.31947425 -0.20355752 0.93937188
-0.40000442 0.044936001 0.84201568
-0.010562822 -0.12550624 1.0156403
0.3575756 -0.077849157 0.87820017
0.031529937 0.11610336 1.0124859
0.054339744 0.025086137 0.99767649
0.12476243 0.045686644 0.9865216
-0.28359246 -0.05201209 0.92228055
0.2346662 0.033315334 0.9460417
-0.057703566 -0.0048033218 0.99669337
-0.12647094 0.37197855 1.1223731
0.036035988 -0.08176697 1.0053872
0.2127271 0.045907069 0.95685464
-0.010226167 0.1251401 1.0155555
-0.044584386 -0.1252325 1.0136954
0.28493136 -0.1471018 0.94045305
-0.38933307 0.048813328 0.85080248
0.14743207 -0.2118974 1.0231643
-0.07973709 0.21322347 1.0391062
-0.37286755 -0.16943739 0.88967884
-0.074831337 -0.36517093 1.1277502
-0.24789248 -0.10065021 0.9486798
-0.0059316945 -0.11454583 1.0130856
0.2740576 0.038048968 0.92634016
-0.092530236 0.396855 1.1489321
-0.076042399 -0.3868098 1.1438394
0.28366643 0.29255641 1.0051227
-0.19759564 -0.023303466 0.96149904
-0.05939012 -0.25280988 1.0603856
-0.025565242 0.39247021 1.1533793
0.17008322 -0.1466305 0.99257219
-0.12759046 -0.35228941 1.1078285
-0.34207895 -0.21965511 0.93123037
-0.11190181 -0.06495019 0.99169654
-0.11432955 0.14917736 1.0091827
-0.078315683 0.047955103 0.99616635
0.0079914797 -0.032564733 1.0009966
0.2307045 -0.33671972 1.0601556
0.15241456 0.065038607 0.98099983
-0.10042739 0.3516311 1.1135588
-0.014113096 0.0098880194 0.99989861
0.37879857 -0.1520007 0.87961584
-0.38766021 -0.12207783 0.86462259
-0.1080303 -0.28039637 1.0669515
0.0040324819 0.061685748 1.0037888
-0.075785041 -0.13924739 1.0136465
0.24490094 0.28249565 1.0198274
-0.30966502 0.013067343 0.90427834
0.081843503 -0.054266308 0.99624646
-0.21192262 -0.21186097 0.99997389
0.0064746416 0.047793735 1.0022423
-0.0107958 0.018845987 1.0002387
0.21737763 0.015692975 0.95299321
-0.092373185 -0.028059606 0.99225456
0.18802851 0.055854961 0.96776503
-0.36207694 0.18074848 0.90157032
0.22846222 -0.29608494 1.0354713
0.38772783 -0.051761761 0.85234642
0.15719542 -0.31570491 1.0749592
-0.04113451 -0.069536075 1.0031432
-0.25656384 -0.24760401 0.99548274
0.1046415 0.26194376 1.0576646
-0.10425685 -0.32806098 1.0967546
-0.38512728 0.034765832 0.8528856
0.0085832691 -0.13940433 1.0193599
0.010176716 -0.011011515 1.0000176
0.1448202 0.19460827 1.0168995
0.19701725 0.0064722574 0.96122611
-0.29474166 0.27704409 0.9898808
0.036766373 0.39723724 1.1564456
-0.28083542 0.22246885 0.97062385
0.20313768 -0.20423703 1.0004479
0.17951435 0.030979393 0.96873432
-0.10786236 -0.15067627 1.0110691
-0.33962512 -0.0511625 0.88727236
0.15555531 -0.093503222 0.98454541
-0.075722747 -0.10667966 1.0056466
0.30278471 -0.20725967 0.95127797
0.086937614 -0.3758989 1.1337419
0.39338127 -0.099352434 0.85512209
-0.20941375 -0.0010353364 0.95614696
-0.35744187 -0.078288436 0.87836438
0.399203 0.078460112 0.84679294
0.14185494 -0.36758891 1.1149988
0.047294989 0.03073024 0.99870753
0.21221463 -0.35027978 1.0776609
-0.089033306 -0.31044927 1.0884519
-0.032442085 -0.3034648 1.0910383
-0.35191536 -0.15152989 0.89911687
-0.097413242 -0.056354553 0.9936865
-0.12603271 -0.39013326 1.1363198
0.03568932 0.36474794 1.1317673
-0.13977849 -0.1025067 0.9909696
-0.10768037 -0.36899048 1.1245589
-0.34993562 -0.064662673 0.88172632
0.035045691 -0.015733594 0.99901932
-0.40760162 0.013330591 0.83403862
-0.17670365 -0.36848849 1.1045597
0.40931842 0.017243307 0.8327558
0.11494407 -0.048463952 0.98913664
-0.26285174 -0.052506242 0.93366587
-0.24041937 -0.13911559 0.96155167
-0.34212437 0.033532567 0.88407534
0.061930012 -0.011944694 0.99630737
-0.12322907 -0.38506064 1.1330863
0.25317553 0.29707131 1.0241535
0.35854515 0.11769694 0.88529795
0.0068737632 -0.36455077 1.1328501
-0.40541774 -0.028294273 0.83643699
0.050135817 0.012225896 0.9976359
0.026749501 0.026166638 0.99996918
0.34572041 0.16278745 0.90697712
-0.26918504 0.11038121 0.93972343
0.25006193 0.31710905 1.0380272
0.008773596 0.10186308 1.0102991
-0.26335305 -0.073243238 0.93600976
0.096115291 -0.12650093 1.0067643
0.35779822 0.010418625 0.87208897
-0.030972863 0.011549056 0.99917406
-0.13584161 0.11672721 0.99517232
-0.40269971 -0.070167452 0.84275639
-0.38206348 -0.11067893 0.86627734
0.26313537 -0.19928433 0.970474
-0.1046472 0.068338715 0.99371916
-0.01914873 0.17657727 1.0308129
0.088686898 -0.084406972 0.99925917
-0.17882438 -0.020467656 0.96844077
-0.059912108 -0.11974477 1.0107493
-0.042321082 -0.051621616 1.0008737
-0.13832694 -0.0029008051 0.98087406
-0.069583118 -0.11616261 1.008652
-0.098201051 -0.049522221 0.992809
-0.0078742523 0.048387177 1.0022793
0.01280438 0.12662691 1.0158705
-0.050799593 0.15899284 1.0226982
0.016224587 -0.093171954 1.0084177
0.14305267 -0.075466909 0.98523116
-0.021017602 -0.11306807 1.0123427
-0.061052799 -0.035848375 0.99755764
0.079969682 -0.011994976 0.99374872
-0.070045076 -0.036679525 0.9964391
0.044684932 0.028276511 0.99880284
-0.072323374 0.096683085 1.0041169
-0.0025879438 0.003052382 1.0000026
0.056038715 -0.048233442 0.9991861
-0.040014371 -0.17313096 1.0283731
0.092767365 0.10697716 1.0028384
-0.094396457 0.14516973 1.0121635
0.053652816 0.16649981 1.0248436
-0.09456832 -0.15315609 1.0145136
0.16928467 -0.050818615 0.97392523
-0.030390566 0.061044015 1.0028027
0.0069277687 -0.023970688 1.0005265
0.13713877 0.095665053 0.99034476
0.019109532 0.036336269 1.0009551
0.015195493 0.12648199 1.0157667
0.13710035 -0.066116281 0.98557484
0.077832595 -0.11509904 1.0071899
0.093025021 0.05638266 0.99452537
-0.0022041604 0.014740035 1.0002124
0.0063722259 0.0030879066 0.99996895
-0.10817535 -0.016861791 0.98858243
-0.011778667 0.072413683 1.005105
-0.13076681 -0.12295099 0.99801701
-0.13030443 0.04961944 0.98548287
0.16842921 -0.025966268 0.97230583
-0.025923153 -0.14301714 1.0197819
-0.024771588 0.17805089 1.0310885
-0.091377638 0.13733566 1.0105112
0.14239632 -0.10971571 0.99176085
-0.06511379 0.024750393 0.99637276
-0.01670021 0.16450098 1.0267817
-0.058023628 0.019967653 0.99703199
-0.1039452 -0.14569736 1.0104231
-0.017241741 0.038320843 1.0011712
-0.16899477 -0.0080621243 0.97150576
0.015495992 -0.0094995359 0.99985009
-0.082160093 -0.057533842 0.99655986
0.091273904 -0.067577332 0.99623579
-0.081079699 -0.13551085 1.0117893
-0.16290598 0.00062686339 0.97346205
-0.0098686935 -0.11468206 1.0130546
0.0043733106 -0.0017629552 0.99998397
-0.01131096 -0.13911332 1.0192245
-0.11805045 0.11471286 0.99922311
0.029209109 -0.092184886 1.0076449
0.0020819786 -0.036408123 1.0013212
0.039917745 0.10108524 1.0086248
0.03870241 0.076757863 1.0043939
-0.010944275 -0.17962292 1.0321447
0.013096673 -0.12575732 1.0156434
0.1123574 -0.10279326 0.99794227
-0.033766892 0.17641699 1.0299828
0.064315133 -0.071016908 1.0009069
-0.058953214 -0.16915093 1.0251366
-0.10320362 -0.012594902 0.98950762
0.061576124 0.11395149 1.0091933
-0.052917447 0.030465117 0.99812788
-0.0073559396 0.083378553 1.0068979
-0.12693998 0.1015443 0.99419749
0.023188749 -0.099179052 1.0092988
-0.17276418 0.04348354 0.97204334
-0.0064302576 0.16002044 1.0255651
0.0021970998 -0.17590228 1.0309368
-0.17974314 0.0085711647 0.96776587
0.11655385 -0.059362024 0.98993903
-0.0063064471 -0.10233409 1.0104325
0.010611555 -0.0043626674 0.99990642
-0.02345863 0.10078597 1.0096076
0.0030243634 0.0091070617 1.0000738
-0.071930274 0.11929648 1.0090576
0.07760407 0.16235638 1.0203372
0.16959761 -0.027995523 0.97202039
-0.090425938 -0.082459763 0.99862278
-5.528454e-06 -0.0058174361 1.0000339
0.12978266 -0.1230225 0.99829102
0.047098108 0.15054296 1.020445
0.1552528 0.087973468 0.9836359
0.08950875 -0.0051170359 0.99201435
0.13864565 -0.11440534 0.99386597
-0.045555584 0.087576948 1.0055944
-0.0018161704 -0.037312329 1.0013889
-0.10921764 -0.10560586 0.99922413
0.043518823 0.02642359 0.99880433
-0.1401599 0.013049537 0.98052549
0.074396469 -0.060185976 0.99808753
0.039682172 0.001026251 0.99842638
-0.0059049726 0.010888567 1.0000837
-0.014981766 -0.025953103 1.0004491
0.036807228 0.16990489 1.0275129
0.051168397 -0.014154324 0.99758214
0.082377084 -0.025099371 0.99384397
-0.018132346 0.0078042597 0.99973214
-0.12999803 -0.11743496 0.9968915
0.12237495 -0.13193992 1.0024325
0.087371469 -0.055793162 0.99547911
-0.070218965 0.143672 1.0157109
-0.0023255069 0.031040326 1.0009581
-0.07885728 0.13928512 1.0131819
0.059145864 -0.077856652 1.0025635
-0.085710034 -0.09668684 1.0020021
-0.10496656 -0.12494528 1.0045934
0.0072967079 -0.016598022 1.0002222
-0.13349572 -0.12034176 0.99666101
0.07758525 -0.046119947 0.99610758
0.05689387 -0.041817125 0.99851173
0.072590344 -0.035218827 0.99597102
0.16069029 0.031156806 0.97514939
0.12214827 -0.10494849 0.99609399
0.030775955 -0.12098507 1.0136902
0.082356155 0.12042107 1.0077187
0.17122205 -0.05396717 0.97359544
-0.066282853 0.090025686 1.0037112
-0.13308573 0.071473107 0.9873966
-0.1265862 -0.052019831 0.986682
-0.10424989 -0.00014039087 0.98913199
0.07552693 0.0095893182 0.99438763
0.045288134 -0.076245725 1.0037624
0.13931124 0.11073893 0.99285549
-0.0050848792 0.011054546 1.0000963
-0.024722377 0.11102854 1.0117161
0.087450586 -0.069410428 0.99717021
0.038689133 0.01814322 0.99883235
-0.021591619 -0.01124133 0.99966019
-0.14816557 -0.070989758 0.98308653
-0.031589624 -0.13293438 1.0166737
0.14358735 0.062391788 0.98327541
0.051075339 0.16613102 1.0249908
0.1196219 -0.11580586 0.99910158
0.14350289 0.10322587 0.99006248
0.13796833 -0.10150383 0.99126774
-0.029642228 -0.0341626 1.0002884
-0.012976542 -0.17881182 1.0318053
0.0027288371 -0.084001765 1.0070488
0.036680426 -0.019090839 0.99901903
0.073487185 -0.081378929 1.0012221
-0.03176979 0.1190009 1.0131519
-0.1437187 0.077289402 0.9853186
-0.00048696986 -0.0011029169 1.000001
-0.053649951 0.11757609 1.0109458
-0.011484127 0.013207461 1.0000426
0.17425425 -0.021367071 0.970092
-0.033014517 -0.092196472 1.0074103
0.098896891 -0.14474685 1.0111711
0.010954857 -0.029156677 1.0007302
0.1430759 0.011248567 0.9796558
-0.15457197 -0.043963265 0.97804028
-0.098474093 -0.098970853 1.0000981
0.12186673 0.11487973 0.99834585
0.017183572 0.017829347 1.0000226
-0.0028029727 0.00082671811 0.99999285
-0.0019617192 0.1289034 1.0166123
0.0047852132 -0.15372708 1.0236092
0.13810575 0.11019504 0.99306977
-0.082637712 -0.15433691 1.0169909
-0.0069710976 -0.018883197 1.000308
-0.14792988 0.041655101 0.9798519
-0.080509491 0.018092182 0.99384552
0.093057238 -0.11629396 1.0048647
-0.025019871 -0.15444998 1.0232288
-0.004039445 0.13233617 1.0174966
-0.073168747 0.077078968 1.0005875
-0.0015925736 0.001392157 0.9999994
0.156866 0.088213615 0.98317468
-0.078730561 0.076942377 0.99972165
-0.086612806 -0.02808409 0.99328697
0.029663285 0.10044631 1.0092095
-0.020339187 -0.010696284 0.99970073
-0.14900194 0.022432242 0.97830164
-0.064693503 0.048238084 0.99814165
0.039513923 0.032503162 0.99949509
0.071331762 0.16107142 1.0208558
0.016175574 -0.15995696 1.0253246
-0.033833824 -0.16316143 1.0254769
0.17107825 -0.045438629 0.97279692
-0.026501033 0.10871417 1.0111165
0.068339698 0.14248948 1.015633
0.1757744 0.013830968 0.96929467
-0.029407205 -0.043372683 1.0010164
0.016323455 0.0077403276 0.99979347
-0.055173799 0.15792094 1.0218949
0.11745057 -0.13633029 1.0047913
-0.15638593 0.082550943 0.9823581
-0.055004187 0.011555294 0.99710804
0.052522987 0.052178033 0.99996388
0.11553287 0.035063017 0.9878816
0.11490344 -0.031965308 0.98781896
0.042457107 -0.13094625 1.0153443
0.13025284 -0.12384643 0.99837214
-0.049975704 0.07225737 1.0027236
0.15885079 -0.041576847 0.97649509
0.071771666 0.023936154 0.99542177
-0.0096134096 0.034483314 1.0010967
-0.0085213687 -0.027747899 1.0006974
0.064480208 0.098510526 1.0055466
0.17732121 -0.021897214 0.9690367
-0.066575758 0.052705485 0.99834555
0.096439272 -0.018995913 0.99106032
-0.037246354 0.17240676 1.0283368
-0.037605077 -0.16844174 1.0269585
-0.038679302 0.1161464 1.0119939
-0.081633702 -0.10172437 1.0036838
0.1768503 -0.0083604734 0.96879387
0.070198834 -0.008493783 0.99514425
0.1491728 -0.038670976 0.97924292
-0.011508108 -0.043889526 1.0017939
0.119462 -0.029478025 0.98659778
0.12098391 0.045256373 0.98741102
0.055436462 -0.11025167 1.0090822
0.0029627297 0.0097860722 1.000087
-0.096136101 -0.019970911 0.9911567
-0.038841967 0.014492575 0.99870133
0.17065862 0.029545939 0.97174859
-0.0073610945 -0.14905643 1.0221636
0.10329939 -0.14541893 1.0104759
-0.015520451 -0.079955973 1.006152
0.031482857 0.16024946 1.0246887
-0.09278667 0.060995877 0.99511111
0.056381159 -0.15934612 1.0222124
0.10545109 0.060676619 0.9925617
-0.023561535 -0.10672845 1.0108358
-0.062797695 -0.13941593 1.0154933
-0.12422581 -0.04271321 0.98639238
0.15157497 -0.069376528 0.98183811
-0.074017949 0.00038957788 0.9945215
-0.011321983 0.01390387 1.0000651
-0.043806419 0.095333531 1.0071695
0.1537274 -0.04176091 0.97811186
0.032539506 0.14196484 1.0190952
-0.019356582 -0.029260367 1.0004815
0.09180899 0.13903782 1.0109026
0.039488953 0.16181752 1.0246255
-0.01227631 -0.16704428 1.0277531
-0.15190676 -0.09354949 0.98567587
0.15448144 0.0074117668 0.97619045
-0.047585379 0.12909596 1.0144014
-0.0061369496 0.0014432578 0.99996442
-0.0072911242 0.005299726 0.99997491
-0.020966073 -0.15398553 1.0232719
-0.092251524 0.073618226 0.99690932
-0.12386168 0.026426231 0.98535663
-0.0066305758 0.11230464 1.0125684
-0.10714582 -0.037438821 0.98992145
0.081652857 0.087982185 1.0010737
0.096496686 -0.055363081 0.99375343
0.020054759 -0.036435161 1.0009253
0.012129369 0.020331075 1.0002662
-0.051559184 0.016587572 0.99761683
-0.011426896 -0.018344706 1.000206
-0.14610705 0.052432094 0.98140186
-0.032084759 -0.12260167 1.0140017
-0.072280206 0.058268782 0.99817085
-0.0067214156 -0.10922895 1.0118858
0.067562871 0.16589943 1.0229579
0.12420939 0.12209154 0.9994784
-0.057206005 -0.16308258 1.0233234
-0.012418094 0.021668728 1.0003153
-0.044571087 0.044416986 0.99998629
0.083850183 0.15923823 1.0183259
-0.0284841 -0.041332729 1.000897
-0.049211521 0.17290726 1.0274751
0.091642566 0.15314874 1.0150561
-0.1662032 -0.027432522 0.97312903
-0.064300135 0.076510914 1.0017194
-0.058902729 -0.084317125 1.0036398
0.10122983 -0.12826312 1.0062039
-0.11837059 -0.044954937 0.98800933
-0.14151575 -0.031367101 0.98095721
0.13315131 0.034487948 0.98346013
0.0092687504 -0.088189602 1.0076915
-0.059943102 0.16843507 1.0247772
0.0042587207 -0.16347188 1.0267049
-0.062090669 0.034816492 0.99735695
-0.17072175 -0.025463348 0.97150248
-0.06271673 -0.071710221 1.001209
-0.016440811 -0.03580232 1.0010115
-0.044249043 -0.071277291 1.0031224
-0.076401062 0.0646061 0.99833685
-0.12352844 0.031465787 0.98573083
-0.044331852 0.044341113 1.0000008
-0.11229143 -0.041155454 0.98908442
-0.062179498 0.0096606566 0.99622703
-0.0057111834 0.00073329057 0.99996793
-0.15267602 0.094668493 0.98565215
-0.0099894255 -0.095126487 1.0089493
-0.0085861413 -0.019498115 1.0003065
-0.11145947 -0.13699612 1.0063447
-0.015303002 -0.030035483 1.0006679
-0.095816664 -0.043297458 0.99269384
-0.062225148 -0.087354138 1.0037588
-0.11091304 0.10939288 0.99966508
0.014261417 0.015760854 1.0000451
0.077855542 0.16184771 1.0201331
0.025226589 0.16115987 1.0253361
-0.022238381 0.16969174 1.0283008
0.0012880141 -0.093243599 1.0086927
0.057900209 -0.10286787 1.0072293
0.13890719 -0.054665681 0.98369312
0.012269219 0.16042078 1.0255843
0.0079499763 -0.014188936 1.0001382
-0.17654034 -0.034044996 0.96999258
0.092268787 0.0052016857 0.99151355
0.14434637 -0.043524008 0.98105848
0.02073426 0.17840993 1.0314002
0.047820549 -0.043494441 0.99960494
-0.021158449 -0.12895961 1.0161829
0.016541231 0.076370329 1.0055588
-0.048837416 0.16308352 1.0242112
-0.12957986 0.12433886 0.99866921
0.1570569 0.03369638 0.97646856
0.080865413 0.077743024 0.99950475
-0.025918368 0.0039924886 0.99934417
0.1731443 0.014724082 0.97023785
-0.011812323 0.12727217 1.0160587
0.006033123 -0.053132311 1.0027866
0.024893252 0.14290908 1.0198033
-0.091598801 -0.077021837 0.99754202
-0.17316227 0.033104658 0.97111076
0.12513 -0.073491439 0.98974347
0.091640167 0.054666642 0.99459052
-0.087327108 -0.051348206 0.99501061
0.098890454 0.036764316 0.99157232
-0.080464989 -0.13960429 1.0130148
0.0085522281 0.023916809 1.0004989
0.083629265 -0.084100217 1.000079
-0.000696528 -0.0019005589 1.0000031
0.091117315 0.0085065877 0.99176997
0.015205631 -0.0049532447 0.99979335
-0.096445017 -0.057668637 0.99402404
-0.029903442 0.15854086 1.024241
-0.066913545 0.16709578 1.0234436
-0.025236303 -0.035706658 1.0006381
-0.0068666087 -0.066969588 1.0044378
-0.16000898 0.01354154 0.97458053
0.0781876 -0.15700199 1.0185363
-0.16315958 0.056164585 0.97653341
-0.13265814 0.1216429 0.99719882
0.0070203659 0.026502339 1.0006531
0.10692191 -0.13459754 1.0066842
0.11183513 0.074715272 0.99307525
-0.074582659 -0.082600757 1.0012603
-0.022356898 -0.1593492 1.0248923
0.14728661 -0.040196817 0.97992241
-0.067130648 -0.01875818 0.99584532
0.064149179 -0.018237613 0.99621749
0.060681805 0.19914661 1.0359771
-0.076449893 -0.024421215 0.99475181
0.064407036 0.16844979 1.024227
-0.076901615 -0.064754739 0.99827933
-0.11443379 0.0037670236 0.98691911
-0.01504448 0.061251674 1.0035254
-0.11691971 -0.050982304 0.98892897
0.15018447 0.12694645 0.99356002
-0.12428396 -0.16895175 1.0130982
-0.051131025 -0.18855321 1.0329379
0.1245646 0.16904306 1.0130593
0.097258501 0.07869298 0.99673337
-0.12520893 0.037846737 0.98575509
-0.0021796322 0.0003719418 0.99999541
-0.089209206 -0.1843494 1.0260264
0.060141914 -0.047394261 0.99862915
0.1568388 -0.13454364 0.99350357
0.05156827 0.0019512196 0.99734449
0.14756691 0.12880883 0.99481571
0.17342044 -0.095158517 0.97898048
0.040256765 -0.12140556 1.0131187
-0.19123955 -0.014296356 0.96363181
0.19437414 0.00082618941 0.96221936
0.18578966 -0.02285888 0.96600473
0.11161977 0.13385677 1.0054587
0.16228165 0.031156354 0.97463536
0.035625391 0.081003845 1.0052924
0.16409165 0.097269207 0.98253524
0.18364394 -0.094413333 0.97518879
-0.13265949 -0.148555 1.00447
0.20853359 -0.016704705 0.95679277
-0.080296367 0.0081570791 0.99361902
0.20636083 -0.038352016 0.95888609
0.053042483 -0.015967496 0.99744147
0.063448556 0.050708596 0.99854565
-0.020588363 -0.056019973 1.0027144
0.1100778 0.06237454 0.99177349
-0.008331608 0.053317521 1.0027733
0.072180122 -0.13250841 1.0123485
-0.002262936 -0.020451097 1.0004132
0.13360968 -0.049475145 0.98459625
-0.0036384354 0.081872828 1.0066899
0.15020019 -0.10753884 0.98900449
0.010264827 -0.10894476 1.0117636
0.16176452 -0.11676554 0.98746645
-0.065265961 0.031608306 0.99673945
0.051287327 -0.025444357 0.99801701
0.005092544 -0.066290826 1.0043685
-0.13357374 0.094488859 0.99108618
0.20863177 -0.023129102 0.95700777
-0.15122581 -0.094980352 0.98615205
-0.15668154 0.089246459 0.98341584
0.12761742 -0.11656911 0.99730217
0.0041841995 -0.1652388 1.0272863
0.19847834 -0.068021677 0.96523327
-0.029884037 -0.063862041 1.0031853
0.00022185627 0.041026898 1.0016831
0.09482982 0.01114669 0.99113154
-0.024447177 0.12975095 1.0162376
0.11129554 -0.017072566 0.98790479
0.082503498 0.18276112 1.0265948
0.064314805 0.029235529 0.99671835
-0.043108247 0.09775582 1.0076978
0.1624549 0.00681641 0.97365487
-0.006893306 -0.0020389347 0.99995667
0.012211231 0.085566275 1.0071725
-0.095507339 -0.16260158 1.0173177
0.071967676 -0.19477902 1.0327595
-0.10753544 0.17598116 1.0194055
-0.0095155118 0.16351072 1.0266452
0.037909985 0.011492875 0.9986949
0.07570111 0.1503408 1.0168717
0.086212315 -0.084069684 0.99963516
-0.093613364 0.032885462 0.99231797
0.20177676 -0.028128318 0.96007735
-0.052606706 0.086730905 1.0047548
0.092219613 -0.17820644 1.0232531
-0.011184325 0.089975215 1.0079705
0.015299438 0.15953316 1.0252167
0.085286558 -0.10280599 1.0032953
-0.0055375742 0.056833506 1.0031993
0.038996253 -0.022871183 0.9990024
-0.017475031 -0.16005126 1.025311
-0.045390464 0.0061384826 0.99797738
-0.03101748 0.15089241 1.0218065
-0.11037112 0.14276981 1.0082015
-0.092021652 -0.18769221 1.0267603
-0.14623104 -0.14641871 1.000055
-0.0073351013 -0.046089645 1.0020704
-0.040849153 -0.16376911 1.0251516
-0.031435378 0.0013154008 0.99901354
0.11568142 -0.13406824 1.0045921
-0.08144661 0.025029175 0.99399292
-0.16957167 0.041894656 0.97300059
-0.1498085 0.095940627 0.98676205
-0.17548855 0.035898656 0.97049248
-0.16511272 0.10576545 0.98392409
-0.071343683 -0.055870231 0.99803156
0.043375108 0.033808403 0.99926162
0.046592314 0.19146453 1.0344878
0.090015292 -0.1846247 1.0259836
-0.043548435 -0.20543486 1.040307
0.15120704 0.10591387 0.98835421
0.10496325 0.03712279 0.9903608
-0.12074263 0.073270857 0.99078983
-0.06003277 -0.0094954725 0.99648625
0.076115377 -0.18191361 1.027299
0.023487629 0.15381376 1.0231071
-0.17311375 -0.02326047 0.97057271
0.043452676 -0.013233428 0.99828696
0.20321326 0.011508008 0.95883679
-0.16018529 -0.12490294 0.98994142
0.043264907 -0.12185031 1.0129757
-0.054618377 -0.021763636 0.99749047
-0.038817961 0.13212052 1.015949
-0.022227256 0.072553195 1.0047699
-0.0049273479 0.0078614587 1.0000376
-0.15237464 -0.13835567 0.99592423
-0.1113152 0.14179881 1.0077158
-0.0074240281 0.13911434 1.0192977
-0.12176439 0.051213734 0.98779631
-0.066809162 -0.13245989 1.0130821
0.030189799 0.056351896 1.0022641
-0.17177472 -0.016589176 0.97076863
-0.17721972 -0.11070904 0.98084968
-0.14278366 -0.14026146 0.99928612
0.10612194 -0.088797644 0.99662316
0.17152001 0.017522793 0.97088796
-0.18969183 0.07493414 0.96963215
-0.12365241 -0.093551017 0.99346191
-0.03763818 0.052557714 1.0013456
0.10541178 -0.1389617 1.0081987
0.17962694 -0.10704881 0.97919363
0.11194475 0.11106464 0.99980372
0.12293915 0.15257163 1.008164
0.19737579 0.050023291 0.96354514
0.082230709 0.14169304 1.0133151
0.086723126 -0.16159549 1.0185922
-0.13760459 -0.12394043 0.99642622
0.12399261 0.024472564 0.98522472
0.070517458 -0.17180659 1.0245448
0.055834427 -0.16000545 1.0224843
0.083887987 -0.075297639 0.99863255
-0.14078562 0.10990709 0.99225897
-0.0012644558 0.00096574781 0.99999934
0.14041325 0.054888889 0.98329693
0.045640338 -0.034050878 0.99907643
-0.1065441 0.047609929 0.99091506
-0.15341558 0.13835002 0.9956044
0.18161806 0.10410415 0.97785252
0.073274262 -0.028826945 0.99546188
0.05484258 0.041963793 0.99875325
0.023147058 -0.037772872 1.000891
-0.19540474 0.070781045 0.96682692
-0.034128036 0.20658855 1.0415142
-0.030803377 -0.048373081 1.0013911
0.1425086 0.15232907 1.0028955
0.002228583 -0.0088785263 1.0000739
-0.023459418 0.11211908 1.0120203
-0.092903957 0.15142716 1.014299
0.083364233 0.18078366 1.0257331
-0.045957111 0.023737723 0.99845141
-0.033247646 0.084773451 1.0060811
0.13419904 -0.1086705 0.99379987
-0.014447116 0.0085776886 0.99986488
0.037713706 0.18479757 1.0327278
0.14603315 0.10174211 0.98902577
-0.041769654 0.010242492 0.99836022
-0.0016254536 0.060832281 1.0036979
-0.15984491 0.13472562 0.99260062
-0.023423955 0.021416355 0.99991
-0.15444531 -0.14205469 0.99632621
-0.20067066 -0.014502857 0.95994163
-0.12472945 -0.020800792 0.98487526
-0.073195688 -0.047189742 0.99686927
-0.13576803 0.022968045 0.98209459
-0.0044982866 0.066341035 1.0043809
0.12209255 -0.16455832 1.0121728
0.0044602263 -0.15153737 1.0229437
-0.0086658541 0.10620963 1.0112054
-0.0421662 -0.205338 1.0403857
-0.11414424 -0.017696755 0.98728424
0.0029639641 -0.0085994629 1.0000652
-0.00024467733 -0.037453957 1.0014027
0.068657495 -0.054915812 0.99830192
-0.13612111 -0.083281457 0.98840684
0.04965172 0.11632433 1.0110661
0.039558463 -0.16630389 1.0260922
-0.13251796 -0.11423999 0.99548978
-0.12558085 0.0066460664 0.98427361
0.010182623 0.020735925 1.0003263
0.20384945 -0.029998986 0.95934534
0.069965109 -0.082064733 1.0018395
0.19569078 0.010320734 0.96181166
-0.14237726 -0.068751961 0.98445553
0.037613984 -0.16134852 1.0246185
0.0024707911 -0.17401417 1.0302749
0.16426575 0.12573442 0.98882592
-0.027322084 0.089531422 1.0072694
-0.089821003 -0.076386824 0.99776715
0.12297227 -0.0073983553 0.98493254
-0.10768186 0.024415698 0.98900074
-0.12361414 0.083680175 0.99172193
0.0085539743 -0.0087163197 1.0000029
-0.17560489 -0.076184519 0.974967
0.02575458 0.14975207 1.0217624
-0.05937364 0.10799704 1.0081382
0.050382078 0.10816488 1.0091612
0.1156858 0.020547369 0.98703897
0.072859511 -0.18605088 1.0293064
-0.19435897 0.049444348 0.96466935
0.099663362 -0.083575457 0.99705207
0.0038952467 -0.0025837044 0.99999148
0.013929375 -0.12474703 1.0153677
0.11059178 -0.16087295 1.0136496
-0.081107013 0.063985087 0.99751574
-0.079450347 -0.043296631 0.99556226
0.0100582 0.00079265615 0.99989945
0.056742128 0.04687449 0.99897754
0.17900515 0.0036251377 0.96797031
-0.0009546458 0.13693987 1.0187516
-0.17654409 0.10064835 0.9789623
-0.17871399 0.0899942 0.97616029
0.030534988 -0.2055295 1.04131
0.046958324 -0.19741376 1.0367671
0.1391442 0.048427768 0.98298413
0.016407086 0.034159534 1.0008976
-0.054006547 0.013818895 0.99727428
0.12651911 -0.054601081 0.98697418
-0.03271699 0.12926953 1.0156403
-0.13736944 -0.11032552 0.99330133
-0.086231701 -0.078263663 0.99868929
-0.18630579 -0.049530365 0.9677434
0.088100187 0.16464855 1.0193475
-0.10919738 -0.010899748 0.98819476
-0.064736575 0.12456401 1.0113254
-0.12308016 0.088078953 0.9926092
-0.062786713 0.088677578 1.0039215
-0.042740349 0.065537781 1.0024685
-0.015852107 0.081350014 1.0063665
-0.0514451 -0.17464393 1.027854
-0.05385102 0.052739453 0.99988151
-0.016868278 0.10162771 1.0100436
0.12690571 -0.025312813 0.98453569
0.13985406 0.060125444 0.98405594
0.17976618 -0.0086535672 0.96775901
0.18435697 -0.071301915 0.97109646
0.13306612 -0.16205578 1.0085555
0.0013615902 0.020519363 1.0004191
0.097333163 0.10882878 1.00237
0.05655862 0.20053281 1.0370145
-0.19623107 -0.027590649 0.96225458
0.023740618 0.079769507 1.0057995
-0.19035503 0.083384275 0.97071791
0.16370685 -0.0084262565 0.97327107
-0.077717848 -0.15270743 1.0172795
0.032392588 0.01026782 0.99905616
-0.15725955 -0.085638389 0.98260337
0.15873665 -0.13381401 0.99270886
-0.029998358 -0.0069766934 0.99914879
0.07226409 -0.19626524 1.0332979
-0.10554325 -0.10615502 1.0001295
0.13537259 0.1602335 1.007349
0.024362074 0.19318607 1.0367273
-0.19011839 -0.019294657 0.96422726
0.10778521 0.11935028 1.0026269
0.083218642 -0.16577366 1.0205556
-0.0088635804 0.016186124 1.0001835
-0.13997415 -0.022724902 0.98092365
-0.18745907 -0.09395206 0.9736861
-0.14674014 0.019525444 0.97884858
0.047361597 0.20376784 1.0392783
-0.039856896 0.12072232 1.0129853
0.070832305 -0.093929462 1.0038055
-0.10687067 0.16597506 1.0161264
0.058611091 0.073088296 1.0019066
0.12171789 -0.069007829 0.98994684
0.029123906 -0.022705143 0.99966735
-0.0013905554 0.080135383 1.0064198
-0.12764746 0.056120239 0.98685563
-0.20480978 0.014765446 0.95827097
-0.17437579 0.0096471347 0.96968615
0.019255083 0.11033145 1.0118023
-0.080510795 0.1258131 1.009347
-0.047952507 -0.028345875 0.99850404
-0.0040849694 0.041683745 1.0017209
0.10829697 0.17939825 1.0204555
-0.17498086 -0.11370887 0.98231143
-0.028778775 0.20480941 1.0411186
-0.11207955 -0.16182081 1.0136242
0.063059427 -0.10856611 1.0078101
0.0097039174 -0.14739543 1.0216312
-0.17081028 -0.072521284 0.97608316
0.040718351 -0.10688248 1.0097659
0.026866505 -0.14220129 1.0194994
-0.13467091 -0.080241606 0.98830247
0.01821346 -0.046704311 1.0018495
-0.018230669 -0.010150664 0.9997707
0.04105033 -0.030754207 0.99926066
0.039028693 -0.20602338 1.0409224
0.015337727 -0.0255663 1.0004184
-0.00027670193 -8.3316852e-05 0.99999994
-0.087326549 -0.013575249 0.99255836
-0.1219461 0.028164415 0.9859224
-0.065725282 -0.037659395 0.99709845
-0.17127179 0.10864826 0.98247039
0.091728702 -0.055434566 0.99465883
0.10295606 0.18242212 1.0226779
0.0071853367 -0.01397889 1.0001438
-0.054271933 0.19105814 1.0335578
0.015414736 0.076022014 1.0055417
0.012621693 -0.012853736 1.000006
0.20006265 -0.056359332 0.96315134
0.086678855 0.0337025 0.99362266
-0.072410628 0.071627334 0.99988717
-0.067130953 0.11095346 1.0078042
0.056273822 -0.05014183 0.99934745
0.048338346 0.19553551 1.0358975
0.17733286 0.024000226 0.96912909
0.054913223 0.19111098 1.0335079
0.05212751 -0.18928015 1.0331097
0.16601034 0.021800021 0.97291583
0.026343275 -0.11450217 1.0124168
0.079875201 0.18033727 1.0261415
0.10645736 0.18041766 1.0212173
0.040550161 0.1918088 1.0351464
-0.036717866 0.045972936 1.0007653
-0.14813967 0.093155973 0.98673266
-0.20082065 -0.05806959 0.96304315
0.025658403 0.044998508 1.0013665
-0.075448722 0.19595943 1.0327076
0.080395296 0.088388599 1.0013491
-0.14070378 0.12052793 0.99472946
-0.16193146 -0.11977824 0.98812503
0.11888561 0.014460685 0.98607534
0.1165409 0.0094655966 0.98650783
-0.019588841 0.010399044 0.99972439
-0.12698826 -0.014657553 0.98408884
0.028888496 0.16665696 1.02694
0.083778068 -0.17840642 1.0248101
0.010342666 0.021843342 1.0003701
0.027650267 -0.20675136 1.0419816
0.079211064 0.081336029 1.0003412
0.10626753 -0.14542256 1.0098549
-0.0068704393 -0.0096455021 1.0000458
-0.021998441 -0.014464352 0.99972528
-0.15810734 -0.022076791 0.97548944
0.033882547 0.048302162 1.0011851
0.13302468 0.061642785 0.98610425
-0.023846455 0.05235238 1.0021721
-0.16799937 -0.067534365 0.97633708
0.0089990227 -0.0065069264 0.99996138
-0.13398476 0.15274148 1.005378
0.072670735 0.18864013 1.0303041
0.005438494 0.0051445905 0.9999969
0.1678998 -0.026454426 0.9725095
0.14341623 0.044677898 0.98142791
0.0571336 -0.093788847 1.0055321
-0.12200121 -0.29462546 1.0719199
-0.48365504 -0.26430482 0.83593488
-0.63603169 0.25345188 0.65970153
0.0479827 0.3380082 1.1119472
-0.10215275 -0.26895684 1.0619026
0.069055937 0.67666531 1.4531072
-0.56175786 0.16347229 0.7111513
0.4295468 0.0190822 0.81585366
0.0036419707 0.020870119 1.0004222
0.3648912 0.50528008 1.1221623
0.21067059 0.46041313 1.1675981
0.028975548 -0.39222184 1.1529984
-0.030841094 -0.12980011 1.0158969
0.038179506 0.68326265 1.4653902
0.53659612 -0.39495212 0.86805177
-0.50477105 0.43241099 0.93218547
-0.0060134516 0.071449764 1.0050689
-0.1446313 0.53516036 1.2654784
-0.68813157 -0.027899375 0.52725333
0.27188402 -0.29780993 1.0147698
-0.12001327 -0.18015312 1.018052
-0.14510791 -0.18685819 1.0138596
-0.54378051 0.28261518 0.78417408
0.49401081 -0.37210134 0.89441276
-0.064576074 -0.080296256 1.0022774
-0.084358439 0.35259557 1.1172073
0.023429044 -0.10341641 1.010146
0.68607831 0.073371634 0.53467989
0.38324058 0.32131767 0.95637172
0.021038223 -0.005756753 0.99959052
-0.2789152 -0.54199308 1.2159628
-0.11018226 -0.076506764 0.99371314
-0.089317687 0.21906115 1.0400101
-0.23659183 -0.28869 1.0273662
-0.57809532 0.37625343 0.80737239
0.13839525 0.014614954 0.98106033
-0.46437919 -0.38452056 0.93220806
0.032761488 0.065354228 1.0031979
-0.061304852 0.14506906 1.0172868
-0.040624976 -0.086344831 1.005805
0.051140651 0.048640486 0.99975055
0.037127502 -0.19635861 1.0371783
0.40913311 0.042556934 0.83442122
-0.22240916 0.1515546 0.97350293
0.58970171 0.21134442 0.69691837
0.33668277 0.39474311 1.0424669
-0.13637696 -0.4929899 1.2244403
-0.020176606 -0.035040773 1.0008208
-0.40692988 -0.39588121 0.99112999
0.03475818 -0.057340845 1.0020798
0.12364273 -0.28047884 1.0633808
0.55391121 0.37962306 0.83729601
-0.51761252 -0.049363561 0.734514
-0.34239689 0.088046953 0.89051664
-0.16502915 0.24293867 1.0317845
0.14799596 -0.66991025 1.426877
0.52797151 0.42208275 0.89939988
-0.18206775 0.1879932 1.0021927
-0.28550839 0.34054446 1.0344554
-0.0057462868 0.6659838 1.4435014
0.41476578 0.49846187 1.0764337
0.19610703 0.25263575 1.0253669
0.27504703 0.26884183 0.99662507
0.32728788 -0.37003216 1.0298064
0.40655047 0.37880945 0.97821331
0.023437398 -0.13695216 1.0182066
-0.25269052 -0.091803759 0.94457543
-0.097927146 0.11595832 1.0038567
0.22618636 0.28884649 1.032272
0.55627257 -0.407574 0.85667741
0.56111228 -0.1384232 0.70431387
0.14224149 -0.041114621 0.98145777
0.0062685777 0.59129065 1.3495853
0.22899564 0.60798258 1.3172038
0.53700697 0.41612658 0.88478482
0.47336826 0.07549952 0.78162265
0.17513518 -0.3047106 1.0621762
0.07955803 0.05123597 0.99629563
0.09378577 -0.010705167 0.99131882
-0.063864812 -0.20622091 1.0384483
-0.37510487 -0.57737505 1.1926583
0.41792914 0.098265566 0.83499134
-0.39097068 0.52567452 1.1234757
-0.14779933 0.67393023 1.4323373
0.070727028 0.36980444 1.131753
0.37074322 -0.034381386 0.86373156
0.08641158 -0.09473981 1.0015087
-0.00041759745 0.24592586 1.0604794
-0.077338092 0.67452443 1.449002
-0.098059207 -0.62827563 1.3851147
0.36935708 -0.31753969 0.96440679
-0.39308715 -0.35794991 0.97361064
0.48043782 -0.26158562 0.83760655
-0.09298569 -0.18599145 1.0259465
-0.32614425 -0.55098236 1.1972115
0.58614856 0.014183707 0.65663105
0.054924116 -0.068472855 1.0016719
-0.41047871 -0.097201683 0.84095538
-0.34054875 0.13738285 0.90290058
-0.16748092 -0.58218932 1.3108945
0.56953806 0.018215774 0.67595828
0.14433277 -0.2264045 1.0304271
-0.13155797 -0.14223142 1.0029223
0.21398686 -0.015113622 0.95443803
-0.52772886 -0.11287773 0.73424369
-0.094045691 0.6619547 1.4293394
-0.22795196 0.051454492 0.95068544
0.40993154 0.49887884 1.0808362
-0.30579269 -0.21820559 0.95410448
-0.11980766 0.49394324 1.2296261
0.18493843 0.51530629 1.2313384
-0.0973121 -0.059061207 0.99401855
-0.12941238 0.22745861 1.0349898
-0.034573719 0.45287082 1.2038966
0.066105537 -0.023709623 0.99619222
-0.097180389 0.045583799 0.99263388
-0.28253385 -0.43455112 1.1090093
0.2412447 -0.48811162 1.1800539
-0.24719256 0.29456463 1.0256642
0.084081538 0.2078466 1.0361305
-0.67580307 -0.11126637 0.55567038
-0.008079337 0.018613841 1.0002812
-0.4061566 0.54952335 1.1370127
-0.076868743 0.075955108 0.99986035
-0.084424086 0.594652 1.3464836
0.15596528 0.66847634 1.4225354
0.38928434 -0.11165006 0.86092341
-0.53793764 -0.069191709 0.71541059
0.38712695 -0.19982314 0.89006197
0.25650588 0.10001832 0.94420838
0.00013943389 -0.68961513 1.475569
0.2802996 -0.59923625 1.2805161
0.038616195 -0.62062418 1.3836832
-0.082586758 -0.24235249 1.0519142
-0.23099531 0.067857161 0.95124578
0.042046309 0.0041516377 0.99824935
-0.34303722 0.48595893 1.1184815
0.55015492 -0.10088871 0.70750809
0.13926503 -0.59584236 1.3356334
-0.075329371 -0.1024194 1.0048152
0.28801921 0.019773845 0.91743594
-0.071568146 -0.012071061 0.99502373
-0.052754384 -0.086609639 1.0047182
-0.018068314 0.66408843 1.4406869
0.27519217 -0.5047766 1.1790687
-0.64372593 0.18069686 0.61826825
0.17160082 -0.49743006 1.2179898
0.67462885 -0.052021801 0.54758215
0.50271249 -0.28144532 0.82649159
-0.25711665 -0.58177054 1.272348
-0.50267345 -0.24441209 0.80705667
-0.1043247 0.13662028 1.0077815
0.57763135 0.11121495 0.67871082
-0.27538246 -0.25531831 0.98935193
-0.24226923 -0.4542084 1.1476109
0.41159591 -0.40745771 0.99661058
0.44835308 0.48135442 1.0306816
-0.24627484 -0.33620486 1.0523825
-0.19523944 0.064318851 0.9660185
-0.38785359 0.36117429 0.98001647
0.069119945 0.33073708 1.1046095
0.027359825 -0.033817682 1.0003951
0.24312826 0.20948516 0.98477268
-0.060008965 -0.034398813 0.9975822
-0.50268167 -0.10078906 0.75746965
-0.18254727 0.12362421 0.98195946
0.46308669 -0.10033363 0.79561758
0.0079029361 0.0011692732 0.99993891
0.53751057 0.31325763 0.80921268
0.18491197 -0.44146559 1.1606994
0.48374748 -0.30520597 0.85913908
-0.0823173 0.033239983 0.99432874
0.15869166 0.10258172 0.98533994
0.34705114 -0.58984804 1.2274762
0.43139604 -0.021681016 0.81436753
0.17822944 -0.38203689 1.1141864
0.55374563 0.18928321 0.72919393
0.04449049 0.34012222 1.1137037
-0.37972662 -0.057083659 0.85906625
0.038540024 0.1127406 1.0112251
0.57583225 0.31069425 0.76494819
0.052486349 0.081301324 1.0038551
-0.24156 0.28504109 1.0228972
0.65749246 0.17368853 0.5978713
0.1376417 -0.27222842 1.0551631
0.1520378 0.48728701 1.2143331
-0.6008051 -0.16707917 0.66694868
0.10232043 -0.62093884 1.3750956
-0.085011348 -0.6431458 1.4064095
0.24013428 0.47263741 1.1657217
0.0053195641 -0.010288804 1.0000776
0.23302175 -0.10909687 0.95760298
-0.15539806 -0.29301035 1.0617065
0.38364282 0.10879388 0.8646543
0.46732727 -0.083836816 0.78863382
-0.00094502704 0.10899972 1.01188
0.37038043 -0.5495224 1.1647933
0.34405717 0.23472972 0.9367227
-0.23983319 -0.15707436 0.96715242
-0.38448027 -0.54449332 1.1486479
0.30494782 -0.017980676 0.90733016
0.3972902 0.55938697 1.1550742
-0.15528589 0.0050771353 0.97591209
0.21916755 0.38874951 1.1030917
-0.59068519 -0.14511627 0.67214978
0.5910548 -0.21290012 0.69598067
-0.13856575 0.22410175 1.0310211
0.0010530949 0.022792118 1.0005183
0.52775586 0.1176001 0.73530352
0.003872338 0.013869016 1.0001774
-0.67331797 -0.12049887 0.56116289
0.59492999 0.22326992 0.69590771
0.2149884 -0.23422475 1.0086412
-0.60236037 -0.32551166 0.7431199
-0.11058843 0.44437325 1.1852378
0.38068751 -0.37002555 0.99199593
0.053982213 0.03193057 0.99810547
0.25866953 -0.61634523 1.3129715
0.038524829 -0.010753121 0.99863148
0.2283612 -0.65102583 1.3716857
-0.22247931 0.43651634 1.1410495
0.38127515 -0.46499866 1.070853
-0.15462878 -0.15260592 0.9993785
-0.2795105 -0.53752261 1.2108045
-0.19373257 0.1631873 0.98909777
-0.090322055 -0.15380485 1.0154978
-0.27840674 0.44863752 1.1237653
-0.10204942 0.404351 1.1530857
0.1963743 -0.19623207 0.99994415
-0.16915514 -0.29464623 1.058203
0.55484247 0.3988497 0.85123086
-0.35371217 0.13157074 0.89219856
-0.4460015 -0.22124304 0.85003114
0.060428455 -0.68428123 1.4645892
0.050370425 0.67256385 1.4498049
0.6681574 0.10577403 0.56475383
-0.099378541 0.2243001 1.0404345
0.019097051 0.12716298 1.0158057
0.21251248 -0.018404728 0.95517719
-0.51755053 -0.37195012 0.87048841
0.096503571 -0.50064355 1.241331
-0.064977206 0.24284442 1.0547514
0.66567838 -0.053242777 0.55970705
-0.13173762 0.2574085 1.0489043
-0.01576132 0.0052141086 0.99977875
0.67281252 0.11190823 0.55984676
-0.66870886 -0.1568002 0.57741481
-0.025553305 -0.23221719 1.0532719
-0.10313828 -0.68220776 1.4547698
-0.049364183 -0.059605535 1.001116
0.55121982 0.23560591 0.75166684
-0.63262284 -0.1097668 0.61183715
-0.45946643 -0.14672644 0.81041926
-0.29584375 0.6186251 1.2951734
-0.097509734 -0.14075705 1.0103045
0.57070923 -0.36075473 0.80443501
0.16276516 0.37509418 1.1142032
-0.33600572 -0.11524168 0.90038079
0.052934028 -0.25280994 1.0611109
0.44880173 0.098817609 0.80834192
0.089689486 -0.095255919 1.0010295
0.12522879 -0.64869958 1.405129
-0.67699325 -0.13037525 0.55867785
-0.49483791 -0.052472524 0.75788879
0.32559845 0.019422546 0.89436293
0.029089252 0.1557892 1.0234241
0.21360351 -0.44211933 1.149843
-0.60815448 0.17903234 0.66220069
-0.4473882 -0.0044472902 0.79986358
0.26873544 -0.17951012 0.96000516
-0.12602533 -0.35425285 1.1096127
-0.21452253 -0.13433661 0.97202641
0.29498342 0.034350365 0.91416472
0.38147941 0.13082512 0.87158865
0.18500577 0.022779426 0.96629179
0.22921047 0.04867341 0.94983166
0.22834761 0.30531731 1.0410761
-0.16871515 0.55994397 1.2850724
-0.17663063 0.33841291 1.0833249
0.55029774 -0.24029154 0.75491244
0.31737873 -0.060296208 0.90290636
-0.35426989 0.22541302 0.92530388
0.23410229 -0.16330351 0.97186416
0.34420085 0.56228149 1.1976862
-0.09462098 -0.1139045 1.004021
-0.55782169 -0.22004825 0.73725623
0.2338172 -0.20508723 0.98739028
0.043867454 0.20051971 1.0382838
-0.12958431 0.49857068 1.2317806
-0.15867759 -0.54814279 1.2752819
-0.31062689 0.39851332 1.0623238
0.21453564 0.65576458 1.3840016
-0.6533013 -0.22188203 0.62242913
0.10746457 0.23310725 1.0427904
-0.089820705 0.22833604 1.0440696
0.11684375 0.51832604 1.2550094
-0.083210275 0.63241988 1.3930309
0.32286844 0.15570636 0.92000043
-0.46176976 0.032633618 0.78783363
-0.23862806 -0.12831603 0.95952165
-0.094854355 0.27457082 1.0663918
-0.37490812 0.086958095 0.86700559
-0.13495921 0.5673967 1.303725
0.56033951 0.36654416 0.82037425
0.38829854 -0.13226183 0.86671746
0.42772454 -0.36482236 0.95014709
-0.18213476 -0.041680403 0.96856421
0.065178432 -0.17650735 1.0269066
-0.023351857 -0.013522703 0.99963754
0.22222555 -0.047357574 0.95285857
0.29646397 0.22485262 0.96266782
0.29633042 0.5635643 1.229793
0.16469815 -0.45017615 1.1755331
-0.52639419 -0.16366197 0.74969441
-0.2646291 0.035857745 0.93125725
-0.38716522 0.20332003 0.89144212
-0.022345053 0.23927495 1.0567532
0.6686362 -0.12821637 0.56936502
-0.12224089 -0.054007784 0.98797399
0.47307652 0.5013811 1.0275816
0.023681436 -0.028849598 1.0002714
0.26715544 -0.59578103 1.283583
0.50595701 0.38997531 0.89608824
-0.56982625 0.060695931 0.67898214
-0.52246457 -0.43742189 0.9183687
-0.47078797 -0.26361108 0.84784949
-0.32737514 -0.35299104 1.0174282
0.57497364 0.35635287 0.79639268
0.62769991 -0.0052583031 0.60602045
-0.080248453 -0.68354112 1.4607886
0.025805477 -0.32075897 1.1022204
-0.0032777463 0.059656434 1.0035481
0.43886676 0.11622456 0.82090414
-0.57137096 -0.31216282 0.77098089
-0.13792777 0.52856356 1.2603555
0.22651024 0.21643011 0.99553508
-0.019558473 -0.13110347 1.0168055
-0.33547226 -0.097954795 0.89705348
-0.056747679 -0.023236878 0.99731964
-0.35389885 -0.042432956 0.87655616
-0.21166363 0.029419096 0.95606399
0.17571925 -0.15103336 0.99193382
0.032623678 -0.04237308 1.0007312
-0.29462066 -0.087240942 0.92080963
-0.40329999 -0.3404592 0.95326161
-0.3079868 0.55753404 1.2159884
-0.60296047 0.27609962 0.71266973
-0.56112343 0.39722505 0.84292817
0.016490202 -0.03643484 1.0010556
0.20152664 0.11124542 0.97176254
-0.14859016 -0.38048247 1.1226878
-0.034694329 0.66586965 1.4421787
0.25435692 0.30794582 1.0301331
0.0065786014 0.5556522 1.308706
0.22670224 -0.40139353 1.1097229
0.40281728 -0.40398693 1.0009437
0.31565034 -0.34759989 1.0211905
-0.46190172 0.25827774 0.85335422
-0.0061988528 -0.076168552 1.0057632
-0.54685622 -0.27801964 0.77824318
0.088582434 -0.060053166 0.99575955
-0.064682253 -0.12413618 1.0112259
0.043950517 0.043939602 0.99999905
-0.017431289 0.042548407 1.0015066
0.019795554 0.13416561 1.0176085
0.039933782 -0.13049367 1.0154339
-0.037962895 -0.078659482 1.0047461
-0.12704098 -0.058288395 0.98725814
-0.10224672 0.024510063 0.99014634
-0.036063675 0.085150138 1.00595
0.079283617 0.10248969 1.0042182
0.033070538 0.023088114 0.99943942
0.072802916 0.019897906 0.99509567
-0.0019379982 -0.0024680709 1.0000024
-0.0025141039 0.0019851865 0.99999762
0.00069014018 0.11295064 1.0127574
-0.007202561 -0.032939296 1.0010331
0.017946245 -0.064726599 1.0038675
0.041128039 0.019034563 0.99867082
0.10602784 -0.036495857 0.99009007
-0.099441916 -0.015801739 0.99036098
-0.01357958 -0.082425073 1.0066094
0.10760295 -0.028391283 0.98922765
-0.053563863 -0.12475073 1.0126936
-0.00031902976 -0.00013312134 0.99999994
-0.064661078 -0.090376034 1.0039867
-0.071360298 -0.069432639 0.99972862
-0.091121204 -0.08043956 0.99816746
-0.092932515 -0.041559689 0.99309075
-0.0081055807 -0.015289796 1.0001681
-0.00040293712 0.034197874 1.0011693
-0.00083562505 0.014195268 1.0002007
0.012780112 -0.019055944 1.0001998
0.013540838 -0.035276163 1.0010611
0.053475682 0.081224464 1.0037378
0.030196449 0.11369164 1.0120139
-0.029382208 -1.365583e-05 0.99913669
0.10468198 -0.091206118 0.99736023
0.02120861 0.13483649 1.0177311
0.063225351 -0.058989979 0.99948239
-0.12582539 -0.059787545 0.98774254
-0.079908222 0.0019040657 0.99361831
-0.0089390269 0.047125474 1.0021409
0.040911514 -0.050282754 1.0008546
-0.095679052 0.10128557 1.0011042
0.045735676 -0.12145977 1.0126607
-0.027827654 0.008548175 0.99929869
-0.094896071 -0.060188908 0.99461746
0.097414874 0.09042348 0.99868673
0.026835185 0.10343506 1.0099787
0.076911733 0.11144922 1.0065055
0.11982132 -0.031707179 0.9866482
-0.038885873 0.05283669 1.0012796
0.10317395 0.088626847 0.99720985
-0.0024841218 0.0014451111 0.99999595
-0.0038339782 0.0043913769 1.0000045
-0.058694284 -0.0093485927 0.99664235
0.034205869 0.072882541 1.0041418
0.016782667 -0.003010452 0.99972743
-0.071294561 -0.10041519 1.0050004
-0.12563513 -0.059103861 0.98770911
0.0096653448 -0.0021879959 0.99991137
-0.13615233 -0.02220319 0.98195553
-0.052930906 0.1140798 1.0102125
0.13334787 -0.04073086 0.98387736
0.040520273 -0.021873435 0.99883658
0.048689824 -0.016833937 0.9979127
0.0075149015 -0.112492 1.0125979
-0.0085365791 -0.053479847 1.0027872
0.042189196 -0.042644743 1.0000386
0.063941211 -0.070685484 1.000908
0.0917757 0.09493576 1.00059
0.093747266 0.067051575 0.99570739
0.01003617 0.029101597 1.0007461
-0.036540356 0.052538667 1.0014251
-0.030916842 0.018868536 0.9994002
-0.046190877 0.12123512 1.0125643
0.064845674 -0.026027404 0.99647248
0.092409484 -0.042154439 0.9932375
-0.049154673 0.0066901403 0.99762857
0.030773355 -0.12949963 1.0158231
0.10364656 -0.0056154681 0.98928893
-0.018274151 0.096658081 1.0090089
0.0019589507 0.00040121406 0.9999963
-0.028619535 -0.028825395 1.0000118
0.085437275 0.11085978 1.0049903
0.065101869 0.083574638 1.0027465
0.072632805 -0.064216249 0.9988482
-0.031113347 -0.017371954 0.99933374
-0.012338376 0.028982067 1.0006877
0.096072704 -0.044616777 0.99276072
0.053375334 -0.079109646 1.0034094
0.06978105 0.053571738 0.99800056
0.014228711 0.0069599585 0.99984598
0.13340597 0.036144339 0.98350924
0.062873811 -0.034156747 0.99721354
0.036311515 -0.011655799 0.99881732
-0.085428126 -0.035949524 0.99399441
-0.068668842 -0.114765 1.0084556
0.010507236 0.1100549 1.0120016
-0.1302164 -0.0015089149 0.98304594
0.02532571 -0.12284528 1.0144496
-0.069006957 -0.099564493 1.0051512
0.072498433 -0.059969809 0.99834037
-0.00049670844 -0.083728246 1.0070102
0.061874367 0.10075706 1.0063236
0.0027195243 -0.0012607202 0.99999422
0.013441748 -0.0075443285 0.99987626
0.00099660282 -0.0038281963 1.0000137
