ply
format ascii 1.0
comment PCL generated
element vertex 1395
property float x
property float y
property float z
element camera 0
property float view_px
property float view_py
property float view_pz
property float x_axisx
property float x_axisy
property float x_axisz
property float y_axisx
property float y_axisy
property float y_axisz
property float z_axisx
property float z_axisy
property float z_axisz
property float focal
property float scalex
property float scaley
property float centerx
property float centery
property int viewportx
property int viewporty
property float k1
property float k2
end_header
0.13424975 0.10915975 0.99389285
0.29734325 0.15797433 0.93654287
0.18497115 -0.25755009 1.0321177
-0.18147047 0.013449124 0.96724933
-0.23565164 -0.062004726 0.94831288
0.011368242 0.0039744014 0.99988657
-0.37422818 -0.052808624 0.86274207
0.27677667 0.25835299 0.99014091
-0.24933171 -0.30823761 1.0328441
0.083081782 -0.1376548 1.0120462
0.39773574 -0.04165116 0.84354109
0.39517257 0.053768989 0.84672976
0.16435614 0.1228339 0.98807526
0.063887738 -0.017499149 0.99622458
0.036264144 0.13518174 1.0169591
0.11655284 -0.314769 1.085495
-0.0055260654 -0.1422628 1.0202081
-0.25257143 -0.28800771 1.0191561
0.068350226 0.13520327 1.0136082
-0.29102796 0.10972893 0.92734313
-0.19739597 0.34786683 1.0820462
-0.047271959 -0.17014247 1.0267138
0.15982479 -0.13234444 0.99197108
0.00022407847 0.39802077 1.1584204
-0.072769843 0.078672782 1.000894
-0.18524069 -0.30593488 1.0592821
-0.27885234 -0.18458693 0.95631373
0.23377636 -0.228797 0.9976967
-0.19838868 -0.016767018 0.96092308
-0.0035331582 -0.30681393 1.0941223
-0.0729331 -0.38732126 1.1446985
0.38581261 0.095567368 0.86028177
-0.31669769 0.12822078 0.91614312
0.35061434 0.13159682 0.8943873
0.11811538 -0.38216314 1.1320975
-0.077088714 0.1387087 1.0132974
0.047125004 -0.0012127695 0.99778068
0.13973145 -0.013818406 0.98066604
0.17627087 -0.20251115 1.0099393
-0.23205845 0.13234742 0.96366471
-0.043117419 0.09080153 1.0063858
-0.092293762 -0.054570623 0.99445981
0.039181259 -0.39517 1.1546242
-0.23838253 -0.19427674 0.98091722
-0.10239445 0.3454532 1.1088533
0.020397786 0.00010948782 0.99958396
0.042067967 -0.026105201 0.99891174
-0.35392898 0.043722462 0.87664592
-0.090145499 -0.38685068 1.1415273
0.38993421 -0.088038549 0.8557021
0.3113943 0.074441433 0.90857512
-0.026358504 -0.032324556 1.0003501
-0.18398345 0.32025474 1.0687132
0.2026875 -0.11295553 0.97167671
0.22152762 -0.26895162 1.0232605
-0.19401152 0.091629729 0.97075552
-0.016102757 0.009191866 0.99982518
0.18093593 0.12104247 0.98191345
-0.31811151 0.047400288 0.90105182
-0.25501522 0.061520912 0.93875206
0.36972913 0.14549546 0.88446927
0.0086483089 -0.034995254 1.0011499
-0.29916713 -0.0050356165 0.91052437
-0.10936313 0.22626983 1.0392377
0.10901626 -0.29361707 1.0743264
-0.0265249 -0.18648453 1.0340729
-0.31918585 -0.17995352 0.93050367
0.075913094 -0.073861919 0.9996928
0.23873301 -0.0088909604 0.94308561
0.13548937 0.11451731 0.99475682
0.26627544 0.29393682 1.0154963
0.38606209 0.08362937 0.85794991
-0.14665706 -0.054068774 0.98141515
-0.0042476971 -0.040766638 1.0016439
0.11178427 -0.20195158 1.0282887
0.045841243 -0.1273445 1.0141152
-0.20720747 -0.32192796 1.0607027
0.1253114 -0.1487858 1.0064343
0.1413493 -0.16539356 1.0073754
-0.24825017 0.23936193 0.99566597
-0.12765817 0.024874447 0.98432213
-0.063695379 -0.0052382825 0.99597031
-0.3714619 0.061103117 0.86574966
0.38882902 -0.084930621 0.85602522
0.037439279 0.088804744 1.0064846
-0.14717454 0.30349177 1.070447
-0.26386124 -0.24440251 0.99010986
0.1428287 -0.15276438 1.002937
-0.37717897 0.038994249 0.85925663
0.087442003 0.3220143 1.0960472
0.004863725 -0.015318736 1.000211
0.11255538 0.38019732 1.1318812
-0.064244203 -0.050709099 0.99844408
-0.29093391 -0.27172524 0.98919207
2.6932028e-05 0.0031797492 1.0000101
0.20040505 0.23622608 1.0156406
0.28399655 0.21430245 0.96527147
0.046499558 -0.3855792 1.1465091
0.28603664 0.075987786 0.92395717
0.2520189 0.073327526 0.94186342
0.13952814 -0.3378745 1.094691
-0.37366244 -0.11412954 0.87340194
-0.065862589 -0.3807697 1.1406476
-0.18955961 -0.14965844 0.9864648
0.21875437 0.027579714 0.95290715
-0.21373764 -0.027558416 0.95507568
0.14156178 -0.26958081 1.0526341
-0.065571986 0.38571745 1.1444783
0.031967711 -0.12388017 1.0143243
0.03978597 -0.028074125 0.99920523
0.039611202 -0.031191355 0.99940383
0.00017776537 -0.004115833 1.0000169
-0.14369126 -0.37187371 1.1176429
-0.26650748 -0.13297279 0.94665551
-0.02536585 0.37163451 1.1374688
0.088350177 -0.022407649 0.99269634
0.39825961 -0.036013197 0.84268624
-0.3171778 -0.0088005709 0.89947569
0.1213446 -0.062329419 0.98916042
0.059732426 -0.035461549 0.99768955
0.3489666 -0.1779625 0.90989298
0.023519099 -0.28016251 1.0779378
0.027018724 0.042421192 1.0010695
0.024809625 0.057535451 1.0026948
0.09994299 -0.042136561 0.9917869
0.20274739 -0.014318335 0.95909852
0.19933264 0.20604239 1.00272
0.10028405 -0.19068106 1.0263023
-0.051555473 0.37719259 1.1396163
-0.37719736 -0.12674175 0.87378561
0.39673588 0.048694134 0.84497178
-0.0050322223 -0.0039359862 0.99999017
0.13452409 0.016742563 0.98218358
-0.015875157 -0.067949735 1.0043651
0.067055002 0.36183158 1.1264257
0.13529028 -0.11390505 0.99467093
0.32751128 0.13769867 0.91169727
0.2064499 -0.15463893 0.98129165
-0.036654763 -0.096242093 1.007919
0.17105059 0.32561141 1.0767645
0.093471527 0.17076834 1.0204248
-0.31139925 0.082212433 0.90978938
0.26149639 -0.17190155 0.96116978
0.15835163 0.14295936 0.99536216
-0.13374589 -0.31831652 1.0834374
-0.076362707 -0.30974504 1.0901107
0.141975 0.30432516 1.072457
-0.056788802 -0.22839785 1.0489407
-0.34891042 0.17166889 0.90773171
0.22014311 0.28167978 1.0308806
0.039182611 0.013522461 0.99864757
0.038853686 -0.13745306 1.0173837
-0.13096215 -0.3026292 1.0744333
-0.19720402 0.31371081 1.059525
0.061070722 -0.39500663 1.1523006
0.069091491 0.002460225 0.9952324
-0.18240689 -0.35320696 1.0914829
0.017903186 0.38652208 1.1490788
0.0012746305 -0.36166605 1.1308007
0.026200658 -0.39137769 1.15249
0.39233097 0.069687672 0.85093278
0.15129793 0.19101553 1.0135958
0.043167535 -0.17106639 1.0274003
-0.21138565 0.13651004 0.9739511
-0.072166383 0.38777688 1.1451629
0.22800313 -0.25982451 1.0155233
-0.30113822 -0.18117997 0.94214195
-0.28536209 0.095887244 0.92776281
-0.14543146 0.20016082 1.0189141
-0.090899304 -0.12231798 1.006699
-0.10955369 0.33674964 1.1013983
0.029392047 0.013633423 0.999322
0.24415119 0.22507548 0.99104917
-0.15018821 -0.05488592 0.98045599
-0.15918329 -0.29508966 1.0617386
-0.11238664 0.30405867 1.0798209
0.094797552 -0.38347918 1.1380696
0.3246918 -0.21255493 0.93975484
-0.11226662 0.31599593 1.0872496
0.10655493 -0.37129131 1.1265032
0.23974903 -0.25644204 1.0082829
0.34198552 -0.19996922 0.9230336
-0.15003808 0.33179772 1.0875783
-0.049687993 -0.34223849 1.1146582
0.21368757 0.30170557 1.0453639
0.10317387 -0.38176069 1.1350963
0.16616982 0.030928656 0.97334415
-0.1602184 0.080160193 0.98075569
0.010570474 0.020082327 1.0002916
0.18704951 0.019955432 0.96541071
-0.10164545 0.32435742 1.0948759
-0.10386898 -0.029046193 0.99005491
0.056917854 -0.39117917 1.1497815
-0.049076241 -0.082762256 1.0044411
0.043872632 -0.39430034 1.153548
-0.19288515 -0.30795082 1.057629
0.28580555 0.26305255 0.98751181
0.32672587 0.21649006 0.94011819
0.19954906 -0.077666633 0.96621227
0.091510989 0.06969253 0.99648279
0.043246787 0.12138145 1.0128632
-0.24937318 -0.072154135 0.94301927
0.0015387808 -0.036367383 1.0013202
-0.061103262 0.062946141 1.0002286
0.35982579 -0.10964705 0.88254786
0.042255219 -0.28079584 1.0770608
-0.077747181 -0.3266882 1.1006806
-0.21020257 0.33984876 1.0713121
0.0004291122 -0.0037120034 1.0000136
-0.36658415 -0.15356919 0.88919955
-0.25165683 0.060807165 0.94036633
0.17960545 0.34304929 1.0854247
0.093218103 -0.28200278 1.0708359
0.28849962 0.030326579 0.91768765
0.12626059 0.076351546 0.98988783
0.15703879 -0.26713064 1.0466976
0.36979404 0.03696375 0.86461866
-0.26183179 -0.011362233 0.93157321
-0.087171212 0.1193436 1.0066441
-0.096450113 -0.31145483 1.0877016
-0.047725547 0.39599571 1.1545349
-0.021403709 -0.0076427939 0.99960029
0.035413206 -0.12741537 1.0149806
-0.38451743 0.079086162 0.85840094
0.030694932 -0.023588318 0.99961424
0.2953347 0.20733301 0.95576441
-0.0093169399 0.30044264 1.090179
0.064580105 -0.026200945 0.99651593
-0.054446071 -0.012900029 0.99720204
0.10881954 -0.353874 1.1133851
0.32555217 0.1673872 0.92203426
0.094005838 -0.063305371 0.99517047
0.3840082 0.027732974 0.85330677
0.23834102 -0.27369899 1.0181047
-0.10235925 0.37774983 1.1322175
-0.19942768 -0.3382096 1.0746143
0.15703626 0.81735963 1.6434164
0.14859715 -0.24999578 1.0404168
0.79441041 0.054113895 0.37184042
0.10952591 0.0056846845 0.98803639
-0.76641434 0.027784653 0.4133811
-0.16327851 0.54146951 1.2665293
-0.25401789 0.70700014 1.4353242
-0.19633557 0.5804311 1.2983527
0.11466809 0.15748914 1.011654
-0.27290744 0.45615372 1.1335977
0.39942968 -0.71402788 1.3502917
0.15671606 -0.56070697 1.2898324
-0.10095465 0.38048813 1.1345794
-0.35439822 -0.081245527 0.88100272
0.10804501 -0.22789696 1.0402633
0.085591264 -0.062418964 0.99657029
-0.39540583 -0.47906318 1.0731558
0.42857176 0.61212069 1.191018
0.27512321 0.30002332 1.0143212
-0.27308306 -0.72521245 1.4513588
-0.027829545 -0.0048167426 0.99924874
-0.32735145 0.26734433 0.96431398
-0.37596127 0.57904416 1.1939452
0.70212531 0.46056023 0.71913582
-0.6023677 -0.55449319 0.9446159
-0.12147802 0.82054561 1.6585383
0.10759865 -0.13789773 1.0074383
-0.13022253 -0.35022482 1.1056995
0.096873447 0.54539943 1.288076
0.11173603 0.0029790653 0.98752391
-0.1151104 0.22149323 1.0358088
0.07667625 0.043883715 0.99604654
-0.36365476 -0.43415958 1.0562497
-0.4096092 -0.37254819 0.97101247
-0.55326545 0.42056531 0.87077248
-0.1588601 0.12000544 0.98916477
-0.1586269 0.49408251 1.218955
0.028619312 -0.75827992 1.5741694
-0.3823528 0.045969855 0.8559196
0.17353684 0.19091931 1.0063351
-0.13372272 0.79241681 1.6100426
-0.32269531 -0.10253654 0.90638149
-0.57097125 0.098741256 0.68374163
-0.12373257 0.67637181 1.4421691
-0.64189649 0.11611146 0.6014508
-0.039882705 -0.49682799 1.2452474
0.17356938 0.41532177 1.1423658
0.039063469 -0.4348363 1.1875567
0.73556733 0.26743475 0.53046203
-0.68113798 -0.47514558 0.76181436
-0.0056792465 -0.014851928 1.0001884
-0.0162964 0.016115978 0.99999416
0.067563862 -0.33135772 1.1052331
-0.41596162 -0.45661044 1.0354691
0.5610131 -0.06983006 0.69014049
-0.3935664 0.46172759 1.0582979
0.11006365 0.20313159 1.0291485
-0.57921845 0.48557106 0.90028524
0.41328064 0.59690797 1.1854982
-0.40950873 0.65905648 1.2666581
0.18859945 -0.060236797 0.96805871
-0.31187296 0.16403599 0.92964309
0.36950976 -0.28395098 0.94409072
0.1249235 -0.028896641 0.98522913
-0.74861652 -0.34608197 0.55934614
-0.50386083 0.35046342 0.86894894
-0.50568455 -0.18111248 0.77708489
-0.0096760467 0.73186266 1.5355294
0.25276166 -0.15807442 0.96109909
-0.22779033 -0.16488464 0.97529852
-0.058957927 -0.080622233 1.0030239
0.26793075 0.3603327 1.0580528
0.58384717 -0.59592599 1.0142502
-0.069343492 0.01586855 0.99544328
0.13626142 0.46858728 1.2010069
-0.22778837 -0.32249373 1.0521147
0.14171951 -0.13575798 0.99834579
-0.14789858 0.52689731 1.2557467
-0.046743412 0.60576993 1.3647723
-0.065522365 -0.41983894 1.1719716
0.13712625 -0.30048743 1.0714891
0.64824837 0.42271295 0.75846034
0.6202696 -0.40578377 0.77992618
-0.1136094 -0.43816736 1.1790836
0.093076549 0.68749756 1.4639896
-0.077698842 -0.30413723 1.0864624
-0.048453998 0.35812935 1.1259089
-0.11718369 -0.34991229 1.1087066
-0.32579592 0.25063586 0.95667535
0.37686035 0.70385933 1.3533943
0.43103597 -0.095082365 0.82324862
0.015796535 -0.39539188 1.1560853
0.10560493 -0.077796832 0.99489993
-0.30049998 -0.27517733 0.98542231
-0.26074725 0.69289523 1.4121146
0.32211027 -0.015430279 0.89648306
-0.21659692 0.038504168 0.95456833
-0.78077018 0.0083675133 0.39046788
-0.4597201 0.22193629 0.83791316
0.23461257 0.70169502 1.4373329
-0.23590247 -0.025682183 0.94500959
-0.50509608 -0.11320581 0.75769353
0.060942184 -0.55939889 1.3092132
0.3759191 -0.16707937 0.88660038
-0.21687086 0.16513763 0.98023748
0.064582743 -0.75939983 1.5725172
0.75651503 -0.36130658 0.55822754
0.11862624 0.41544363 1.1585212
-0.39997244 -0.18749669 0.87517703
0.31572634 -0.021374332 0.90077376
0.024119321 0.042040009 1.0011857
0.76097107 0.011815289 0.42106253
0.76886141 0.33830178 0.52330029
0.83395624 0.099487245 0.31441468
-0.13615887 -0.51265109 1.244272
0.31788692 0.44566846 1.0975683
0.49060854 0.49919704 1.0085011
0.27429616 0.025239853 0.92539865
0.11968379 -0.065659232 0.9899869
0.66032869 0.24505919 0.62402004
0.42501959 0.14772375 0.84118062
-0.020263897 -0.041984383 1.0013521
-0.16007155 0.25251889 1.0381429
0.087060377 -0.21844096 1.0401369
-0.12930505 -0.47738561 1.2111772
0.073537871 -0.31292561 1.0925146
0.1006876 -0.50658691 1.2464923
-0.38640487 -0.034326546 0.85186958
-0.20763221 0.80927914 1.6118217
-0.001932915 0.0029797056 1.0000051
0.0028599876 -0.83979064 1.7052401
0.050346814 0.31273335 1.0952673
0.24594057 0.51806366 1.2079031
0.033332758 -0.25640899 1.0646346
0.16677624 0.40077591 1.132807
-0.49786189 0.28954875 0.83597201
-0.14806534 -0.1964131 1.0166547
0.0057825786 0.033509277 1.0010895
0.086582594 -0.0116244 0.99263859
0.55764502 -0.42256376 0.86759222
0.34992629 -0.61110425 1.2509999
-0.7283988 -0.29722956 0.55778074
-0.1951545 0.033760853 0.96305454
-0.5529328 0.137569 0.7131905
-0.37825644 -0.30799842 0.95178509
0.054158486 -0.75733745 1.570627
-0.010503505 0.035524301 1.0011517
0.072378829 0.83432055 1.6908522
0.0027902771 0.017730488 1.0003066
-0.7207157 -0.36614278 0.61462939
0.011987396 -0.020582967 1.0002799
-0.4805398 -0.68717086 1.2412853
0.27468452 0.16377169 0.95136958
-0.16525342 0.03342453 0.97380853
0.64342707 -0.4149307 0.75816905
0.0037782895 -0.60940868 1.3713646
0.66637892 0.20989129 0.59999347
-0.51618755 0.66029954 1.1695459
-0.34936967 0.29494271 0.96493202
-0.0015809432 0.0072855828 1.0000505
-0.087205812 -0.081448197 0.99902898
-0.1369656 0.1732257 1.0112475
0.78908622 0.15736447 0.40210646
-0.46818623 0.38467529 0.92877674
-0.074005261 -0.053419922 0.99737692
-0.40090454 -0.71726793 1.3537488
0.68507069 -0.19289462 0.56788659
0.094713062 -0.056359284 0.99420583
0.25416046 0.7413516 1.4850047
0.21621998 0.1703686 0.98227435
-0.004943586 -0.36429784 1.1326885
0.28928983 -0.40950951 1.0840094
0.24185514 0.43893021 1.1341659
-0.34086773 0.75235319 1.4498446
0.79101443 0.10133082 0.38456416
-0.71457821 -0.25946721 0.55670112
-0.1382746 -0.18316686 1.0144303
-0.6691522 -0.2417133 0.61066067
-0.14253013 -0.0041389731 0.97970229
0.24764882 -0.1073536 0.95019484
0.67466742 -0.42194498 0.72286147
-0.33054012 -0.079515032 0.89706588
0.74127471 -0.37454173 0.59079325
0.26643616 -0.17084746 0.95820063
0.020752773 -0.035116412 1.0008025
0.10553136 0.80485862 1.6366606
0.14042042 -0.1446096 1.001194
-0.081140459 0.076972723 0.99934101
-0.13085741 0.67172438 1.43409
-0.54897857 -0.4029105 0.86095941
-0.11904108 0.37753534 1.1283622
0.13283698 -0.051875684 0.98504543
0.76417649 0.34859437 0.53755236
-0.58175409 -0.57528883 0.9925195
-0.77068043 0.2961053 0.49373007
-0.33335939 -0.67364413 1.3426678
0.27299216 0.4473207 1.1255711
0.043071162 0.22605217 1.0492444
-0.16609611 -0.28732046 1.0549651
0.20222183 0.81528527 1.6237965
0.50691611 0.65139222 1.1673479
0.039626881 0.023206746 0.99896824
-0.82933789 -0.092561506 0.32076621
0.46250799 0.1828443 0.81951845
0.3923465 0.62178838 1.232685
0.67637384 0.48630279 0.77900887
0.042905446 -0.096012138 1.0073775
-0.24528553 0.16732289 0.96783197
-0.074062243 -0.01698035 0.99480313
-0.057277307 0.015578935 0.99696201
-0.29352015 -0.1807397 0.94651276
-0.2860834 0.51918226 1.1877065
-0.48353291 0.6740908 1.2205943
0.021841614 -0.03491671 1.0007421
-0.056641664 -0.11934832 1.0110358
-0.43808711 -0.047366403 0.81032324
-0.79636335 0.045963753 0.36791807
0.012231963 -0.018843535 1.0002055
0.23466112 0.10149827 0.95523608
0.19093706 -0.5118531 1.2255366
-0.22593273 -0.093149871 0.95763129
-0.31249741 -0.71483696 1.4133373
0.21890888 -0.077276684 0.95805061
-0.074320592 0.83533663 1.6922638
0.47513035 0.43487015 0.96336317
-0.64870411 0.16939402 0.60787737
0.3198958 -0.40471643 1.061462
-0.48657241 0.13660003 0.78190684
-0.35918266 0.56839967 1.194066
0.0091293333 0.049725037 1.0023892
-0.3481161 0.50759548 1.1364683
0.22854242 -0.34369561 1.0658951
-0.3750605 0.59344798 1.2115102
0.45118994 -0.66378903 1.2370436
-0.63849807 -0.38623899 0.74150085
-0.25905573 -0.27607056 1.0091051
-0.65544862 -0.24943185 0.63260341
-0.8270219 -0.14673345 0.33756536
-0.41969216 0.2906608 0.90834218
0.8347044 -0.075074479 0.30890483
-0.82435828 -0.072319321 0.32566351
0.10931745 0.76352668 1.5710225
0.068102419 0.70049882 1.4860607
-0.72612733 -0.37499166 0.61335778
0.49592319 -0.065144494 0.75830394
-0.59616232 -0.39665499 0.80192566
-0.80343908 -0.18072514 0.38714725
0.16998096 0.27307445 1.0456761
0.012172509 0.011701983 0.99998879
-0.12316034 0.65474904 1.4135278
-0.12823908 -0.19720949 1.0224463
0.32921708 -0.41213951 1.061475
0.1272551 0.77560675 1.585372
-0.14502369 -0.75956756 1.5559111
0.29583409 0.60185051 1.2747061
0.40984389 0.55874258 1.1442213
0.45407724 0.63138235 1.1924576
0.7279523 0.29669818 0.55811512
0.70850778 0.28284088 0.57801569
0.10105429 -0.026207821 0.99047488
-0.75906348 0.3316673 0.53382581
-0.0527132 0.060133319 1.0008373
0.83552283 -0.053173725 0.30472898
0.16172425 -0.23936431 1.0311406
-0.31283578 -0.064446472 0.90628713
0.20209312 -0.42809272 1.1424217
0.69676816 0.15028772 0.53710043
-0.50693047 0.33673292 0.85641056
0.30056399 0.12491331 0.9252646
0.4328295 -0.37848967 0.95591307
0.045492928 -0.079928026 1.0043188
0.040419288 -0.018651333 0.99871415
-0.016165363 0.010037427 0.99983943
-0.56690323 0.6154514 1.0574012
-0.49232912 -0.5259636 1.0342498
-0.16909003 -0.012428497 0.97156304
0.23369515 -0.21634035 0.99218971
0.32345411 0.070901476 0.90040445
-0.25479448 0.17987937 0.96743637
0.17063349 -0.018547429 0.97122824
0.48729751 0.0094069773 0.76262963
0.068639264 0.068699464 1.0000082
-0.82951599 0.10249559 0.3224085
-0.2312557 0.7995314 1.5857713
-0.24551316 -0.37844563 1.0829444
0.17335902 -0.8215549 1.6448991
0.14175022 0.64125013 1.3911086
-0.76368928 0.12644482 0.43276691
-0.10636013 -0.3847889 1.13675
0.59557271 0.42675245 0.82741082
0.37857655 0.69312614 1.3371036
-0.11062577 0.078241542 0.99388367
-0.82046771 0.067904525 0.33144379
0.25368983 -0.13413745 0.95363432
-0.098134875 0.22567648 1.0412995
0.31505013 -0.63281107 1.3011932
-0.034970179 -0.13047718 1.0158014
-0.28827134 0.37049624 1.0541672
-0.74268579 0.092209049 0.45692033
-0.040294677 -0.35236716 1.1225389
0.40654579 -0.73400235 1.3734801
-0.082860887 -0.087695718 1.0008246
0.034823462 0.26581091 1.0694427
-0.077784799 -0.14761975 1.0157411
0.52023208 -0.18453002 0.76340991
-0.044450805 0.29653317 1.0859561
-0.52871251 0.48169586 0.95249397
0.16570449 0.29160753 1.057577
0.17927788 0.15229851 0.9910543
0.042544819 -0.81711584 1.6658683
0.81212109 -0.021914203 0.34093946
-0.018122431 -0.67302555 1.4526349
-0.25720367 -0.049712367 0.93631762
0.022120733 -0.017656701 0.99982244
0.0048808865 -0.7763809 1.6027436
0.47980499 0.65584224 1.1999161
0.34354186 0.41337559 1.0528584
-0.53610295 -0.5523898 1.0177281
0.50252253 -0.45794064 0.9571808
-0.14693192 0.40606403 1.1432991
0.73245937 0.35579714 0.59009492
0.7810204 -0.28496572 0.47121257
-0.0084550269 0.28956684 1.0837774
-0.34249783 0.68677467 1.3543547
0.062952615 0.20428807 1.0377706
0.13392873 -0.47107345 1.2039733
-0.43008313 -0.71390069 1.3246827
0.39297292 -0.27743784 0.92254406
-0.31971321 -0.39021319 1.0500498
0.22179939 0.76019979 1.5287087
-0.65943217 0.36461571 0.69809377
0.81386113 -0.1380545 0.35668904
0.53440708 0.59312391 1.0662051
0.037179075 -0.018021531 0.99894249
0.45659485 -0.32808313 0.89915967
0.039840378 -0.059588756 1.0019636
0.19810013 -0.47945163 1.1906302
-0.15746294 0.077542007 0.98121816
0.47973984 -0.34767357 0.89072657
-0.24339128 0.10763916 0.95234686
0.27369767 -0.47840485 1.1539607
-0.26330572 0.79760915 1.5668504
0.055221107 -0.49686909 1.2438295
-0.29414135 -0.74980474 1.4756881
0.27126804 -0.003654201 0.92642701
0.25149611 -0.77199042 1.532719
0.0013316561 0.54877776 1.3011553
0.77542537 -0.11421437 0.41176039
-0.17376551 0.17592135 1.0007539
-0.5131284 0.37996367 0.88107163
0.37412062 0.44259197 1.0559214
0.0019065121 0.12964004 1.0168029
0.70336175 0.13631091 0.52386284
0.1804285 0.020122785 0.96785051
-0.74123251 0.3739754 0.59043187
0.59605569 0.12645984 0.66070968
-0.31334138 -0.65752143 1.3341516
0.024707239 -0.82794333 1.6848795
-0.80542606 -0.19031104 0.3875072
0.51262939 -0.65910399 1.1716292
-0.038519517 -0.056933623 1.0017577
-0.37841508 -0.24075861 0.91476673
0.035055693 -0.016771322 0.99905241
0.074596308 -0.21685666 1.0414622
-0.07682088 0.080140829 1.0005211
0.42425573 -0.074918404 0.82561982
-0.050270915 0.09828876 1.0071335
-6.845333e-05 -8.7625987e-05 1
0.416392 -0.16325723 0.85327065
-0.38734376 0.19519246 0.88806492
-0.29930037 -0.24252442 0.96923739
0.074643455 0.035791144 0.99570936
-0.4257217 0.17229415 0.84844625
-0.16250968 0.021222517 0.97404099
-0.014258002 0.014583347 1.0000094
0.0065411185 0.040659014 1.0016104
0.24717557 -0.053016841 0.941715
-0.1431942 0.039419319 0.9810493
0.079037398 -0.32585287 1.0999331
-0.028768199 -0.21910109 1.0471777
-0.1939418 0.31621501 1.0623785
0.058997251 -0.39677048 1.1539462
-0.31598634 -0.31305021 0.99815309
-0.23446609 -0.3846817 1.0930057
0.12625892 -0.0055119274 0.98408908
0.42078999 -0.11731891 0.83669949
0.0057053305 -0.039839834 1.0015546
-0.27287924 -0.07713297 0.93148643
-0.032081936 -0.0095139407 0.99906129
0.09547624 0.065305434 0.99514908
0.37784517 0.090194836 0.86536813
0.005013396 -0.0017121567 0.99997783
0.29095384 0.32954794 1.0239477
0.089019082 -0.065519296 0.99636841
-0.21576852 -0.36402985 1.0859617
0.0030206912 0.0017170793 0.9999938
-0.096622683 0.17669378 1.0218848
-0.033719026 -0.057187114 1.0021334
-0.058545146 0.39016184 1.1487987
-0.33958361 -0.040058274 0.88628763
-0.39720577 0.22927637 0.89479524
0.17430368 -0.18987012 1.0056689
-0.44245526 -0.0091719814 0.80431747
-0.057467699 0.041338585 0.99840635
-0.42239037 0.18208984 0.85474306
0.44920808 -0.090765163 0.80645043
0.048626814 -0.10985745 1.0097041
-0.069449492 0.010472368 0.99528646
-0.18283115 0.38376781 1.1138505
0.014609878 -0.014800724 1.0000056
0.063035622 0.0013617063 0.99602836
0.3970592 -0.029973302 0.84324241
0.15482773 -0.37719092 1.1183014
-0.028174177 0.11906406 1.0133824
0.26189467 -0.030899614 0.93236595
-0.26203871 0.34919578 1.0532734
-0.057042569 0.28836018 1.0798978
-0.24600331 -0.15034804 0.96208692
-0.011590161 -0.012770159 1.0000287
0.04882944 -0.084294431 1.0047213
-0.26693046 0.026426386 0.92944646
-0.36070612 -0.093673274 0.8786658
-0.0048349984 -0.023513323 1.0005295
-0.00063610717 0.055474337 1.003077
-0.13773093 0.11131736 0.99342173
0.43034214 0.06563212 0.81911319
0.015205895 0.0086132297 0.99984294
-0.020402877 -0.14895532 1.0217714
-0.011224757 -0.01906565 1.0002375
0.40871301 -0.05238181 0.83569753
0.17148092 -0.35864115 1.0992178
0.13932633 0.040110473 0.98219705
-0.39807159 -0.13721149 0.86036599
0.19143841 -0.16570573 0.99080974
-0.25838664 -0.2425999 0.99209106
-0.0032146601 0.14798392 1.0218889
-0.27485976 -0.037958983 0.92589301
-0.25994772 0.1769046 0.96372247
0.15043943 -0.37641171 1.1190537
-0.047879655 0.26886889 1.069998
0.075867049 -0.36617649 1.1283294
-0.15531051 -0.10927793 0.98782033
-0.15429869 0.36134216 1.10676
0.0015872964 -0.029497642 1.0008676
-0.18279493 0.2831561 1.0467634
-0.15751587 -0.15984255 1.0007384
0.35727245 0.1693262 0.90102774
-0.03818218 0.42422083 1.1785054
-0.068203539 0.19838336 1.0347042
0.039949901 -0.10316473 1.0090469
0.061501931 -0.064882405 1.0004272
0.4278394 0.073202305 0.82231206
0.27807054 -0.35317063 1.0474063
-0.26875532 -0.29405802 1.0142407
0.10872868 0.06765791 0.99275565
0.12322038 -0.13288297 1.0024747
0.10725829 0.44471577 1.1862677
-0.041289993 -0.45653561 1.2067199
0.12136935 -0.44362065 1.1820687
-0.18749519 -0.0072010327 0.96489739
0.020413099 0.18457717 1.0336521
-0.10667463 0.35909361 1.1175687
0.14783299 -0.42691433 1.1604012
0.13418531 -0.067124419 0.98649997
-0.08258941 -0.33007434 1.102128
0.4378348 0.079100959 0.81455767
0.023303906 -0.076196417 1.0052629
0.40231502 -0.065514714 0.84243476
-0.43312594 0.034678593 0.81360453
-0.19047113 0.40438089 1.1272447
-0.25602189 -0.026892994 0.93517601
-0.32699066 0.11314977 0.90587997
-0.13950568 -0.20706351 1.0234134
-0.015840914 0.45363265 1.2055316
-0.13895072 -0.28061569 1.0594379
-0.11257451 -0.063632905 0.9913761
0.13538811 -0.10646754 0.99300539
0.088145174 0.36416602 1.1248473
-0.17926364 0.073483795 0.9732644
0.067569219 -0.19632524 1.033978
0.16281502 -0.16620177 1.0011142
-0.047633618 -0.39262033 1.1518817
0.27833092 -0.24039534 0.98032182
-0.19026315 0.37933403 1.1076943
-0.15603265 0.38314053 1.1224505
0.22471251 -0.073361114 0.95488614
0.2174736 -0.3779079 1.0955197
-0.43034244 -0.16168217 0.84094656
-0.22415972 -0.12210057 0.964661
0.30582446 -0.12804765 0.9228676
-0.4099085 -0.20697787 0.87481487
0.2317611 0.394719 1.1020899
-0.33960581 0.25795463 0.95120847
0.11576722 0.19676031 1.0253125
-0.045768682 -0.0046421308 0.99792677
0.43028504 -0.044059359 0.816796
0.10959169 -0.34229305 1.1051542
0.35673842 0.14137015 0.8927232
-0.37617472 0.20792124 0.9017238
0.31989175 0.1262745 0.91361451
0.013675593 0.0024392209 0.99981892
-0.1809139 -0.070836782 0.97228801
-0.13705668 0.091427669 0.98957449
-0.012092983 0.016655795 1.0001311
0.32570016 -0.15489244 0.91791105
0.023229668 0.45938084 1.2104912
0.15088025 -0.41406402 1.1486841
0.26880404 -0.04755953 0.93000627
0.042202447 -0.18788517 1.0335197
0.36320975 0.085812308 0.87544245
0.023533717 0.018397223 0.99978465
-0.049279246 -0.12608731 1.0134696
-0.030072497 -0.32310414 1.1034919
-0.18097851 -0.1162119 0.98075199
0.2711499 0.30675051 1.0205736
0.16994664 -0.14783654 0.9929738
-0.24214813 -0.38315913 1.0881752
0.094552562 0.01441853 0.99126768
-0.39259899 -0.16131395 0.87188828
0.435112 0.14873818 0.83280063
-0.19511239 -0.31121343 1.058785
0.45724207 -0.013893577 0.79112273
-0.014059183 -0.045037027 1.0018307
-0.22466356 -0.40096629 1.1103003
0.29053059 0.22472124 0.96609163
0.067230299 -0.27425322 1.0706949
-0.068023168 -0.45392722 1.2014228
0.34197211 0.30262759 0.97463852
0.046633665 0.3638812 1.1302348
-0.31177118 -0.2798551 0.98111761
-0.28609625 0.36018902 1.0478851
-0.024382219 -0.0042380127 0.99942344
0.42991734 -0.14589617 0.83645678
0.39749402 0.23106419 0.89538914
0.17037956 -0.086129218 0.97838902
0.44314873 0.003828373 0.80363387
-0.0045318091 0.0021113358 0.99998391
0.17576955 0.060636953 0.9727819
0.34389648 -0.079517215 0.88805819
-0.071954437 -0.067111731 0.99932653
-0.39552298 0.19460326 0.881432
-0.038667742 0.20986654 1.0425488
0.32922342 -0.28411794 0.97233492
-0.12330741 -0.10886138 0.99664611
0.24694455 0.18046974 0.97158772
-0.45258516 0.054567512 0.79814428
-0.0012018922 -0.011922868 1.0001407
-0.3818908 0.06193747 0.85799563
-0.4208073 -0.16589862 0.8504436
0.16399352 0.42924777 1.1573597
-0.089777663 -0.24665008 1.0527762
0.15855397 0.076636188 0.98073375
0.064740472 0.1630186 1.0223837
-0.01006477 0.2133086 1.0453993
0.098472141 -0.14273714 1.0106771
0.060331788 0.3429603 1.1139818
-0.099455304 0.44911599 1.1918138
-0.21141267 0.10456529 0.96623856
0.047962636 -0.036923803 0.99906296
-0.0013502173 0.0055830707 1.0000293
-0.045040093 0.3023077 1.0893613
-0.010442573 0.0031550413 0.99990088
0.017461309 -0.10208762 1.0101169
-0.14873864 -0.37218195 1.1163962
-0.16678867 0.014787261 0.97240019
0.10794231 -0.22208712 1.0376711
0.13451968 0.06822449 0.98655903
-0.11593955 0.31938642 1.0885657
0.44809902 0.05143404 0.8018527
-0.16564187 0.093510233 0.98130691
-0.38660288 0.15338126 0.87406403
0.22718461 0.26649269 1.0194055
0.28331646 0.35035774 1.0424824
0.042753987 -0.032760445 0.99924535
-0.19681054 -0.15575379 0.98552483
0.16550994 0.035233542 0.97384787
0.43917313 -0.13548768 0.82548386
0.26305526 -0.22427745 0.98110229
-0.38351017 0.22877485 0.90525788
0.12967032 0.057145815 0.98645127
-0.15309662 0.040812902 0.97822714
0.39994454 0.2221384 0.88938987
0.085330404 -0.42233527 1.1710858
0.079977393 -0.25838262 1.0603652
0.27403897 -0.090880468 0.93316191
-0.22186494 -0.37099639 1.0884143
0.1663295 -0.21038675 1.016597
0.0019162262 0.0016574729 0.99999905
-0.009107912 0.01014832 1.00002
0.038058899 0.0086589521 0.99862647
0.034590077 0.092670768 1.0073915
0.1224682 -0.16195057 1.0112295
-0.31438312 -0.11468387 0.91431564
0.030513898 -0.030570446 1.0000035
-0.03508652 0.077303641 1.0047448
0.20402002 -0.21619523 1.0051162
0.033529211 -0.061921511 1.0027101
-0.15815286 0.40249783 1.1369922
-0.079287216 0.12994812 1.0106001
-0.30481046 0.1917446 0.94385654
-0.047660265 0.095998563 1.0069442
-0.111587 -0.21951796 1.0357364
0.20260394 -0.19827193 0.99826342
0.13897185 0.28621799 1.0626075
0.085130289 -0.27314261 1.0673597
0.0026802935 0.012387997 1.0001463
-0.020192463 0.097046234 1.0090102
0.14610623 0.16943537 1.0073613
0.0061510066 -0.015587494 1.0002052
0.064398669 -0.16759379 1.0239404
0.37213427 -0.11444458 0.87461364
0.24007197 -0.16541396 0.96972722
-0.19595973 -0.20830467 1.0049906
-0.037041236 0.029784871 0.99951506
-0.11510734 0.24096031 1.0448122
-0.0085189547 0.41346854 1.1708837
0.073739573 -0.071279332 0.99964321
0.14395317 -0.28660056 1.0614173
-0.00063539902 -0.0030277777 1.0000088
0.45942369 -0.0070766681 0.78897995
0.060993291 0.27949315 1.0743963
-0.45962366 -0.01846843 0.78908718
-0.084698498 0.4055191 1.1572719
-0.068416804 0.11279794 1.0080426
-0.11414612 -0.16736174 1.0149806
0.08075881 0.42655733 1.1754291
0.078391291 -0.15642077 1.0183222
-0.34842077 0.29287556 0.96437907
-0.15305701 0.24883473 1.0384923
-0.3550671 0.19274241 0.91107696
-0.33964515 -0.19745819 0.92363089
-0.14916725 0.43159068 1.1640196
-0.14291225 -0.1073819 0.99110699
0.082445353 0.37925026 1.1370335
0.19677357 0.20740199 1.0042957
0.20649481 -0.3501741 1.0799818
-0.36230811 0.17857714 0.90062261
0.2014039 -0.30268899 1.0510571
0.24554828 -0.024258548 0.9402945
0.13494901 -0.39434385 1.1372958
-0.014947301 0.029164581 1.0006272
0.0048166569 0.207899 1.0431988
0.25297129 0.33427593 1.0477459
-0.36636138 -0.27728754 0.94266772
-0.029891264 0.017417729 0.99940991
0.00014266923 0.00018005137 1
-0.14529884 -0.42956525 1.1634145
-0.36176193 0.089614101 0.877159
-0.34972912 -0.17367768 0.90785348
-0.26925191 -0.25374258 0.9918887
0.35230243 -0.2886121 0.95917994
0.36962169 0.11379108 0.87632823
0.044285707 -0.14801158 1.0199462
0.28810742 0.050781935 0.91957289
0.21084875 0.1011495 0.965774
-0.3815577 0.21082327 0.89886016
0.24037237 -0.31830692 1.0435404
-0.00022655205 -6.7184897e-05 0.99999994
-0.065420538 0.19696257 1.0345144
-0.35542959 0.034730479 0.87487602
0.19703715 0.37474799 1.1016124
-0.037424263 -0.17739226 1.0300674
0.21829972 0.10979392 0.96439993
0.1943787 0.36266714 1.0937444
0.17217125 -0.22039814 1.0189323
-0.19350843 0.2660968 1.033362
0.0080706635 0.43632776 1.1903168
0.057411771 0.024498159 0.99730402
-0.031452931 0.12721959 1.0151955
0.18638602 -0.37199321 1.1036392
0.28133109 -0.14963335 0.94324297
0.011874821 -0.29835373 1.088874
0.31524014 -0.20128199 0.94113809
0.044173844 -0.27914631 1.0759714
-0.3191984 0.10103461 0.90832037
0.38225326 -0.18677078 0.88876581
0.31403241 -0.26879853 0.97363627
-0.055484954 0.0016674383 0.99692422
0.17593445 -0.35721865 1.0966523
-0.30174512 -0.24651332 0.96971869
-0.057001546 0.015060346 0.99697763
-0.32670397 0.16726503 0.92124212
-0.28560969 0.36023465 1.0481961
-0.0018870507 -0.41291896 1.1704985
-0.39134821 -0.21783701 0.89429957
0.45974925 0.014536988 0.78884196
0.1277035 -0.28626081 1.0656371
-0.061391205 0.34307295 1.1139302
0.070446789 0.029739734 0.99592173
0.42390692 -0.17733184 0.85174948
-0.072788566 0.17530221 1.0254327
0.1736806 0.20716687 1.0127531
-0.41903558 -0.024201417 0.82499486
0.20986368 0.33748752 1.0698551
-0.095818311 0.28817159 1.0738617
0.31424224 0.02056017 0.90167451
-0.057668932 -0.44676188 1.1962705
-0.12032589 0.026163271 0.98620617
0.25561011 -0.13233185 0.9521752
-0.053266875 -0.4568527 1.2058771
0.080920853 -0.32890323 1.1016291
0.434587 0.021444529 0.81159401
-0.3598949 0.0047052167 0.87049782
-0.22125702 0.39350396 1.1058908
-0.18261828 0.29102767 1.0513477
0.36260992 0.18845686 0.90403008
0.19298337 0.2136219 1.0083917
0.24758424 -0.33283722 1.0494827
0.011192617 -0.015524485 1.0001158
0.20675667 -0.03371894 0.95838863
0.0046579894 -0.02165129 1.000447
0.38880163 -0.2450804 0.9088977
-0.37278396 0.20567882 0.90333593
-0.32885748 -0.23752795 0.94827229
-0.33281118 -0.21595229 0.93587214
0.2481984 -0.34831473 1.0597208
0.18273407 0.082700334 0.97344762
0.4483273 -0.041868433 0.80075562
0.24139778 0.30096707 1.0323083
0.32050744 0.32889012 1.0054437
0.051755242 0.17143801 1.0267124
-0.084391765 -0.41723457 1.1669627
0.39669403 -0.036960259 0.84399986
-0.00023997016 0.0021131989 1.0000044
-0.21612713 0.36670589 1.0877622
0.074536845 -0.36351871 1.1265901
-0.16773833 0.30976093 1.0678157
-0.023862328 -0.35071933 1.1224346
0.089558519 -0.069434732 0.99680048
-0.083517067 0.27450874 1.06838
0.33957368 -0.15602839 0.90903455
-0.073857829 0.261823 1.0630963
-0.098647535 -0.16026944 1.015955
0.026404481 -0.012375891 0.99945599
0.42168194 -0.036195625 0.82349443
-0.22725011 -0.096740849 0.95771617
-0.32733467 -0.095695511 0.90200961
-0.34045565 -0.27553594 0.96000999
-0.10402158 -0.13031274 1.006161
-0.030504866 -0.0056093251 0.99910092
-0.10130595 0.35044211 1.1125468
-0.11843058 0.3895463 1.1377206
-0.039100029 -0.030968601 0.99943024
-0.20996721 0.38666335 1.1054224
0.29748037 0.27612281 0.98774922
-0.0096829981 -0.068873011 1.0046498
-0.009753664 0.0280916 1.000694
0.025178518 -0.040594321 1.001014
0.21423022 -0.19904168 0.99372298
0.16744629 -0.061161794 0.97570252
0.18616931 0.39850825 1.1241498
0.31280401 0.11691662 0.91582316
0.096426487 -0.36968052 1.1273656
-0.016740164 0.43007576 1.184685
-0.2656666 -0.070889048 0.93444651
-0.18343435 0.11490665 0.97955537
0.28744036 0.19870059 0.95686001
-0.34254211 0.087800585 0.89037383
-0.010078752 -0.27032045 1.0729716
0.051690195 0.17596468 1.0282917
-0.080072336 0.04706955 0.99580395
0.29141167 -0.17563803 0.94592798
0.29621628 -0.088434339 0.92007655
-0.088015229 -0.19987454 1.0322032
-0.40137279 -0.052326262 0.84163791
-0.10570917 -0.33899176 1.1037409
0.1977368 0.22877693 1.013239
-0.08942128 0.044305306 0.99396682
-0.32801133 0.16964051 0.92118645
-0.030435506 0.036526907 1.0004079
-0.28363347 0.057600182 0.9228698
0.13789004 -0.40838072 1.1477611
-0.31983271 0.041623536 0.89943957
-0.030743644 0.28247949 1.0788496
0.41584852 0.13839214 0.8462224
0.37435457 0.22655851 0.91118741
-0.00032981046 0.00022694546 0.99999994
0.15725553 0.36439702 1.1080558
0.0025637746 -0.17581476 1.0309043
0.11746643 0.31130961 1.0831153
-0.14320257 0.0023516032 0.97949857
0.39627782 -0.065245219 0.84722078
-0.23912521 -0.34383488 1.0610416
-0.098124705 -0.039651386 0.99194378
0.092656702 0.053853162 0.99431491
0.41851598 0.11550669 0.83818614
-0.072090648 -0.1932672 1.0321552
0.16909049 0.15151316 0.99436462
0.32214746 0.25502959 0.96126109
-0.16613494 0.12711661 0.98855782
0.26997101 -0.34661555 1.047258
-0.22744969 -0.22533786 0.99904382
-0.24656263 0.026500478 0.93990916
-0.21948938 -0.19920953 0.99150884
-0.10738797 -0.22294763 1.0381734
-0.23070356 -0.011945394 0.94691855
-0.12431847 -0.42136014 1.1620892
0.14579542 -0.3689523 1.1148695
0.30006817 -0.27105665 0.9834308
-0.041945722 0.01816877 0.99857068
-0.11634441 0.42323053 1.165588
-0.019384198 -0.0022976198 0.99962956
-0.1763802 0.36010772 1.0985676
0.23343988 0.36006784 1.0751547
0.43060824 0.05054535 0.8171314
-0.14515582 -0.088037178 0.98668033
0.26344448 0.062682964 0.93452615
0.29387963 0.3262836 1.0200957
0.30797607 0.039779313 0.90673316
0.01214129 -0.35656953 1.1269944
-0.30105457 -0.12024301 0.92382455
0.22992299 -0.23007353 1.0000693
-0.0094463574 -0.36775354 1.1351534
-0.2904909 -0.28129256 0.99474055
0.074084952 0.027123643 0.99524713
-0.32230201 -0.22159602 0.94522619
-0.15128705 -0.034004468 0.97826856
-0.096252769 0.16409916 1.017664
-0.00083293492 -0.43988922 1.1935018
-0.066976316 0.2849758 1.0767254
0.16279162 0.049957916 0.97599471
-0.072396986 -0.090028733 1.0028639
0.24591826 0.14446613 0.96039468
-0.11275536 -0.087126851 0.99487734
-0.39284343 -0.065065786 0.84990758
0.039338261 -0.11150181 1.0108851
-0.26527625 -0.26121366 0.99786109
-0.24015188 0.32442456 1.0475783
-0.023661196 0.027259853 1.0001832
0.42603359 -0.0035465765 0.81850797
0.41265655 0.08206138 0.83644867
0.04906607 -0.42764717 1.1804746
-0.035364684 -0.13483135 1.0169288
-0.38765642 0.20027149 0.88983119
-0.28635401 -0.19589952 0.95637798
0.056670584 0.39234051 1.1507195
-0.15145119 -0.088737987 0.98493695
-0.053596191 -0.37570399 1.138281
-0.23324291 -0.30029011 1.0357718
0.03364012 -0.22266322 1.0484473
-0.15146956 -0.39913273 1.136364
-0.017640358 0.36812413 1.1352042
-0.017634412 0.41406059 1.1711352
-0.16064088 -0.37594053 1.1155257
-0.31938085 -0.18322554 0.93156749
0.39895928 0.10289766 0.85141945
-0.045065723 0.24508625 1.0580363
0.0069392039 0.014884261 1.0001733
0.35294071 -0.22100028 0.92427397
-0.41573378 0.14382569 0.84785122
-0.15035883 0.34437358 1.0959854
0.080479451 0.10980111 1.0055794
-0.15992619 -0.044874325 0.97643733
-0.22296582 -0.10280181 0.96085447
0.098830737 0.37448657 1.1304727
-0.085301049 0.1038345 1.0035053
0.36036783 -0.19673613 0.90884012
0.047509577 0.22763126 1.0495589
0.0197431 0.13055646 1.0166552
0.073482633 -0.2373331 1.0509273
-0.18291754 -0.11191412 0.97906595
-0.15887876 0.083297104 0.98169595
-0.25276104 -0.33147457 1.0459872
0.26413244 -0.34297654 1.0478669
0.092311084 0.34499452 1.1104999
0.40405089 0.17103434 0.86599565
0.26981023 -0.041697983 0.92894119
-0.38979402 0.20239037 0.88902247
0.0087145725 0.0055186045 0.99995452
-0.093519166 -0.34243274 1.1085143
-0.046892446 0.07910943 1.0040594
0.097853377 0.30107626 1.0810716
-0.17108095 -0.38927639 1.1222675
-0.11174175 0.050140873 0.9900279
-0.12454921 0.26372722 1.0540396
-0.024202218 -0.12357885 1.014686
0.17288382 0.079526506 0.97643566
0.051462542 -0.33957046 1.1126597
-0.0099623846 -0.40457135 1.1635787
-0.008723909 0.062110759 1.0037817
0.3462196 -0.16339572 0.90683019
-0.12763998 0.017447058 0.98401242
-0.12686603 -0.040344927 0.9855327
-0.3548204 0.1820513 0.90724516
0.13999026 -0.10901675 0.9922874
0.26877964 -0.11107699 0.9400956
0.057911452 0.17502363 1.0272795
-0.15714425 0.014373088 0.97551227
-0.10506172 -0.037716411 0.99038458
0.045376252 -0.16204992 1.0242012
0.26062608 0.35407248 1.0574414
0.056678347 -0.27209267 1.070822
-0.24332485 -0.35823324 1.0691241
0.3818903 -0.17225429 0.88383138
0.1048081 0.24222861 1.0476899
-0.095644489 0.12236121 1.0058244
-0.21210282 -0.055467937 0.95808911
0.1213866 0.015524521 0.9855063
-0.037721787 -0.43175492 1.1849893
-0.054165907 -0.39970386 1.1568292
-0.33770105 -0.17722297 0.91736597
0.18237385 -0.2185405 1.0144998
0.1292247 -0.36755288 1.118396
-0.21436961 -0.3345435 1.0659651
-0.039640721 0.43335313 1.1862235
0.043231331 0.42165381 1.175923
0.022160152 -0.0048908088 0.99953282
-0.27771047 -0.30007663 1.0129229
-0.38658634 -0.19103995 0.88704729
0.30036962 0.040996343 0.91145879
0.047249999 -0.40490377 1.1617144
0.2534472 -0.26027924 1.0035098
0.035034269 0.14067166 1.0185611
-0.058391906 0.043037333 0.99844259
-0.090017237 0.14601822 1.0132182
-0.10258608 -0.054819789 0.99248129
0.11701319 -0.41573641 1.1591446
-0.15222399 -0.39093989 1.1296618
0.085440718 -0.38275141 1.1391985
0.065541014 -0.018535126 0.99604791
0.080741115 -0.23361453 1.0480566
-0.28477183 0.067418367 0.92345023
0.034778517 0.12346231 1.0140334
-0.21534568 0.18076973 0.98630393
-0.23123138 -0.35384753 1.0717402
-0.41650754 -0.099726081 0.83646679
0.098992676 -0.41088277 1.1590251
-0.00015268568 -0.001678944 1.0000027
-0.059417646 0.1703425 1.0254861
0.37473249 -0.13209106 0.87702358
-0.032916185 0.43749544 1.1903188
-0.071773715 -0.026443962 0.99554783
0.29995507 -0.071092948 0.91508114
-0.1791133 -0.25687662 1.0339041
-0.33931154 -0.23780641 0.94141954
0.12279923 -0.40015393 1.1450435
0.097507022 -0.30595443 1.0841005
0.0036530409 0.0065125325 1.0000291
-0.26432607 0.34275797 1.0476148
0.003720785 -0.0167697 1.0002674
0.3655484 -0.074636944 0.87194502
-0.2833122 0.11465509 0.93287998
-0.025232345 -0.22775507 1.0512357
0.0013523763 -0.04943822 1.0024424
-0.12850438 0.33160049 1.0934455
-0.18954539 -0.38503689 1.1123259
0.046817563 0.29071614 1.082324
-0.17135356 -0.17441876 1.0010599
-0.33603883 0.041461654 0.88879699
0.097783059 -0.041975148 0.99220037
0.25061238 -0.21071519 0.98159432
-0.36210495 0.050364994 0.87141663
0.39377138 -0.01671822 0.84522361
-0.13639633 -0.36606669 1.1154008
0.12472784 0.4208543 1.1615614
-0.14460002 0.17428225 1.0094651
0.080469273 -0.24693346 1.0545008
0.39325917 -0.19216275 0.88227373
0.36484542 -0.061578259 0.87067974
-0.30994615 -0.14213446 0.92413557
-0.2268431 0.20659572 0.99122399
0.25048351 -0.33134136 1.0470451
-0.43526587 0.057762679 0.81388015
0.015444312 -0.053705782 1.0026457
0.018519444 -0.32949963 1.108227
0.382788 0.091176882 0.86178654
-0.42760214 0.10155837 0.82747054
-0.22302942 0.37443876 1.0904622
0.020859441 0.03373703 1.0007031
0.1334957 -0.37875229 1.1256322
-0.21679957 -0.0091573661 0.95308179
-0.35114801 -0.085701235 0.88403976
0.42580593 -0.10028829 0.82874703
0.046404749 -0.073701732 1.0032785
0.25261575 0.33765748 1.0501978
0.085306965 0.42963356 1.1773077
-0.056105513 -0.080893688 1.0033959
0.11577489 0.13507153 1.0048405
-0.088761613 -0.029619578 0.99299872
0.30497456 0.19883655 0.94652653
-0.091388129 -0.14770551 1.0134652
0.16214916 -0.043962482 0.97564036
-0.21588132 -0.27612138 1.0296383
-0.21981952 -0.12235937 0.9666512
-0.18008666 0.36998278 1.1044561
0.10575889 0.19903515 1.02843
-0.3310717 -0.1051188 0.90144151
0.28937653 0.33102992 1.0258421
0.015392162 0.030743627 1.0007082
-0.35507706 0.11860758 0.88798803
-0.28216016 0.25524148 0.98553383
0.030592021 -0.039903257 1.0006564
-0.00080437562 -0.0119721 1.0001427
0.16974731 0.30397779 1.0635884
0.28478369 -0.14940505 0.9412201
-0.34214824 -0.2511552 0.94601351
-0.33340779 0.2755765 0.96478164
-0.011931023 -0.046018045 1.0019753
0.20811266 -0.27898988 1.0345244
0.12348279 -0.19265954 1.0218697
-0.0081202565 -0.015995095 1.0001899
0.28483135 0.0052115517 0.91889822
-0.030933145 -0.18297011 1.0325212
-0.011764632 -0.13615799 1.0184005
0.1824972 0.15822877 0.99173111
0.073284961 0.43382931 1.1828371
0.063644461 -0.084799834 1.0031404
-0.41273966 -0.087106049 0.83723342
0.32172039 0.14839791 0.91851795
0.008287455 -0.007552803 0.99998838
0.42752999 -0.10137302 0.82749462
-0.34892872 -0.18281065 0.91166848
0.33280835 0.089469418 0.89724338
-0.10955235 0.09359736 0.99675876
-0.25600266 -0.1343071 0.95250106
0.28513053 0.12960292 0.93549752
0.0053832633 0.096927024 1.0093659
-0.048407767 0.0072631938 0.99770945
0.068772756 0.26366603 1.0647901
0.24538004 -0.28193721 1.0192772
-0.09537378 0.071558602 0.99602449
0.13199233 -0.28176621 1.0619702
0.20085427 0.33872849 1.0743946
0.16073187 -0.2469973 1.0351729
0.31556946 0.11333065 0.91325974
0.0037772101 0.024329461 1.0005777
0.067801423 0.24691282 1.0563689
-0.21359394 0.22507325 1.0050356
0.25703511 0.16025236 0.9596138
0.23786166 0.29861256 1.0325913
0.26962852 -0.022926994 0.92782611
0.25087586 -0.14256167 0.95738512
-0.082169287 0.40765303 1.1594292
0.15628444 0.41112298 1.1445973
-0.06054147 -0.047963619 0.99863523
0.0022687858 -0.0053231232 1.0000232
0.24913196 0.31507555 1.0372058
-0.0095897838 0.36248848 1.1313059
0.13027418 -0.010933676 0.98314816
-0.055292729 -0.014914551 0.99716514
0.12539127 -0.26552576 1.054781
0.035439417 0.013869151 0.99893641
-0.38892037 -0.1821571 0.88192213
-0.06458126 0.38117605 1.1411245
0.16053127 0.39465901 1.1299855
-0.10317648 0.20546581 1.0315708
-0.20674057 -0.22155613 1.0063455
-0.098164834 0.068822443 0.9951002
-0.27640826 -0.31702551 1.0241036
-0.24926199 0.17353411 0.96798253
-0.16171311 -0.22565074 1.0247672
0.0054953215 0.26462185 1.0699946
0.26125145 -0.3540425 1.0570937
0.17127503 0.12924753 0.98736978
-0.32417876 -0.22610822 0.94603306
0.30884188 -0.29222268 0.9900108
-0.071650855 0.044070885 0.99680841
-0.02344754 0.0084892176 0.99952227
-0.22962381 0.24770747 1.0086319
-0.27508357 -0.33418924 1.0360115
0.030993683 0.037988529 1.0004826
-0.031743642 -0.2875818 1.0816957
0.049178779 0.17450404 1.0280331
-0.084655575 -0.19147445 1.029496
-0.014837909 -0.11777566 1.0136509
0.35304254 0.2077906 0.91853791
-0.12700465 0.35780936 1.1118973
0.092985056 0.18432784 1.0253305
0.16689831 -0.29360387 1.0583482
0.42878121 -0.018024988 0.81647158
0.15181048 -0.079349279 0.9832499
0.21771851 -0.31460863 1.0515772
0.13132542 -0.32287863 1.0870042
-0.097282827 0.21533903 1.036907
0.057813674 0.0045447103 0.99667823
-0.015450059 -0.20355326 1.0411953
0.3870303 -0.20528863 0.89235097
0.15426308 -0.078411125 0.98235118
-0.32650602 -0.25534984 0.95859736
0.37625378 -0.069766887 0.8633005
0.13143434 0.047773428 0.98500729
0.16874638 0.0001479292 0.97152466
0.065940872 -0.052884389 0.99844855
0.017758621 0.090358928 1.0078493
0.095407948 0.1294526 1.0076553
0.010138071 0.0068240892 0.99994379
-0.17555057 0.0058959019 0.96921676
0.055976491 -0.097270638 1.0063282
-0.00012489391 -0.0076665939 1.0000588
0.042897921 -0.13728429 1.0170068
0.00025715426 -0.027167495 1.000738
-0.080325305 -0.083112732 1.0004556
0.089239821 -0.087105252 0.9996236
0.084229179 -0.15887502 1.0181468
-0.012612537 -0.087427527 1.0074844
0.047263321 0.10326055 1.0084289
0.070961639 -0.066596948 0.9993996
0.057144638 0.10322449 1.0073898
-0.088284738 0.14422134 1.0130056
0.16858646 -0.062601648 0.97549754
0.020700455 0.0048950841 0.99959546
-0.1788886 -0.0089625027 0.96807921
-0.15475997 0.031969298 0.9770714
-0.046201408 0.10261655 1.0083956
-0.039054506 0.050584935 1.0010335
0.051686782 -0.028280592 0.99812829
0.16227891 0.073030069 0.97899896
-0.014786134 0.027673945 1.0005472
-0.028351281 0.079675145 1.0055443
-0.016148267 0.0075916671 0.99979687
-0.0709619 0.15340479 1.0184975
0.041406054 -0.096866943 1.0076687
0.0024719874 -0.0088044247 1.0000714
0.07084544 -0.012837109 0.99514574
-0.03309118 0.034161624 1.000072
-0.12790591 -0.11613218 0.99712676
0.06599611 -0.020263478 0.99605513
0.16253854 -0.063131034 0.97756678
-0.12767652 0.027386701 0.98444873
-0.063394509 -0.0720459 1.0011717
-0.12448196 0.12621498 1.0004345
0.1587266 -0.078184955 0.98091877
0.10295811 0.078322515 0.99553406
-0.12971841 0.11373749 0.99610937
-0.083554626 0.052336488 0.99575776
-0.12542397 0.050097909 0.98677862
-0.11556377 0.056856763 0.9898777
0.10378826 -0.049718119 0.99169987
0.0043031946 0.055256303 1.0030347
-0.1010636 0.13587545 1.0082483
0.006951964 -0.01599499 1.0002075
0.11904801 0.014675628 0.98604298
0.018446287 0.012435467 0.99981439
0.06711071 0.16349098 1.0222255
0.018417792 0.093131915 1.0083343
-0.1269905 0.11659861 0.99746865
-0.10739985 0.10260907 0.99899387
0.17562427 0.038133219 0.97061026
-0.1602834 -0.068402544 0.97898817
0.010825248 -0.0089502288 0.99996293
0.014616029 0.1541165 1.0235382
-0.043810375 -0.15090635 1.0208534
-0.14226766 -0.082186043 0.98651445
0.071174674 -0.064375624 0.99907839
-0.118241 -0.025885887 0.98668915
-0.14548258 0.067233264 0.9833551
0.050827824 0.17042039 1.0264597
0.10734463 0.09754888 0.99799293
-0.1250352 0.078053936 0.99045861
0.10452201 -0.12789376 1.005432
0.085393719 0.089305684 1.0006834
0.030455774 0.17735812 1.0305283
-0.12372483 -0.040008664 0.98629284
0.062940277 -0.0042273733 0.99605638
-0.02970019 -0.059602641 1.0026704
0.041917417 0.026273647 0.99893326
0.027675662 0.10487376 1.0102326
-0.097822502 -0.048731316 0.99280548
-0.16042078 0.077876598 0.98032993
