ply
format ascii 1.0
comment PCL generated
element vertex 1345
property float x
property float y
property float z
element camera 0
property float view_px
property float view_py
property float view_pz
property float x_axisx
property float x_axisy
property float x_axisz
property float y_axisx
property float y_axisy
property float y_axisz
property float z_axisx
property float z_axisy
property float z_axisz
property float focal
property float scalex
property float scaley
property float centerx
property float centery
property int viewportx
property int viewporty
property float k1
property float k2
end_header
-0.075207599 -0.5261938 -0.7752831
0.060302 0.35388941 0.026943885
-0.10851008 0.14139766 0.1753062
0.15675746 -0.021167254 0.15290208
-0.095340252 -0.21658921 -0.12999749
0.02772142 0.042059675 0.52760071
0.42844436 0.19267552 0.22296093
0.32633415 -0.46981478 -0.28701931
0.31449318 0.29324615 0.00084889744
0.0038026518 0.015789991 -0.27952856
-0.086594276 -0.0055647884 0.06760519
0.11336288 0.11958822 0.041803315
-0.054049093 -0.14279643 0.77510512
0.0054953238 0.0057469355 0.0060641686
-0.49469414 0.11519799 -0.81462079
-0.07951279 0.014567142 -0.20461063
0.19526947 0.078590706 -0.42023009
0.1163402 -0.085771039 -0.47865257
-0.77637768 -0.11664271 -0.23671107
2.8830988e-05 -0.00023889172 0.0099971043
-0.049190398 -0.14159521 -0.0055769924
0.094783306 -0.27962118 0.85019296
0.10565989 -0.45214027 -0.67587358
0.1402166 -0.17016964 0.72731119
0.7381016 0.32117704 -0.090284832
0.0087867081 -0.038872845 0.12374043
0.27829888 -0.0027498757 0.81372118
-0.036446687 0.26485333 0.49206132
-0.052590653 -0.051583484 0.10711381
-0.023150891 -0.022167318 0.15675664
-0.14848457 0.0059863604 -0.5295437
0.063246705 -0.013309795 0.29295513
0.065946892 -0.70283276 -0.076007128
-0.02158403 -0.40212828 0.45817792
-0.46303976 0.4609845 -0.18838115
0.091096468 -0.12446176 -0.14251563
0.17574434 -0.34851435 0.6168887
-0.48092836 0.55288434 -0.2951726
0.0011961375 -0.0027171834 -0.049911786
0.12649821 -0.38974649 0.013996488
-0.162587 -0.029089453 -0.64932215
-0.46887887 -0.032155313 -0.097563393
-0 0 -0
0.18241228 -0.38775465 0.32859108
0.25977615 -0.054102834 0.54926246
-0.029025191 0.13813587 0.12718497
-0.021084534 -0.28075701 0.43718523
0.049901266 -0.039444696 -0.029222928
-0.0034583767 -0.0046528452 0.36995459
-0.09515316 -0.015676407 -0.24145418
-0.048554681 0.16400984 -0.15376349
0.22384101 0.32724854 0.25239569
0.47807291 -0.32870188 0.6749084
-0.3148213 0.56261611 0.50670564
0.0074984543 -0.025580911 0.029822644
-0.16520891 0.19462097 -0.25382808
0.15102488 -0.34022442 -0.8413316
0.18574439 0.28168383 -0.50818622
-0.042669613 -0.063618846 0.48397517
-0.55021673 0.23314828 0.30299079
-0.095252275 -0.0888642 0.83995843
-0.15510976 -0.47101048 0.28105178
-0.10272543 -0.1288247 -0.041853093
0.15679282 0.698488 -0.47658211
-0.08496207 -0.12813111 -0.17106685
0.0099568041 -0.014834012 0.0089896685
-0.36976406 -0.38028079 -0.75170547
0.26184031 -0.47213593 0.37964112
0.16538113 -0.36264217 0.44848606
-0.60143185 0.40457454 0.1489941
0.25081182 -0.19833528 -0.42267779
0.11624587 -0.29608583 -0.5782907
-0.041871771 -0.070545845 0.073280551
0.1199489 -0.19856097 0.91092581
-0.38463163 -0.49424243 -0.13184397
0.31721711 0.11837757 0.79054415
-0.15336281 0.19581607 0.2168777
0.0062194276 -0.033152297 0.021499855
-0.013686091 -0.076151259 0.063353591
-0.40576181 0.73190308 0.33117232
0.071293779 0.077960148 -0.13318938
0.53843838 -0.28672847 0.36327791
0.543715 -0.69967657 -0.44150493
0.43906018 -0.73925918 0.29803023
0.088186763 0.23920368 -0.20953451
0.11626846 0.76475042 0.10019226
0.034434143 -0.12159269 0.030487791
-0.11079401 -0.48252937 -0.67859417
0.14188956 0.17981929 0.45566696
0.0071502496 0.10046323 0.044226829
-0.20943932 0.09011855 0.29139975
0.33290622 -0.44008955 0.23557307
0.12061197 0.3119764 0.27022859
-0.39771679 -0.26246431 0.15143926
-0.072796009 0.50956744 0.48902121
0.60016328 -0.5136739 -0.006575237
-0.017384985 0.087625444 -0.78493285
-0.046495769 -0.026069392 0.1075106
-0.13684119 -0.12593186 0.39876768
0.15030031 0.59263623 -0.63292348
-0.0051025543 0.060895462 -0.69732755
-0.33485359 -0.61285615 0.56769735
0.0039725215 0.072904803 0.14236961
0.0013852882 0.0016922733 0.13998292
-0.12055444 -0.41850027 -0.59826761
-0.058284372 -0.031898957 -0.11173803
-0.012761389 0.026820585 0.20788892
-0.019407731 0.089319557 0.29621843
-1.0509983e-05 -0.0024855377 -0.46999341
-0.295748 0.12097415 0.017273195
0.028558472 0.061945707 -0.26124156
-0.22115958 -0.18428166 -0.92629844
0.089669868 0.12064432 -0.099016495
-0.030367786 -0.041531324 -0.40675905
0.038233325 -0.012531827 0.04451029
-0.022967864 -0.47312507 0.12540004
-0.0035747767 0.15921019 -0.96697432
0.028569132 -0.16436186 -0.032695282
0.66287047 0.11702571 0.65613091
-0.45415291 -0.61296737 0.10448018
0.49856004 -0.47896913 0.42205033
0.10642324 0.15075397 -0.38839069
-0.24412465 0.49034846 -0.46729171
-0.52821738 -0.30584338 0.10884051
0.10184471 0.016158717 -0.66201705
0.24622333 -0.13408129 -0.48476416
-0.061840009 -0.094333857 0.082927302
-0.17861147 -0.019432282 0.010969658
0.71413338 0.39707851 0.068863563
-0 0 0
-0.035353143 0.031084863 0.11038064
0.31850991 0.231149 -0.071565337
0.043561108 -0.21994168 -0.051264942
0.12719671 0.23192751 -0.75500369
-0.085949421 0.056176379 -0.72274268
0.051106919 0.15592788 -0.25114655
-0.095137082 -0.095185146 0.066247456
-0.49950323 -0.015360971 -0.016141465
0.12667947 0.12384923 0.031838413
-0.025936628 -0.19824217 0.0052281171
0.012181184 -0.17014895 -0.29411045
-0.63188207 0.45492131 0.43112823
-0.0066444008 0.13543354 0.34425807
0.52836585 -0.063427851 -0.76269686
0.0035836257 0.018630061 -0.0063307546
-0.069908522 0.036342163 0.21608342
0.020736178 -0.035011623 -0.029055072
-0.09451893 -0.34578276 -0.86896515
0.0022231548 -0.0048518195 -0.10987046
-0.11308666 -0.31700134 -0.38317305
0.77459556 -0.062001172 -0.52892119
0.13739312 0.066822946 -0.693367
0.03506859 0.026125832 -0.28668386
-0.21429305 0.15490456 0.83933491
-0.031780224 -0.010550353 0.13593641
-0.61393631 -0.33170155 -0.2748751
0.19518599 -0.13355799 0.10800319
0.30439693 0.71111506 0.27213573
0.079439595 -0.031746496 -0.14690647
0.0017479105 0.088180639 0.017919838
0.13256511 0.066799998 -0.059701331
0.15182868 -0.4054265 0.86803079
0.36005729 0.10456537 -0.24884692
0.3132253 0.14564069 -0.056380004
0.82560468 0.2685402 0.47577634
0.0020795539 -0.0016091233 -0.099965423
0.1567854 -0.44176614 -0.20090048
0.16826329 -0.11848205 -0.86588073
-0.23605657 -0.64699978 0.24200945
0.082485057 -0.23668964 -0.069095738
-0.0062981946 0.0016678583 0.67996877
-0.70873296 0.37820596 -0.10371982
-0.053217441 -0.03549201 -0.028429234
0.09598057 0.82140428 -0.27015349
0.035823967 -0.080562048 -0.018066552
0.72438872 0.33359358 0.063058279
0.32515609 -0.20217538 0.64490199
0.12151242 0.25836965 -0.39822087
0.86047649 0.48668984 -0.053040363
0.024321649 -0.010430864 0.84958798
-0.56408119 0.23872562 0.096033916
-0.394371 -0.19013545 -0.5715943
0.19553582 -0.11861308 -0.32817173
-0.78329474 -0.32933253 -0.40198183
0.38585669 -0.20504284 0.60956711
0.0095258951 0.0025085877 0.0017217186
-0.82846403 0.0086111752 -0.48494652
0.040421315 0.12140174 0.35780963
0.018113347 -0.033894595 -0.070164539
-0.0050540045 0.0098221973 -0.26977396
-0.0016220282 0.00066283747 0.019923093
0.00054396078 0.0088883638 -0.028647879
-0.74360335 -0.18449174 -0.076920964
-0.1314474 0.12572338 0.05491095
-0.23666003 0.43663469 0.43467483
0.59407026 -0.23399785 -0.20304066
0.15086591 0.1207445 -0.27975032
-0.19871794 -0.22469212 0.63247502
0.13056836 -0.066913716 0.063831486
-0.33088067 -0.61434227 0.61481833
-0.35214251 -0.72865307 0.18428342
0.0078452295 -0.0053772205 -0.017593689
0.004070038 -0.030078389 -0.31855726
-0.57093585 0.58491784 -0.14423381
-0.35569021 0.13860336 0.21880032
0.032924119 -0.12382389 0.17883971
0.96781522 -0.041021869 -0.20433047
0.087064564 -0.023514159 -0.48162937
0.48405513 -0.54439086 -0.047214814
0.042394657 -0.13582799 -0.18070267
0.21378645 0.54970229 0.59809923
0.023694422 -0.0029319325 -0.20863838
0.025892297 0.34176555 -0.43014637
-0.15374835 0.15018754 -0.14630497
-0.10397208 0.026383635 0.30148584
-0.19198523 0.12019018 -0.42319733
0.079979643 -0.65173161 -0.36242113
0.10841095 0.023635687 0.10093772
0.024736971 -0.017036263 0.026416812
0.003523156 0.012750661 -0.037749276
-0.035532806 0.29561549 -0.28186679
-0.13639443 -0.024339996 -0.098509505
-0.065144241 -0.4041793 -0.022255696
-0.50016809 0.37737247 -0.61791736
0.73784286 -0.37987682 0.01346724
0.049542055 0.056353085 0.91693509
0.25474244 -0.048447754 0.20410566
-0.37624097 -0.087454036 -0.16490757
-0.38074097 0.075723514 -0.84510487
-0.0058205188 -0.015238884 0.02517733
0.013065442 -0.012700694 0.15895908
0.072724804 0.23943278 -0.59990245
-0.39930212 -0.19950819 0.33816314
0.048989221 -0.72802138 -0.022021072
0 0 -0
-0.13073854 -0.16526845 0.77174723
0.68187559 0.32900086 -0.5226894
-0.26334202 0.1569978 -0.045854919
0.6651035 0.70979762 -0.11926748
0.068949364 0.040439527 0.16127811
0.13765174 0.070508122 -0.040995169
-0.062225118 0.21987861 0.7457757
-0.10676406 -0.56911045 0.4766705
0.068968289 0.045667447 0.086935945
-0.14828454 0.60010451 0.30657181
-0.012726764 0.11633115 0.20953542
-0.73480445 0.2886515 -0.02902898
0.07700336 0.040611129 -0.082590669
-0.02891841 -0.11864667 -0.31731167
-0.0048566856 -0.5394302 -0.23893815
-0.62602866 0.49074417 0.29959697
-0.01654017 0.0093866112 -0.06736701
-0.38074738 0.5406304 0.65394968
0.093935765 -0.061134443 0.29973096
-0.17642127 0.0038373265 -0.035507996
-0.51048142 -0.12110201 0.66876239
-0.35774985 -0.60488695 0.19755219
0.10613734 -0.14531271 0.10825467
-0.46344301 -0.49126878 -0.18405302
0.14986426 -0.02716871 0.095930003
0.11232703 0.050966505 0.10190708
0.12981668 -0.43760681 -0.70515805
0.41120645 -0.50451159 -0.60702324
-0.11773504 0.2130042 0.29183498
0.51390576 -0.094137833 0.089100718
-0.041988432 0.023695638 0.37692901
0.27681533 -0.63928705 0.21814056
0.00056205358 0.0052839778 -0.019281173
0.44057769 0.26794103 -0.067073599
-0.038040556 -0.001600049 -0.76905805
0.80529934 0.42148897 0.044045445
0.43633875 -0.45050254 0.059631597
0.18972997 0.45993268 0.50652188
0.036860988 0.84300655 0.41422376
0.089711621 0.097340204 0.43008918
-0.3080605 -0.38015157 0.77909154
-0.094715908 -0.024801321 0.069381483
-0.067635089 0.55328047 0.62841552
-0.099438287 0.067895725 0.20761067
0.070526786 0.10898507 -0.052423555
-0.014265237 0.075460501 -0.6555168
-0.33104664 -0.5385443 0.15125518
-0.10424758 -0.63411212 -0.27755049
-0.080290258 0.19297029 -0.068672709
0.13897447 -0.22997351 -0.5140022
0.10740054 -0.39860895 0.12031648
-0.024042444 -0.11064763 0.082335055
0.031755839 -0.21179456 -0.95631307
0.24320644 -0.55711901 -0.25703907
-0.064035721 0.011777449 0.89764172
0.16544399 0.67548138 -0.5059182
-0.15836911 -0.12357882 0.13132972
-0.41107851 0.13925526 0.79982656
-0.54791003 -0.38909537 -0.25845587
0.073288225 -0.063305736 0.02492428
-0.10071485 0.46175978 0.33620584
-0.12870388 -0.49113309 0.15206434
0.0335395 -0.0049365424 -0.23759362
0.28944504 -0.61602992 0.16348907
0.34590256 -0.67186892 0.63956517
0.3499243 0.0015786396 -0.0071042879
-0.59174395 0.31667522 0.1988865
-0.023544775 0.0058313254 -0.18844531
-0.023541836 0.06272801 0.020272614
-0.025811041 -0.083317555 -0.25552297
0.059979353 -0.33760971 -0.67824936
0.19058178 0.38075924 0.19899997
-0 0 0
0.10141664 -0.18128498 0.072459795
-0.0034475848 0.045370732 0.36719152
-0.061929051 0.052099422 0.039375674
0.06975013 -0.004053921 0.0042994609
-0.038293932 -0.3121655 -0.91759813
-0.24159379 0.42547041 0.02659633
0.21657656 0.1754609 0.27277839
0.54891181 -0.42237476 0.1561902
-0.071930304 0.0064224973 0.93722183
-0.47729319 -0.32411492 -0.37847161
-0.9789812 0.020604886 -0.039640017
0.015082321 0.00061268691 -0.48976743
0.3164472 0.21630105 -0.43528727
-0.16563264 0.025894547 -0.028201144
-0.00036310928 0.036243487 0.49868456
0.28549415 -0.29544908 -0.22826067
0.28164634 -0.12055343 0.79286963
0.070030004 -0.13070579 -0.16251706
0.28224197 -0.48136333 0.4058679
0.16338255 0.26927081 -0.7244994
0.11903334 -0.44700116 0.59035671
0.079177096 0.019783309 0.80587816
-0.094688393 -0.81159705 -0.50392884
-0.18869144 0.20149994 0.46410486
-0.033353765 0.033123579 -0.76856381
0.073840037 0.28906408 -0.23534994
-0.11548236 -0.24886875 0.31800655
0.13387688 -0.0086660599 -0.12000785
-0.73654008 0.43712512 0.45533541
-0.46093673 -0.50414526 -0.30963683
0.30815464 0.16747558 -0.38391745
0.21026953 0.12842192 0.48051488
0.56364393 -0.31781945 0.12998576
0.43698964 -0.10931677 -0.21700209
-0.0075786365 -0.026791671 -0.16770442
0.32858792 -0.29235733 0.45106226
0.030753061 -0.057968762 0.37429115
-0.19549027 -0.25057301 0.78835064
-0.032772839 -0.26851532 -0.65644914
-0.33549371 -0.16254088 0.2862244
-0.011363898 0.13992909 -0.8078928
0.058277089 -0.17708224 -0.096672937
-0.070145287 -0.18174285 0.6410532
-0.2679677 -0.052255038 -0.097789198
-0.060842857 0.21576515 0.11065053
0.0029851329 0.02665166 -0.042199265
0.015230362 0.075787716 0.18445666
0.098557897 0.23982182 0.48504829
-0.13816869 0.027215591 0.28734773
0.35620284 -0.27218932 0.58875507
-0.0065163407 -0.0071578668 0.099530414
-0.67254806 0.13095777 0.081419609
0.24662511 -0.087191463 -0.18431957
0.13752991 -0.49005908 0.80213946
-0.063052259 0.05769337 0.13526228
-0.19414788 -0.11815006 -0.10414971
0.013448366 0.012406231 0.067566462
0.11105284 0.16941743 0.53278983
0.25434124 0.69163376 -0.63075614
0.32689083 0.40607935 0.49663064
0.014372048 0.016181258 0.087359093
-7.9958556e-07 0.096694991 -0.59215719
-0.019050986 -0.009881706 -0.30925623
-0.36473659 -0.072333954 0.79758078
0.38944644 0.20152867 -0.70471102
-0.038493611 0.022179168 -0.34716901
-0.04158742 0.017118631 0.56822306
0.040238988 -0.0085273115 0.36770654
0.073827818 0.09910471 -0.065785311
-0.0090250652 -0.037621252 -0.045860544
-0.068325169 -0.59664655 -0.2486856
-0.04356673 0.0086026369 0.24602425
0.0044729761 0.027662966 -0.010712269
0.033474054 0.084190719 -0.70419556
-0.45810032 0.35314724 0.042790968
-0.26324007 -0.29990789 0.027566791
0.02974527 0.036716703 -0.1736868
0.29174739 0.32171521 -0.53617424
0.21489389 -0.71129495 -0.60784876
0.23626208 0.17730138 -0.052387562
-0.45690572 0.16055277 0.15987495
-0.099304639 0.025211159 -0.1228942
0.35689172 0.31260273 0.86891186
0.09180066 -0.11942298 0.28233099
0.52414834 -0.088332541 0.27832699
0.0081179813 -0.010614056 0.014880867
-0.26597029 -0.15232353 0.046447456
0.0031137192 -0.017139781 -0.067797735
0.73785853 0.52930766 0.059146475
0.056228094 0.74475586 0.068388969
0.3786259 -0.61670405 -0.48292711
-0.20175423 -0.041557975 -0.78336978
0.49654499 0.24171759 -0.47740516
-0.68238199 -0.14400396 -0.61523789
-0.23919211 0.083599031 -0.058295138
0.08318264 -0.070360333 -0.015168128
-0.047714688 0.29848537 -0.77300048
0 0 -0
-0.014456945 -0.02446875 -0.0096060941
0.036128383 -0.17281473 -0.51032323
-0.054894056 -0.045979533 -0.083501644
0.12565549 -0.11588649 -0.39456436
0.080347873 0.033671528 -0.21286252
0.012816611 -0.011939884 -0.067772955
0.13543162 0.020256128 -0.10073712
-0.31162843 0.2657463 0.50474411
-0.31020591 -0.24999012 -0.79584998
-0.27000684 0.51960194 0.17090988
0.14085162 0.27788207 -0.39107847
0.037543736 -0.011720585 0.0072866804
0.023318468 -0.44949189 -0.36580497
0.087236211 0.022855822 0.043214086
0.048631988 -0.78332919 0.15501712
-0.11441687 -0.021822629 -0.66994965
0.013992983 0.048697099 -0.032137029
-0.0099738175 0.16324887 0.55646235
-0.042878449 -0.012939555 -0.25611326
-0.091724634 -0.12467134 -0.39044032
0.08248885 -0.12053432 -0.065322757
0.062843099 0.66906863 0.58352196
0.2950938 0.10789172 0.21372649
0.19402114 0.25086737 -0.41209385
0.069267385 0.015823742 -0.096703865
0.023826808 -0.074213624 -0.4228766
-0.19830066 0.038572785 -0.36822408
-0.2403897 0.011832927 -0.19537853
-0.0040918454 0.10941861 0.22474614
0.0012470121 0.00028683725 0.11999317
0.31395739 -0.30418405 -0.7521987
0.057692386 -0.020518821 -0.58681387
0.23683922 0.034590527 -0.18086095
-0.027997555 -0.15133634 -0.043742985
-0.39989218 0.21833962 0.374852
0.080157153 0.1851206 0.29816976
-0.029971162 0.023237761 0.046494469
-0.16121256 -0.081246011 -0.83060801
0.094629742 0.078658581 -0.91173357
-0.053168822 -0.044676717 -0.66639107
0.13120769 -0.091459028 0.12008242
-0.0036293927 -0.0058308463 0.007268338
-0.073385432 0.11911029 -0.14292417
-0.026818521 -0.068802334 0.80662692
0.022091011 -0.31735411 0.3594417
0.13578765 -0.3533282 0.29516244
-0.14778468 0.1722777 -0.44551101
-0.17804618 -0.18930207 0.58486265
-0.15218242 0.16370012 -0.44726142
0.2487855 0.25660637 -0.77120614
-0.028319782 -0.0099375835 -0.62928468
-0.4568713 0.01877247 -0.2872563
0.071204044 0.15590511 0.41608119
-0.3186205 -0.62097639 0.39098501
0.11454066 0.10343257 0.56945777
0.52926832 0.15232328 0.82266194
0.0018328034 -0.041044533 -0.41798562
-0.12963985 -0.7812385 -0.11340153
-0 0 0
-0.12053254 -0.17130484 -0.11716038
-0.027271049 0.018232597 -0.18714662
0.30264941 0.15623149 0.60007924
0.06143865 0.048866011 0.84636724
-0.68443114 -0.097726375 -0.70859271
-0.48337081 -0.13594103 -0.58375734
0.50095415 0.32047862 0.59324396
-0.023172252 0.032587942 -0.0010357479
0.14162299 0.58276486 0.7367686
-0.017230572 0.46298388 0.079050779
0.38302553 0.24421364 0.87963128
-0.07610447 0.14588375 0.072979741
-0.30831996 0.33837202 -0.61914712
0.32194659 -0.32207114 -0.62090302
0.30252522 0.71745473 0.45137241
-0.24381925 0.010701152 0.43639162
0.037277751 0.013584137 0.0050833421
0 0 -0
0.032722082 0.40113598 0.078225188
-0.11025032 0.1545931 -0.340655
-0.016899075 0.014611916 -0.47947982
0.0071819345 -0.0009848288 0.0068883901
0.10956401 0.22417334 0.61101729
-0.53863674 0.074916355 -0.79111177
-0.084302574 -0.034114093 0.35864928
-0.076119065 -0.056612436 -0.23130266
0.14358807 0.67488801 -0.0029405341
-0.11772471 0.037943527 0.13077149
-0.13730429 -0.054462329 -0.061492961
0.052014038 -0.41947803 -0.20550604
0.072146595 0.0072452105 0.033799052
0.56154823 -0.17701505 0.51159477
-0.22692101 0.02541182 0.073899269
0.063566618 0.14520617 -0.021782
0.2572608 0.43230289 0.75830805
-0.43954763 0.15657362 -0.11261693
0.12359401 0.058992103 -0.67627245
-0.2237018 -0.24172968 0.020597603
-0.24587399 0.039307568 -0.43359071
0.017453713 -0.041212581 -0.14316736
-0.15566716 0.10715926 -0.19283317
0.02333349 -0.038909394 0.32686636
0.0082829976 -0.0035186815 -0.03897449
0.044926014 0.021811061 -0.15200634
0.32038471 0.29539558 -0.20123385
-0.030324729 0.38871998 -0.15613191
0 -0 -0
-0.13880672 0.13628146 0.17251104
-0.18445861 -0.1090551 -0.12877113
-0.49589214 0.60646015 -0.32984406
-0.01332411 -0.0040891063 -0.9899019
-0.18237475 -0.042473055 -0.032179035
0.12969135 -0.36399692 0.26755628
-0.18916593 -0.03511817 0.43975329
0.042822469 0.10551345 -0.13940284
-0.2343843 0.34983021 0.20876494
-0.39154625 -0.27305779 0.3634983
-0.35352981 -0.5908795 -0.3664397
0.19990358 -0.0048650056 0.0038595689
-0.0056058797 -0.0080127371 0.0020904893
-0.065114193 0.04487586 -0.20529564
0.048306093 -0.49708641 0.76070476
0.039292283 0.096765734 0.35495424
0.070761092 0.10524437 0.34758669
-0.040273845 0.054500274 0.017542448
0.50573999 -0.20148677 -0.74164021
0.030008329 -0.033419013 -0.42764783
0.10207264 0.33202955 -0.68719536
0.37126338 0.20128089 0.69119424
0.26820722 -0.049720395 0.48907337
0.048720688 0.12668571 -0.68671465
0.39228377 0.50794393 0.74061209
-0.32212609 -0.56979614 0.36615181
0.15323277 0.433714 0.30151597
0.0066327057 -0.020073324 -0.077156134
0.22724654 0.16769372 -0.10118216
0.40623665 -0.49415889 0.01946112
0.34699547 0.16935301 -0.52288973
0.329761 0.2940881 -0.42055905
0.19102192 0.097970411 -0.12811099
0.21095061 -0.53383791 -0.73172194
0.4043636 -0.44881675 -0.26580751
-0.02913711 0.1415851 -0.040058609
-0.24650021 0.2936998 -0.071260437
-0.2570079 -0.28213102 -0.72577482
0.06792029 -0.3057774 -0.59227282
0.12275298 0.19949062 -0.8482542
-0.030099282 0.035651695 0.099614203
0.069877833 0.021318456 0.11942618
0.1502452 0.67102343 -0.057043262
0.20321892 0.022923045 -0.21949172
0.30271876 -0.36643168 0.51389605
-0.26488367 -0.010664874 -0.14043829
-0.0057812035 -0.0075532212 0.0030865066
-0.58175313 0.25369811 -0.29529744
0.026356559 0.15541132 -0.40006581
0.1521699 -0.047522925 0.013634264
0.75787216 -0.063569419 0.27872691
-0.0084748687 -0.0016370886 0.18980384
0.030524286 0.049431168 -0.093406782
0.046474941 -0.062087726 0.64535666
-0.0070026582 0.025365233 0.01440721
0.09118595 0.096012704 0.20016663
-0.0095135523 -0.0017573878 -0.017504396
-0.16369784 -0.40398434 0.1118018
-0.10881456 0.07015495 -0.01173341
-0.20281079 0.7767421 -0.30844688
-0.093276627 -0.25212067 -0.1331715
-0.043889511 -0.11082524 0.013837558
0.20907226 -0.16068767 0.8918342
0.16070606 -0.13955829 -0.4524346
-0.70668328 0.12870447 0.13013051
-0.45392138 -0.05108235 -0.69299781
0.023265898 -0.060974274 0.44524243
-0.11931734 -0.39218226 -0.28628036
-0.15948625 0.26895428 0.10548806
-0.074213199 0.0049600676 0.029458413
-0.15358642 0.28885815 0.55006558
-0.010753646 -0.044148438 0.1534121
-0.18941958 -0.47059864 0.56591266
-0.11980625 0.019679146 0.10420745
0.067823499 0.04001132 0.11575434
0.25853878 -0.23913221 -0.29592818
-0.099447653 0.10640719 -0.37254217
0.16087255 0.45680195 -0.15984993
0.064710557 -0.22160882 -0.94212639
0.10257976 -0.084636174 -0.19978516
-0.8780911 0.39378726 0.12160468
-0.4135907 0.26250967 -0.011463257
0.24444897 -0.32843554 -0.26921144
0.077171467 -0.042180173 0.06607116
0.43433326 -0.088733882 0.20876047
0.041493684 -0.1737227 -0.02233159
-0.38394576 -0.018489012 -0.1927273
0.16340017 0.25056005 0.022804569
-0.19839644 0.097733282 0.063143119
-0.11397903 -0.68844634 0.46760058
-0.070811197 0.11332843 -0.53351897
0.6412999 -0.14019272 -0.068414032
-0.097502425 0.33991021 -0.7509023
-0.005209235 -0.028007045 -0.97958589
-0.077225469 -0.083022662 -0.65018731
0.58916205 -0.015340462 -0.11248476
0.067195341 -0.1154798 -0.068185069
-0.54682511 0.16703035 -0.53054976
0.12984011 0.047379397 -0.48051715
-0.11699701 0.016525848 0.10788231
-0.045726046 -0.16981298 -0.27923593
-0.32141736 -0.16344786 0.58828199
-0.073647924 0.28796798 0.8176493
-0.094620034 -0.025670072 0.13888159
0.038570806 -0.10525748 -0.17757577
0.093209408 0.15965101 0.043858424
0.047801163 0.001004372 -0.07624986
-0.21941572 -0.53321445 -0.58304292
-0.64482325 0.37817308 0.51892984
0.19470605 -0.02249079 -0.82709354
-0.047418706 0.28299361 -0.26413268
-0.037809111 -0.34573543 0.35921788
-0.012484789 0.19059481 -0.087279692
0.099842243 0.40459794 -0.29399323
-0.0090726698 -0.00035964596 0.0041901455
-0.1685354 -0.14443681 -0.6638779
-0.1066409 0.23343733 -0.041650005
-0.095010348 -0.10150529 -0.079181477
-0.040508196 -0.14615743 0.68337184
-0.4422726 0.068665534 -0.44337338
-0.42349285 -0.66449511 -0.056568995
-0.024521938 -0.017460832 -0.24818097
-0.0023759038 0.049792737 -0.15203629
0.086639851 -0.039789919 0.36784548
0.066593491 -0.10365464 -0.34888539
-0.6233232 -0.56050092 0.053915292
-0.010207594 0.37210575 -0.11633194
-0.48258775 -0.29852122 0.37469208
-0.89056677 -0.42446578 0.082582071
0.0038937586 -0.078252614 -0.83633804
0.61555332 0.63288772 0.11246028
-0.011076399 0.009542875 -0.98989201
0.26547456 0.22415967 0.042139046
0.02970854 0.019227874 -0.36830381
-0.39727563 0.43148124 0.36345008
-0.0038942259 -0.42625931 0.31494096
0.095522203 -0.071579553 0.012323835
-0.030633785 0.066078283 -0.033094283
0.157566 0.49267596 0.48635721
-0.34191659 0.091994829 -0.27772284
-0.12103162 -0.05984693 -0.64604157
-0.01667773 0.0343646 0.20649679
0.60030752 -0.24950816 -0.1139147
-0.035996847 -0.076105155 0.18141729
-0.00082911324 0.012503707 0.87991077
-0.089732215 -0.21162704 0.0078821611
-0.38023362 -0.17706196 -0.021713171
0.1043034 0.76023579 0.063736126
0.064412124 -0.23117077 0.36879689
0.13545309 -0.024801001 -0.02524622
0.012754624 0.16302939 0.50414157
0.0041710474 -0.31171387 -0.28145522
-0.027714534 -0.023920165 0.57884341
-0.063684732 -0.034362514 -0.15382937
0.43349591 0.23790301 -0.28351972
0.1675397 -0.045707949 0.099203005
0.15380374 -0.28614333 0.17710559
0.34640345 -0.12005945 -0.38274056
-0.22646806 0.16238514 0.82416219
0.041679952 -0.57253605 0.6403634
0.067037061 -0.28695297 -0.2704885
-0.048185259 -0.036456548 -0.36503303
0.080123425 0.056733418 0.22991641
-0.046011757 0.041577879 -0.42550465
0.77115959 0.24777152 0.0047239196
0.010253433 -0.0022392808 -0.038598612
-0.47976595 0.44770986 0.17827077
0.023422038 0.060584016 0.85754359
0.14162169 0.67814821 -0.10029102
0.34476891 0.53634995 0.67702526
0.26478449 -0.041974172 0.42205137
0.038126837 0.50608975 0.25946006
0.016563898 -0.13014717 0.35663334
-0.040653411 -0.0022067043 0.10218821
0.34711763 0.38470143 0.7842921
-0.13782054 0.094560288 -0.24912618
-0.31323439 -0.01612165 -0.27932832
-0.031558305 -0.002823218 -0.25806221
0.055760611 0.077401474 -0.029996112
-0.14583544 -0.57939249 0.63240528
-0.038765982 -0.066233471 0.74606323
0.013098457 -0.66928345 -0.41950938
-0.040725771 -0.2577875 -0.91344786
-0.06668523 -0.18483032 -0.19947641
0 0 -0
-0.096686333 0.035271827 -0.17148659
-0.0034737859 0.048297178 -0.012462546
-0.21008557 -0.028082671 0.43066856
-0.0031409743 -0.0057469555 0.018897269
0.026902078 0.022298906 -0.048775367
0.67493117 0.50341725 0.43993068
0.066676125 -0.030131824 0.095112398
0.072073169 0.24573576 0.38212487
-0.61321175 -0.063779563 0.35214126
0.0034166945 -0.45384958 -0.73048538
0.42698827 -0.11484177 -0.5297097
0.07730978 0.05860205 -0.25197023
0.24815732 0.11080151 -0.067386761
0.49029502 0.12682758 0.30269709
0.020356417 0.35244393 -0.22752778
0.03820828 -0.072159201 0.20428701
0.057985809 -0.3613739 0.34065607
-0.14027971 0.28723079 -0.11584508
0.042730443 0.59572172 0.22997768
0.0019878889 0.00041615855 -0.0097915828
-0.46306396 0.74829555 0.13313751
-0.42605788 -0.16544282 0.44799927
0.052399751 0.17338875 0.64505088
-0.061756726 0.27289858 -0.010604993
0.48386151 -0.13735645 0.1964975
0.37300822 -0.18793729 -0.72879654
0.22721502 -0.27336854 -0.89176393
0.10287081 0.0084442338 -0.14746624
-0.31346464 -0.25531691 -0.27686316
0.13336726 -0.20300359 0.60291189
0.66529095 -0.19074337 -0.1049041
-0.28089038 0.22571658 -0.75878358
-0.10167622 0.060953189 -0.074475862
0.071321428 0.019301852 -0.081490435
0.010585015 -0.003683446 -0.25975832
0.033451539 0.44712988 0.52445769
0.25556114 0.029514451 -0.25182813
0.15788089 0.81933075 0.3631402
-0.58440465 -0.17745556 -0.50107956
-0.11126827 -0.011536863 -0.2235761
0.21477899 -0.20303492 -0.60128766
0.6140973 0.41279063 0.0094091538
-0.016192254 0.18590085 0.70574689
-0.93032837 0.26889953 0.055517737
0.0096201776 0.036190931 0.51864982
0.0299167 -0.31777391 -0.11715264
-0.16064852 0.050428629 0.023430787
0.053204153 0.015068323 -0.50699335
0.14418887 -0.1651133 0.018632555
0.27270508 0.3811942 -0.034969941
-0.081045121 0.033556506 -0.24475628
-0.0022882887 -0.00093121879 -0.009690024
0.15300454 0.086739011 -0.31411138
0.0041795829 0.013593168 0.014062606
-0.096710145 -0.36025846 0.65066195
-0.061749015 -0.02234764 -0.08824762
-0.46488759 -0.83642811 0.076599404
0.050262313 -0.03162447 0.23253728
0.02863824 -0.10503247 -0.15571779
-0.59446162 0.31097427 -0.35708585
0.21828108 0.28474265 0.55396301
0.32315454 -0.18900198 -0.42982486
0.25177702 0.25226253 -0.1815818
-0.03688325 -0.090001561 -0.23030274
-0.44686243 -0.58879167 -0.17674364
-0.21403886 0.073154323 -0.041663013
-0.27557716 0.50926864 -0.58060545
-0.11049551 0.28404921 -0.30332619
0.090690546 0.072748713 -0.47600719
-0.034523737 0.25375485 -0.044906363
-0.012495353 0.027787223 -0.039645132
0.24205819 0.23987135 -0.40591815
0.002951565 -0.012545798 -0.40979737
-0.43429688 -0.19963467 0.10785296
-0.11745942 0.059943784 -0.70782065
-0.2631014 -0.11266389 -0.58359617
0.0018390153 -0.14637953 0.032705586
-0.31050172 0.12449932 -0.20047086
-0.41746515 -0.76214653 -0.23421234
0.27779675 -0.71393889 -0.45301232
0.06875965 0.0029901101 -0.34316638
-0.069300115 -0.2195625 -0.54322165
-0.0056240135 0.0016783512 -0.099827617
0.13380058 -0.19293585 -0.13331601
0.51384723 0.29030013 0.10810611
-0.10625006 0.11584341 0.34596419
0.043427594 -0.6497938 0.25667492
-0.47088206 0.22672342 0.13589185
-0.036278583 0.17445007 0.025515487
0.14762872 0.13037705 -0.77537578
-0.38448557 0.5335198 0.055924442
-0.24374914 -0.26380956 -0.27109194
-0.17422114 0.17072323 -0.090003185
-0.058323346 -0.23026997 -0.95077556
0.2014025 -0.42041868 0.72269303
-0.31445271 0.40518111 0.49096608
-0.0067505175 0.10820771 -0.74212229
-0.46935877 0.5345962 -0.38731024
-0.29363886 0.040184449 0.74307567
0.14805454 0.55569535 0.52695596
0.20476927 -0.39084283 0.21309958
-0.0027611898 -0.0038184847 -0.029627604
0.096883051 -0.27734694 -0.27146336
-0.049633611 -0.024497237 -0.042853117
0 0 -0
0.78509444 0.50950897 0.16287233
0.24557023 -0.44619489 0.27749845
0.010558056 -0.00034848592 0.038579863
-0.2610175 -0.041256256 0.70190299
0.0039599594 0.0025453775 -0.10989922
0.97875065 0.010615793 -0.14843993
0.071653895 -0.79659134 0.017549261
0.014768395 0.0081090983 -0.60976726
0.026056919 -0.018315418 0.55909353
-0.19376521 -0.10415506 0.33407602
0.020416774 0.051366553 -0.25405633
-0.40208527 -0.30982098 -0.049379926
-0.047534924 -0.027398892 -0.37601826
0.098140605 0.035030402 0.39653662
0.009490652 -0.028501386 -0.30854109
-0.44875604 0.18378398 -0.73433065
0.035049476 -0.081160046 0.28667855
-0.47578514 -0.19771945 0.16166498
0.3268815 0.12505811 -0.0029930379
-0.1772728 -0.013184916 0.12961678
-2.4443296e-05 -0.00074321893 -0.029990781
0.0064137229 0.0054465835 -0.0054035997
0.25055015 -0.25505981 0.22038397
-0.4141039 0.32527286 -0.26611182
-0.3639482 -0.5127176 0.52636713
0.11736069 -0.15069421 -0.35145089
-0.404634 0.71980685 -0.27395147
-0.009961091 -0.081744179 -0.2466144
0.14423791 -0.18265417 0.94166499
-0.10569856 0.52675241 0.26713243
-0.19732127 -0.042145416 -0.63889605
0.17364708 0.58288139 -0.19923843
0.42170304 0.41059589 -0.040957477
-0.08485207 0.37834874 -0.45787814
-0.13455513 -0.61238825 -0.63164508
0.034564957 0.0011280262 -0.14595887
0.160653 0.23859237 0.14022939
0.098118983 -0.045173869 -0.76238573
0.02408663 -0.014854547 0.5893209
-0.18968992 -0.00039259178 -0.35216132
-0.084387586 0.53999841 0.22221695
-0.36346006 0.18558325 -0.099275358
-0.56366378 -0.2045043 -0.71088761
-5.9801107e-05 -0.018213445 -0.0082623763
-0.14381841 -0.058708973 -0.58988941
0.13079175 -0.47030729 -0.14766367
0.054344352 -0.049717061 -0.14203839
0.3338429 0.42087615 0.63270223
0.036534477 0.043855682 0.069583841
0.25331584 -0.12159649 0.13094036
0.38031101 0.055449314 0.58505458
0.061408672 0.10692879 -0.27348712
-0.14287329 0.024666063 0.067666903
-0.24309611 0.57257628 0.32103056
-0.025807748 -0.015129807 -0.002247015
0.42094576 -0.17897673 -0.048702955
-0.1471391 -0.89564091 -0.065402396
-0.017942889 0.093728796 0.26323557
-0.15670604 0.26584008 0.029534107
0.0010384417 0.029901931 0.0021900143
-0.25031018 0.95672369 0.046093196
-0.40207648 -0.017745957 0.1200815
0.76243049 0.53421015 0.30613616
-0.284962 -0.65128499 -0.165905
-0.25218415 -0.087923653 -0.039655801
0.046527233 -0.025597367 0.045606922
0.087556407 -0.34802425 -0.60100996
-0.10420113 0.23310785 0.52077138
0.31686601 -0.13875437 0.2382082
-0.21954955 -0.076706238 0.31307209
-0.37832028 -0.74007028 0.3182289
-0.87560385 -0.43143305 0.087083258
0.020294745 0.038377397 0.12253692
0.25716928 0.047947168 -0.066820942
-0.30120566 0.24098161 0.26852
-0.33812568 0.67326438 0.32370678
0.34869304 0.31493086 0.74406427
0.056990024 0.08183641 -0.26163894
0.63932908 0.33172733 -0.55616117
-0.1260073 -0.020228362 0.30432382
-0.038121246 0.018105136 0.84895176
0.057392489 -0.14102764 -0.096006818
-0.065475129 0.10519601 -0.065167516
-0.36823496 0.038293999 0.15144838
0.064080477 0.025425367 -0.12184927
-0.53297925 -0.76163077 0.02741907
-0.094698586 -0.27741194 0.63566881
0.3212572 -0.18013637 -0.15602787
0.31416109 0.21637389 0.74838835
0.64692211 0.27701721 -0.40106511
-0.73872304 -0.33827528 -0.28188312
-0.21353684 0.15808284 -0.42357033
0.14674002 0.060355805 -0.020604365
0.072648473 0.10865947 -0.83989006
0.51543719 -0.58293295 -0.053978592
-0.03443481 -0.73793203 0.17852308
0.021007955 0.078131162 -0.83609456
0.37509438 0.1252923 -0.67231387
-0.44412649 -0.27725261 -0.36807963
-0.0028862588 0.091100097 0.33792374
0.075253353 0.057219591 -0.83466327
0 -0 0
0.28752062 -0.10522693 -0.093054734
0.36540124 0.80089223 -0.29992259
-0.44635263 -0.14927286 0.43368986
0.13704354 -0.049111258 -0.40460742
-0.014491191 -0.035020545 -0.12435259
0.031651851 -0.024473703 0.091647141
0.099003509 0.54662937 0.356363
-0.015900373 -0.33486599 -0.64846897
-0.10998117 0.011461488 0.11564071
0.17903674 -0.18132325 0.08926215
0.044997644 0.29011923 -0.061693285
0.18224515 -0.17852592 0.29498336
0.32848662 -0.81629527 0.30109563
0.15822946 0.098162964 -0.55984592
0.093967892 -0.11084272 -0.26245749
-0.26190087 0.48240778 0.52563357
0.33875248 -0.21866456 0.074381068
-0.022545487 -0.064839214 -0.085951015
0.0021999907 -0.046902176 0.13189141
0.012774037 0.019926794 -0.40931621
0.10835768 -0.32818556 -0.23864792
-0.012284881 -0.32636034 -0.094541073
0.025163844 0.032545839 0.043675497
0.18236302 -0.19493964 -0.22636752
0.15239972 0.23992848 0.9483189
-0.046786308 -0.28562593 0.15852092
0.086005442 0.074562199 -0.1644492
-0.29937083 0.17124076 -0.63202351
0.086824276 -0.071744621 0.21192983
0.27521455 0.31412736 -0.51105869
0.2677598 -0.064456925 -0.34314719
-0.3763262 0.86994642 -0.15222283
0.41397476 -0.41345119 -0.2051414
-0.21269862 -0.58082438 -0.042454511
-0.018884549 -0.090629809 0.34789312
-0.20655917 -0.2260872 0.4325712
0.0020623433 -0.0035378484 -0.17995343
-0.0089638056 -0.0025583433 0.017694775
-0.29858959 -0.010087212 -0.027249252
0.022310598 0.069938302 0.17524517
-0.92837036 -0.027266411 -0.24286835
-0.073581509 -0.091661409 0.42400938
0.0093411701 -0.00055771373 -0.0035258313
0.050040822 -0.060445938 -0.01556293
-0.042145479 0.067005374 -0.80612284
0.049026325 -0.18928388 -0.41637489
0.19891118 0.053941805 0.27041566
-0.62322509 -0.013953062 0.54799253
-0.013568254 0.014209862 -0.077549867
0.1613832 -0.11282831 0.11884966
-0.0010395506 0.021928698 -0.20884934
0.027359385 0.31066084 0.86552948
0.20840162 0.11860204 -0.010115307
-0.65872067 0.25239095 0.1878452
-0.092295691 -0.20957343 -0.72467959
-0.70267934 0.13902201 -0.35625067
0.55023456 0.072098836 -0.47428235
-0.093273222 0.028296096 0.20832533
-0.16747724 -0.37643373 0.36434743
-0.3184109 -0.23623419 -0.21285653
0.22389275 -0.33734336 0.42915198
-0.16546808 0.17449236 0.34434387
0.54240191 -0.0029612507 -0.75544119
0.086506829 0.065737464 0.1912986
-0.31571832 0.30488804 -0.099323772
0.8163144 0.20688479 0.48138303
-0.11042767 -0.5947156 -0.56834763
-0.0069429264 0.19704765 0.097591065
-0.25549918 -0.62487936 -0.081522681
0.085125089 0.012944415 0.49253038
-0.29119587 0.067335971 0.2806614
-0.88721782 -0.068954527 -0.013774554
0.12304155 -0.300255 0.19775668
-0.29143986 0.3856214 0.7473011
-0.029732672 0.00080119976 0.0039148685
-0.10490567 -0.057148043 -0.011353441
-0.45409939 0.35514617 0.27796575
0.77444786 -0.084068492 -0.47038612
-0.1602838 0.22585931 0.77181387
0.54346466 -0.64037919 0.35022953
0.41659996 -0.20571347 0.070897371
-0.10205435 0.30900285 -0.60844243
-0.090574376 -0.4640961 0.19107878
-0.061637461 0.65151507 0.2186981
0.66574275 -0.62834454 0.25390866
0.0010123776 0.054759797 0.043592889
0.083424367 -0.13845916 -0.33282045
0.015668334 0.027701885 -0.084184967
-0.28498688 -0.7993269 0.42703518
-0.023804631 -0.017740136 -0.052140456
-0.23778746 0.016490595 -0.28299329
0.099100672 0.30433258 0.3303948
-0.40194058 -0.31363329 0.55007088
0.061434388 0.21043588 -0.018508198
0.032261088 0.023851423 -0.029838428
0.14183635 0.26921713 -0.66355449
0.19492988 -0.051610321 -0.11062872
-0.35020202 -0.74475539 -0.28213125
-0.32712397 -0.21383652 -0.15383054
-0.2753436 0.24791753 -0.39283943
-0.64702606 -0.34326282 0.20280007
0.0047578746 0.0056685954 0.018580357
-0.27585196 -0.15026955 0.65895736
0.18573433 0.74450529 0.064145289
-0.18422845 0.15839675 0.48225552
-0.41439095 -0.31219637 -0.28091553
0.53481507 -0.22023094 0.043256968
0.022024652 -0.094217271 -0.60227734
-0.062193636 -0.067670107 -0.091938607
-0.13848893 0.28708419 0.35889199
-0.014839341 -0.072877742 0.029472496
0.00052381994 0.046148621 -0.41745663
-0.054637514 -0.22945209 -0.65906483
0.19951031 -0.35673639 0.25166395
0.052947354 -0.05760758 -0.40246484
0.061648741 0.20639986 -0.42895046
-0.19419594 -0.11442862 -0.12959176
0.31681952 -0.45126075 0.28352982
0.066728599 0.10501448 -0.083781004
0.020082796 0.097591728 0.32507312
-0.017604794 -0.017108245 -0.22868621
-0.38317078 0.44038159 0.47089726
0.05415751 0.06657391 0.29788402
0.13215388 0.052543372 0.18076101
0.16844405 -0.32799253 -0.58322161
-0.25440839 -0.062728018 0.18368877
-0.20610332 0.2141525 -0.11857538
0.16933773 -0.76323766 -0.57418895
0.036056645 -0.010008273 -0.092734858
0.6823383 -0.083693698 -0.059243903
-0.0057691373 -0.083990969 -0.23539804
0.19918729 -0.5024659 0.21036254
0.038173571 -0.067033619 -0.19531839
0.26968309 -0.23644429 -0.031066693
-0.061567519 -0.13148086 -0.28517053
0.096477173 0.073826052 0.087987915
-0.018793199 0.32607526 0.29482496
0.25297603 0.14694554 -0.066408835
-0.16568443 0.1896715 0.22841497
0.018865326 0.17021415 -0.055418834
-0.48888001 -0.030031497 0.69469023
0.37773791 -0.22564104 0.0004351477
0.25915802 0.70909697 -0.39053631
0.28793374 0.11896339 0.13616857
-0.43674412 0.60247391 0.45075464
0.72946155 -0.37197664 0.22807728
0.00017821295 -9.5090008e-06 -0.27999994
-0.19184245 -0.21562432 0.90509814
-0.052819945 -0.16487947 0.94425887
0.16565411 -0.22631523 0.41393253
0.12128577 -0.36019477 0.12469764
0.36265725 0.73178279 0.42352545
-0.38525957 0.60909456 0.41167808
0.76042598 -0.34639797 0.43053529
0.97594368 0.083779715 -0.030247333
-0.035144221 0.022226814 0.14412098
0.11395357 0.18030635 0.78141165
-0.068486966 -0.078408703 -0.27066883
0.057793651 0.055169128 0.0040326151
-0.55235994 -0.27671066 -0.42524073
0.0076397671 -0.001252256 -0.039243672
0.27749965 0.11203992 -0.61060703
0.41202697 0.52962488 0.47130799
0.5861358 0.22204486 -0.063568495
-0.00021631812 -0.00050065946 -0.019992562
0.029069409 0.10611167 -0.28981939
0.023886902 0.1769857 0.022482961
0.00040110343 1.9846402e-05 0.069998845
0.057043768 0.059876688 0.31946954
-0.028589221 0.0081342701 -0.24822669
-0.0087334057 -0.048045248 -0.050153583
-0.094732337 0.040910713 -0.094615526
0.18958391 0.013592895 -0.90015173
0.46772358 0.59858507 0.023033697
0.27944484 -0.2122802 0.41042382
-0.16286056 -0.14862876 -0.59015757
0.011924698 0.10970368 0.36362466
-0.050913945 -0.48123896 0.38757813
0.0062249745 -0.2929379 0.73365432
-0.36826119 0.014126762 -0.032926273
0.13581084 -0.37474656 -0.033472922
-0.21676862 0.014473798 0.14283511
-0.15037347 -0.87224442 -0.28544262
0.02772088 -0.040561102 -0.23491774
-0.0035614311 0.014195303 -0.1191042
-0.078237973 -0.035370357 0.026977003
-0.13122512 -0.084464751 -0.78463095
-0.54670465 -0.068227537 -0.10029455
0.30858278 -0.020342855 0.62798315
0.37532514 0.35968584 -0.63415855
0.14894305 -0.0094204992 0.01507385
-0.11448261 -0.052702542 -0.2159078
-0.69995266 0.39147764 -0.11362895
-0.026222503 -0.060853384 0.63656044
0.03982576 -0.020130051 0.42767826
0.29450572 -0.58033478 0.10989976
-0.55494612 -0.35396433 0.23821016
-0.22685853 0.072083317 -0.076414667
-0.74629486 0.44376057 -0.054958828
-0.3051511 -0.25237119 -0.056494202
-0.091084696 0.0040154336 0.041078653
-0.12227269 0.546462 0.0053500836
-0.78009725 0.42101452 -0.24616067
0.52634978 -0.32036445 0.13123457
0.082182109 -0.056071896 0.43886447
0.25290191 -0.91271752 -0.15680341
-0.18142475 -0.5104847 -0.58863437
0.18041393 -0.2641418 -0.1152385
0.65972102 -0.10278159 0.26945174
0.2185313 -0.34857044 0.61509573
-0.6972062 0.32573578 0.026450992
-0.26415735 -0.094500154 -0.67393667
0.0309011 0.097672783 0.88408434
0.16223833 0.10720258 -0.079286322
-0.13042133 -0.066651575 0.93864149
-0.042279679 0.017626256 -0.73858088
-0.012715565 -0.55257648 -0.37867868
-0.0019147861 -0.0012806635 0.59999561
-0.039989691 0.00016446385 0.00089295901
-0.22296713 0.06869591 -0.11474546
-0.048514541 -0.024603993 -0.058659893
0.24089408 -0.30620542 0.54507643
0.17885371 -0.20217671 0.0059941835
0.21827605 0.029079249 -0.65391892
-0.12161639 -0.0067013619 0.6181137
-0.010549526 0.4380843 -0.13989586
0.76731634 0.42834076 0.19429277
-0.08133243 -0.045197822 -0.64330566
-0.018478638 -0.06207275 -0.48570105
-0.034618527 0.039106529 -0.27508587
0.10980762 0.21492237 0.34373051
-0.0072244829 -0.0072646108 -0.017176503
0.14606701 0.0020262117 0.065271109
0.10133664 0.67719972 0.30599254
0.0785257 0.31298548 -0.29912168
0.12290458 -0.14768076 -0.055541493
0 -0 0
-0.058249317 -0.45156521 -0.4915241
0.031155467 -0.0019342877 -0.50904381
0.071597926 0.45576936 -0.62892604
-0.10250419 0.67702216 0.25304922
0.43051815 0.19183207 0.40280843
-0.11545443 -0.17764241 0.059274368
0.00086511864 0.82321233 0.38784117
0.24261081 -0.10622281 -0.32597038
-0.017069394 0.072248325 0.20709616
0.0010119112 0.030886922 0.56916165
0.099681728 0.03535451 0.10636547
-0.014685307 0.037699278 -0.057123605
0.44205052 0.024339581 0.72560251
-0.012931837 -0.010107277 -0.83983958
0.036376331 0.070633106 -0.0093662422
0.70416468 0.33687302 -0.17512472
0.11456702 0.18301275 -0.079251103
0.10554431 -0.023398887 0.020319693
0.51607853 -0.023792209 -0.26362255
-0.10632008 0.0020147422 -0.028142171
-0.061959714 -0.024198689 0.044445667
0.010116394 -0.15732811 0.12306714
0.12484941 -0.35504979 0.26448491
0.14571296 0.052843641 -0.03968982
0.083539791 0.20987524 -0.04328382
-0.20784962 0.36561981 -0.60886836
0.27291578 -0.025339764 0.18377945
0.18666658 -0.18654992 0.057050157
-0.069139436 -0.28800502 -0.45152286
0.032728981 -0.04054343 0.32586047
0.024586525 -0.12904051 0.091345757
-0.16497369 -0.60618454 0.33079296
0.0030468053 0.0033046016 -0.0089328932
-0.013778666 0.082287714 0.30893183
0.25967357 -0.15035011 0.27940023
0.086783603 0.07983546 0.40310654
0.39577985 0.1026003 -0.35274857
-0.013240708 0.0059972289 0.70985121
-0.022268528 -0.16393258 -0.33095351
0.040217262 0.18479306 0.17842111
-0.25480908 -0.30506018 -0.18870775
0.47122663 0.16237839 -0.35167983
0.017967416 -0.18135419 -0.77896589
-0.087216854 0.37142235 -0.21917723
0.057141226 0.31423351 0.019803608
-0.00056501344 -0.015026263 -0.088734955
-0.0037191939 0.0018754684 -0.029709429
-0.48221406 0.23700477 -0.73443741
0.032828636 0.14340721 0.3065235
-0.069370009 0.37649897 0.21687858
-0.068596356 -0.063390709 0.7743876
-0.10517807 0.38329333 -0.30335423
0.2311255 0.093045391 0.20080724
0.027839854 0.19480069 0.073332295
0.45631212 -0.64944398 0.2426967
0.72518814 0.60638535 0.094334193
0.093076065 -0.12852699 0.2427296
-0.16220054 -0.052128848 -0.1047548
0.81851894 0.4847658 -0.18954927
0.25090668 0.45023823 -0.41222736
-0.028231027 -0.044197064 0.046364088
0.17258559 -0.28601491 -0.23771763
0.20543008 -0.13507788 -0.87615782
-0.016488235 -0.00041861969 0.078281306
0.049880587 -0.034984663 0.26303613
0.21518958 0.026826106 -0.31204775
-0.74950248 0.12517823 -0.42364657
-0.17410423 0.48557645 0.62450242
0.85632229 -0.30560055 -0.037689637
-0.046794236 -0.046283651 0.023835327
0.025467096 0.0094838524 -0.053492833
-0.5939362 0.54030907 -0.16645119
-0.54769409 -0.79822212 -0.15255347
0.22618134 0.26571858 -0.088519208
0.27249011 0.2547664 -0.14437176
-0.025538865 0.053122316 0.40574104
0.13257554 -0.011024665 0.5026949
-0.42028612 -0.11281104 -0.64732778
-0.45215344 0.27342382 -0.28424758
-0.13638878 0.30935398 0.036030795
0.065505713 0.011935138 -0.4349328
0.021439917 0.038969938 0.18472053
0.61090422 0.12655874 -0.087629497
0.031775724 0.064637452 -0.034818139
-0.26351213 0.46765977 -0.56591129
-0.033103429 0.049951758 0.0029973658
-0.1317873 0.26875854 0.23409605
-0.0019230583 -0.001798098 0.069950476
-0.053305432 0.24622412 -0.83272576
0.53595525 -0.38691419 0.23032442
0.29133755 0.34501994 -0.6359902
0.241483 0.36610556 0.50651032
0.043396093 -0.15554361 -0.25282994
-0.06065933 0.017981069 -0.06400881
0.15775898 0.20008133 -0.60883462
0.020307068 -0.21834841 -0.017652005
0.34331137 -0.56465793 -0.31015933
0.014366767 -0.024662942 -0.041052837
-0 -0 -0
-0.23796317 0.057522062 -0.47006881
-0.069814853 -0.11492842 0.14804508
0.070157491 0.36663279 -0.50750202
0.59694439 0.056957126 -0.020330068
0.036426995 0.12002361 0.062188491
-0.14460516 0.077658542 -0.53540498
-0.13177289 0.51094806 -0.65358078
0.024662593 0.026345808 0.32802081
-0.11379501 0.054778945 -0.030821394
-0.0027563788 -0.018894758 0.0059489892
0.38446188 -0.15576442 0.4195551
0.52480024 -0.49247509 0.021284636
-0.39850777 -0.21774437 0.71852553
0.12320022 0.44797897 -0.49652448
-0.041538171 0.14080022 -0.35049945
0.31537592 0.043845505 -0.44845915
-0.072530068 -0.35513514 -0.24943618
0.0074440157 0.050387856 -0.11960623
0.23372753 -0.24669743 0.41965681
-0.0085518546 0.068601541 0.71667337
0.026219225 0.096293487 -0.0063337865
0.31406656 0.18585317 -0.7676723
-0.12324089 -0.031800795 0.24940006
-0.0056913146 -0.045821261 0.03831476
0.016858095 -0.0056219869 0.0091759386
0.16183732 0.2216866 0.093614794
-0.0051616621 0.00076199224 -0.0085309204
0.30601647 0.84392941 0.24297549
0.51256216 0.62330914 -0.069755033
0.35314777 0.47419259 0.29330543
0.0023803802 -0.013310415 -0.048136961
0.45625588 -0.02050625 0.11095066
0.15758085 -0.045459025 0.044740908
0.05948519 -0.05216499 0.27899879
0.026175011 -0.083494373 -0.40055406
0.54318541 -0.40947643 -0.20341726
-0.29259709 -0.22261088 0.64220816
-0.094431445 -0.3449873 -0.80403137
0.45137307 -0.71782774 -0.47104749
0.047559969 -0.023228094 -0.62777269
-0.075298391 -0.229214 0.31904718
-0.30610508 -0.20369543 -0.1300302
0.70413893 -0.04589292 -0.41771054
0.03819786 -0.0078722611 -0.0088854423
0.070750043 0.7369523 0.11998215
-0.5616557 -0.34004146 -0.60084498
0.39876202 0.1165809 -0.25980332
0 -0 0
0.0093729729 0.015453069 0.057213198
-0.44630671 0.24565339 -0.53671658
-0.018881572 0.020517286 0.75948834
0.044754513 0.20848881 0.086194299
0.3867133 0.12246931 -0.32535222
-0.28858909 0.19351938 -0.83022076
0.42531452 0.048854023 -0.10159156
0.34155333 -0.58399785 -0.068467364
-0.063612826 -0.0014782742 0.4050324
0.069361016 0.0014341387 -0.13299246
0.33560839 0.058875382 -0.08000432
-0.055832222 -0.26717654 0.14696755
0.13462989 0.70897925 0.11010554
-0.036700115 0.085449398 0.66351449
-0.019699365 0.00082246301 0.58967042
-0.03442033 -0.14070697 0.70527786
0.15632777 -0.20060405 0.22565383
0.14960556 0.85187811 0.093924582
-0.13307232 -0.51735795 0.078946605
-0.044807274 0.024024557 -0.074263915
-0.79877174 -0.34578755 -0.3275587
-0.027831873 0.0036356011 -0.010590995
-0.0083420407 -0.0054630926 0.0007516442
-0.071386062 -0.054203667 0.29675913
-0.11017103 -0.086593509 -0.26526198
0.66004562 0.4182933 -0.24853659
-0.79924703 -0.11452798 0.46150574
0.31697786 0.37850797 -0.70417094
-0.053555638 -0.0087308493 -0.044221781
-0 -0 0
0.48730069 0.2456181 0.45421338
0.010749362 0.077330858 -0.22694577
0.62560159 0.51098621 0.32313424
0.21663125 0.12933546 -0.24257624
-0.61772931 0.62289405 0.389889
-0.079314604 -0.011971451 0.69538897
-0.45439571 0.17936611 0.14646612
0.16658936 0.20529322 0.22935276
0.0744709 -0.018081911 -0.89673132
-0.076962009 0.051867664 -0.037236985
0.18481417 -0.028821116 0.59111172
-0.086793035 -0.26158217 -0.049413875
-0.076524496 0.27147013 -0.88619858
-0.25336394 0.032548428 -0.22438207
0.011728548 0.0056441817 -0.13939363
-0.81685978 -0.33682659 0.40023491
0.24326734 0.4058851 -0.26015055
-0.051414661 -0.45784277 0.54021895
0.3541021 -0.024543971 -0.060077503
-0.2167515 -0.2770893 -0.42277691
-0.075616837 -0.070974998 0.34473851
-0.07380458 0.0089261066 -0.20705846
0.12168771 0.43224183 -0.56281358
0.22551508 -0.18973595 -0.76520795
-0.36450291 -0.39441809 0.69711691
-0.08209569 -0.021142555 0.71499187
0.11743903 0.40533882 0.48115334
