# .PCD v0.7 - Point Cloud Data file format
VERSION 0.7
FIELDS x y z
SIZE 4 4 4
TYPE F F F
COUNT 1 1 1
WIDTH 360
HEIGHT 1
VIEWPOINT 0 0 0 1 0 0 0
POINTS 360
DATA ascii
-0.013577843 -0.029669488 0.99946755
0.66178471 -0.74738026 0.058854416
0.65521538 -0.52026778 0.54773545
0.7638945 0.2112774 0.60977626
0.82775438 -0.47249582 0.30260587
0.1019388 0.37758324 -0.92034739
0.30726603 0.83838975 -0.45021141
-0.1671346 -0.95568645 0.24234158
-0.59478295 0.78353417 0.17974263
-0.62761319 -0.1103555 0.77066422
-0.92053694 -0.38977134 -0.026266878
-0.86904615 -0.020768419 -0.49429491
0.68629068 -0.7091285 -0.1616845
0.23464367 -0.90688396 -0.35000536
0.041083373 -0.33270627 -0.94213521
0.051850829 -0.33269045 -0.94160956
-0.31717408 -0.47965598 0.81812638
-0.68310815 0.7060287 -0.18677999
0.1367452 0.57380956 0.80749202
0.83100873 -0.27191594 0.48526916
0.66764867 0.7415908 -0.065485239
-0.24122377 0.88443434 -0.39948347
-0.78257519 -0.26618671 -0.56277943
-0.17133993 0.070276879 0.98270231
0.89798188 -0.23151581 0.37420443
0.074130312 -0.41055977 0.90881538
-0.089579344 0.27801612 0.95639038
0.29668185 -0.25936642 -0.9190805
0.57318914 0.60107064 -0.55692756
-0.76137918 0.25157878 -0.59750295
0.91638678 -0.2769559 0.28901669
-0.18924336 0.26192582 -0.94635183
-0.64433247 0.7423687 0.18364212
0.18403265 0.29204896 -0.93853045
0.53356034 0.62291521 0.57209259
0.26378655 0.94664085 0.18516937
0.028722247 -0.25456303 -0.96662956
-0.0089678578 -0.0063490276 0.99993962
-0.76806045 -0.0674854 -0.63681149
0.066967569 0.43310091 0.89885426
-0.32342172 -0.003766017 0.94624746
-0.050423376 0.00083089015 0.99872756
0.13605082 -0.58699495 -0.79807717
0.98110485 -0.16508967 0.10088989
-0.81662667 -0.31741852 0.48204383
0.32014298 -0.76125395 0.56391567
0.093143687 0.12243301 0.98809636
0.6376906 0.61869216 -0.45887986
-0.096375227 0.085084245 0.99170184
-0.34547445 -0.20959812 -0.91472185
-0.21539986 0.17083783 0.96146625
0.13815726 -0.50156248 -0.85401857
-0.23799086 0.86641407 -0.43896118
0.97347325 -0.11536332 0.1975881
0.58529866 -0.28934827 -0.75743186
-0.098063208 0.50708115 -0.85630149
-0.19010139 -0.75667143 0.62554759
-0.042351332 -0.33942562 -0.93967903
-0.019538213 -0.031142168 0.99932396
-0.46774113 0.28825107 -0.83554143
0.25945199 0.2640169 -0.928967
0.034035183 0.30161718 -0.95282143
0.21666302 -0.1829486 -0.95895094
0.20003217 -0.94676912 -0.25222105
-0.18691263 -0.21971777 -0.95749032
0.28112972 -0.95755583 -0.063662827
0.19702034 0.32595077 0.92462915
0.3176814 0.83685446 0.44581741
0.51919931 -0.068721086 0.85188586
-0.065619275 0.81743985 -0.57226408
0.67557913 -0.63206208 0.37959239
-0.26204833 0.44459605 0.85654247
-0.39259407 0.82176709 0.41299969
0.61994553 0.38363186 0.68446624
0.026669001 -0.22568603 0.97383499
0.0011073725 0.0035270248 0.99999315
-0.14694206 -0.95702922 0.25000605
-0.36470208 -0.64397126 0.67252767
-0.2367681 0.96200883 0.13594042
0.43804726 -0.3744379 0.81725818
0.34538639 -0.72150427 0.60011649
-0.72020572 0.19793324 -0.66492563
0.025555333 -0.19151609 0.98115671
-0.88725966 0.34702554 -0.3038809
0.00093807466 -0.0018980867 -0.99999774
0.30727658 0.45926219 -0.8334623
0.011945558 0.55309957 -0.83302951
0.031408511 -0.10947031 0.99349374
0.70424402 0.25818327 0.66134846
-0.94808483 -0.30313417 0.096149936
0.59799474 -0.54100001 -0.59137231
-0.0019793583 -0.010289988 -0.9999451
0.39149806 0.89744496 0.20327759
-0.16753696 -0.97288638 0.15944752
0.17671402 -0.28287801 0.94273657
-0.7921772 0.58196998 0.1837559
-0.24257891 0.87211025 -0.42494607
-0.59900439 -0.76678568 -0.23072377
0.72231323 0.027440142 0.69102144
-0.34556368 0.80606073 0.48047039
0.2009321 -0.8137576 -0.5453667
-0.35349768 -0.07308197 0.93257624
-0.41440353 0.10216855 0.90434027
-0.6578151 -0.49446392 -0.56814146
0.054669928 0.21061048 0.97604018
-0.51611513 0.79001355 -0.33091354
-0.75158256 0.5270009 0.39672872
0.21150251 0.66871351 0.71280354
-0.84509516 0.27694371 0.45729241
-0.75803 -0.30091977 0.57865167
-0.45398796 -0.09967944 -0.8854146
0.46390605 -0.15592042 0.87205505
0.33238715 -0.75794232 -0.56128627
-0.71530485 0.57775378 0.39311513
-0.34323594 -0.70585358 -0.61964482
0.30420423 0.42381373 -0.85313636
-0.18111111 -0.36640611 0.91265839
0.74285603 0.0073954272 -0.66941035
0.98366284 0.063618176 -0.1684051
0.53831059 0.80203754 0.25876173
-0.013961825 0.36952049 -0.92911768
0.0094966209 -0.022970023 0.99969107
0.84797662 0.33498681 -0.41075474
0.0044060736 0.1705198 0.98534441
-0.10983878 0.045297943 0.9929167
0.192085 -0.61821473 -0.76217705
0.032993335 -0.34134212 0.9393599
-0.014126546 0.043737262 -0.99894321
-0.45271716 0.72145259 0.52397835
-0.54908735 0.38368788 -0.74248683
-0.17140789 0.12800063 0.97684962
-0.62289971 0.064216964 0.77966154
0.064850204 0.80530727 0.58930016
-0.042147245 -0.17960919 0.98283476
0.02668906 0.016797924 -0.99950266
0.97646213 -0.20318817 -0.072361581
0.62599224 -0.69005728 -0.36325565
-0.36499003 -0.0094045717 -0.93096393
0.21347718 -0.76366889 0.60929251
-0.00013353265 5.6184115e-05 -1
0.22051923 0.080993764 -0.97201401
0.055798344 0.1845641 -0.98123527
0.77565211 -0.093530461 -0.62419212
-0.030785821 0.021645639 0.9992916
-0.2631458 -0.72496402 -0.63653868
0.33420485 -0.54731816 -0.76730049
-0.58164358 0.70989197 0.39717022
-0.38593629 -0.67512894 -0.62869239
-0.32344127 0.87873238 0.3510201
0.55519855 -0.8286705 0.071132153
-0.00059585791 -0.96688062 0.25522831
-0.039557051 -0.69521034 -0.71771711
0.83673489 0.53870285 0.098355837
0.059723824 0.017065685 -0.99806905
0.99251699 -0.030926451 0.11812509
-0.17767137 -0.15773527 0.97136629
0.1288411 0.58451331 0.80108935
0.52932984 -0.54677165 -0.64873004
-0.27215013 0.56158274 -0.7813828
-0.30605078 -0.031770729 -0.95148492
0.17919102 0.098935686 0.978827
-0.74732405 -0.60961026 -0.26435235
-0.31420851 -0.61293286 0.72497332
-0.3156873 -0.072641037 -0.94607866
-0.13231821 -0.19983585 0.97085404
0.71138501 -0.70005405 0.062094305
-0.33239725 -0.85905474 0.38927746
0.98396415 0.14938201 0.097465351
0.25587627 -0.30041128 -0.91884732
0.37811586 0.65525615 0.65396321
-0.92922866 -0.29668644 -0.22025272
0.33077005 -0.21463285 -0.91897988
-0.14744137 -0.10865688 -0.98308432
0.3663303 -0.091537163 -0.92597145
-0.77428222 -0.28262016 0.56622696
0.25904116 -0.10387441 0.96026444
-0.48370832 0.86433291 -0.13767628
0.50648391 0.26018566 0.82205689
-0.032896444 0.065109827 0.99733573
-0.98217678 0.083199337 0.16854273
0.23158267 -0.012426667 0.97273588
0.75431961 -0.63858235 -0.15236311
-0.74250358 0.093517818 -0.6632818
0.87134767 -0.19482906 0.45032749
0.91007006 -0.11235815 -0.39893365
0.30987093 0.94706112 -0.083995722
-0.31196886 0.18729836 0.93144768
-0.2685324 0.93982923 0.2112141
-0.14376393 0.12065113 0.98222971
0.061824154 -0.025415761 -0.9977634
-0.069132373 -0.63776362 0.7671234
-0.87423605 -0.48469359 0.027990988
-0.64282316 0.32532808 0.69349837
0.83704293 0.39277384 -0.38090402
-0.00014908466 0.0013411003 -0.99999911
0.076405436 0.6461646 0.75936395
0.099586688 -0.055397436 -0.99348557
-0.93161392 0.3567349 0.06953948
-0.93508869 -0.18835323 0.30022025
-0.048542585 -0.91999614 0.38890979
0.14687529 0.03621871 0.98849171
-0.64972222 -0.17433085 0.73991209
-0.53602493 -0.17173979 0.8265487
0.86399174 -0.17921175 -0.4705331
-0.58839148 -0.3803845 0.71351469
0.68759435 -0.62327695 0.37247792
0.16327877 -0.7859391 -0.5963555
0.3389886 -0.28706133 0.89592552
0.36799669 0.34326619 -0.8641451
0.48614824 -0.13159212 0.86391169
-0.9844541 -0.089163832 0.15132767
0.42000505 0.54981488 -0.72201061
0.26697829 -0.69129413 0.67144251
-0.44447792 0.77532828 0.44867083
0.9058935 -0.029828064 -0.42245394
-0.48282927 0.64410716 0.59329742
0.40368906 0.040053621 0.91401905
0.96740311 -0.087367997 0.23769315
0.090943091 0.72403151 0.68374544
-0.55555981 -0.011562516 0.83139622
0.49272624 -0.60726261 -0.62325996
-0.60395646 -0.78476465 0.13921577
-0.57325214 0.79439467 -0.20079578
-0.24022152 0.33449626 0.91126609
0.37979895 -0.019646049 0.92486042
0.40611655 -0.51653451 -0.75383121
-0.077190049 0.001820846 0.99701476
-0.025920393 0.010313202 0.99961078
-0.53698885 -0.34170538 -0.77128494
-0.17129976 -0.22140016 -0.96002001
-0.50162899 0.71820295 0.48223731
-0.022469239 -0.020625932 0.99953473
0.76800615 -0.62189049 -0.15303181
-0.86749375 0.42254004 0.26251569
0.93583667 0.35010979 0.040408887
0.71313673 -0.26571256 0.64871627
0.35838991 -0.79657334 0.48685476
0.84240198 0.31259674 0.43891034
0.62098473 0.6026668 -0.50116926
-0.60959482 -0.69786555 0.37600258
0.23000374 0.96407181 0.13290536
-0.074996322 -0.070909068 0.99465948
-0.49267474 0.018605975 -0.87001461
0.68444717 0.059826739 0.72660363
-0.43338692 0.75591475 0.49068171
0.44255218 0.79483128 -0.41519967
0.42698643 0.64247239 -0.63632679
-0.43604639 -0.11976255 -0.89191955
-0.44232801 0.36033523 0.82128221
-0.17420514 -0.31734207 0.93217307
0.49415568 -0.35104188 0.79534888
-0.64786291 0.74761939 0.1460779
0.11246732 0.36294106 -0.92499995
0.63500482 -0.55447954 0.53788596
0.37051505 -0.71745795 -0.58989209
-0.24750385 0.099462934 0.96376812
0.46460125 0.038794626 0.88466978
0.010418992 0.68196875 0.73130715
0.06633132 0.062290881 0.9958514
-0.12031511 -0.077888109 -0.98967558
0.49019557 -0.26741743 0.82957596
-0.089075692 -0.098191455 -0.99117303
0.78758174 0.24457291 0.56559622
0.56824595 0.57165742 -0.59186512
-0.42128 -0.54967386 0.72137499
0.41162971 -0.35245836 -0.84043688
-0.4735558 0.30510408 0.82623023
0.001233473 -0.011780283 -0.99992985
0.46822953 0.86630684 0.17399301
-0.86607957 0.36914134 -0.33710653
-0.017315896 -0.033385169 0.99929255
-0.97508377 -0.22183557 0.00076247449
-0.6517663 0.28307423 -0.70361185
-0.13867947 -0.38038155 -0.91437298
0.61058956 0.17579626 0.77218914
-0.43431708 -0.020878144 -0.90051812
-0.40637988 -0.12188945 0.90553761
0.94691795 0.25773388 -0.19214498
-0.37216231 0.84846389 0.3763034
0.84013462 0.17906073 -0.51196784
0.45056611 -0.10564321 0.88647038
-0.83799142 -0.049196009 0.54346126
-0.4722828 -0.88077158 -0.034503274
0.31843892 -0.033461843 -0.94735265
0.82753217 -0.40026519 -0.39367267
0.45436364 -0.71788007 0.52744842
-0.26335949 0.92218083 0.28323904
0.24415234 -0.96972322 0.0051517379
0.14131612 0.2183509 -0.9655841
0.043161191 -0.19985095 0.97887522
-0.0674996 0.55069607 -0.83197212
-0.24455477 -0.43399373 -0.8670885
0.66935939 -0.30535528 -0.67728579
-0.40107906 0.25422245 -0.88006049
-0.021125009 0.020242356 -0.99957192
-0.16452552 -0.63064069 0.75843501
0.60106766 -0.6884582 -0.40588528
0.08592391 0.37330827 -0.92371964
-0.43568096 0.014640962 0.89998209
-0.44454536 0.42436397 -0.78885651
-0.61267817 -0.55080652 0.5667783
0.38075927 0.060552463 -0.92268938
-0.74814373 -0.50100547 0.43505684
-0.46153489 -0.55704284 -0.69042653
0.0093038622 -0.029927978 -0.99950874
0.78677255 -0.2248766 0.57482129
0.16236235 0.73131412 0.66243345
-0.74240136 0.6698426 0.012296084
-0.48767301 0.82881105 -0.27431232
0.40824851 -0.31755859 -0.85585612
0.037200335 0.44637027 -0.89407474
0.9092716 0.3259533 0.25880399
-0.42214909 0.85646766 0.2970745
-0.15250164 -0.17718163 -0.97229105
0.73347908 -0.15859638 -0.66095054
0.011621996 0.1942873 0.98087585
0.085990697 0.85741752 0.50738627
0.19451068 -0.0079840161 -0.98086792
-0.72801989 -0.39991668 -0.55682462
0.86997885 0.48183531 -0.10474546
-0.9357385 -0.3507857 0.036646277
-0.41357902 0.14802396 0.89835483
-0.14796361 -0.2338421 -0.96094984
0.72925568 -0.4043518 -0.55198354
-0.046585903 -0.04470735 0.9979133
-0.18879932 -0.69700694 -0.69176304
0.8526656 -0.48014814 -0.20595908
0.15357925 -0.039958037 -0.98732811
0.10746095 0.021521905 -0.99397635
0.87287033 0.338 0.351928
-0.023308272 -0.01977318 0.99953276
-0.50835025 -0.2803846 -0.81422633
-0.85801125 -0.37053728 -0.35569489
0.36702058 0.70998639 0.60101187
0.25841382 0.93402833 -0.24660371
-0.056752361 -0.0081664091 -0.99835491
0.044721629 -0.17080674 -0.98428911
-0.38067329 -0.088705927 0.92044508
0.16649041 -0.55339634 0.81610876
0.49644151 -0.17582294 0.85007775
0.10765706 -0.84919578 0.51698786
-0.15638082 0.922387 -0.35319567
-0.60447896 0.35030618 -0.71546537
-0.15578605 0.073657401 -0.98504078
0.30219337 -0.52902985 0.79297328
0.13554841 -0.048383035 0.98958868
0.15094003 -0.62357616 0.76705271
-0.080007076 0.30656025 0.94848281
-0.77971542 -0.56161261 -0.27683058
0.42917606 -0.0067214291 0.90319586
-0.12490452 -0.63866061 -0.75928354
0.22746237 0.1079308 0.96778709
-0.12521386 0.0092242183 0.99208689
-0.94525295 0.23646809 0.22489947
-0.39103141 -0.16286343 -0.90585315
-0.26784241 -0.88135171 0.38920367
-0.80146748 -0.32046571 -0.5049274
-0.2491944 -0.033592369 0.96787071
-0.060576331 -0.27916145 0.95833158
0.51400679 -0.26265708 0.81658328
