ply
format ascii 1.0
comment PCL generated
element vertex 1415
property float x
property float y
property float z
element camera 0
property float view_px
property float view_py
property float view_pz
property float x_axisx
property float x_axisy
property float x_axisz
property float y_axisx
property float y_axisy
property float y_axisz
property float z_axisx
property float z_axisy
property float z_axisz
property float focal
property float scalex
property float scaley
property float centerx
property float centery
property int viewportx
property int viewporty
property float k1
property float k2
end_header
0.050437614 0.95867407 0.92159998
-0.21865362 -0.024302095 0.0484
0.19906364 -0.61876786 0.42249995
-0.011599422 0.12948148 0.016899999
-0.20356509 0.25973305 0.10890001
-0.14458063 0.48907712 0.26009998
0.56520146 -0.395787 0.4761
0.5682531 -0.044591814 0.3249
-0.097641915 0.021588339 0.010000001
0.42394793 0.69019431 0.65609998
-0.6653353 0.47930047 0.6724
0.8733713 0.25558287 0.82810003
-0.40960634 0.017962329 0.1681
-0.028574208 -0.0091386326 0.00089999998
0.2285956 -0.025378173 0.052900001
0.0027333118 -0.039906502 0.0016
0.0049238014 -0.019384431 0.00039999999
-0.030559476 -0.77940112 0.60839993
-0.11769936 0.18586785 0.0484
0.27516174 -0.87788725 0.84640002
0.04950795 -0.25524294 0.067599997
0.011660604 0.099317826 0.010000001
-0.50495934 -0.16098453 0.28089997
-0.062212694 0.13649023 0.022500001
0.64872181 -0.41480112 0.59289998
0.015110733 0.49977162 0.25
0.082585536 -0.11304702 0.0196
0.72238404 0.29421294 0.60839993
-0.5178352 0.44073427 0.46240002
0.61224157 0.31821421 0.4761
0.83234018 0.43681782 0.8836
-0.52280277 -0.35153559 0.3969
0.38860297 0.34552529 0.27039999
-0.14420989 0.041273616 0.022500001
-0.48200157 0.70012468 0.72250003
0.19784108 0.27651206 0.1156
-0.023116054 0.032644264 0.0016
0.040310819 -0.10234763 0.0121
-0.096416324 -0.071441531 0.0144
0.20397645 -0.12646584 0.057599999
-0.57553619 -0.46514311 0.54760003
0.0043173931 -0.0090199839 9.9999997e-05
-0.64314121 0.22083791 0.46240002
0.30510437 -0.89967287 0.90249997
-0.59948832 0.024774084 0.36000001
0.22170232 0.76866645 0.64000005
-0.09249711 -0.41993368 0.1849
-0.027669534 0.011592966 0.00089999998
0.57151419 0.66915733 0.7744
-0.16904722 0.72043252 0.54760003
0.47237369 0.62069559 0.60839993
-0.68607312 -0.56692475 0.79209995
0.025681794 -0.054225873 0.0035999999
-0.70736492 0.57248133 0.82810003
-0.74565101 -0.22892036 0.60839993
0.10947312 -0.049149122 0.0144
-0.40696189 0.10383647 0.17639999
-0.69321305 -0.60486013 0.84640002
-0.60190159 -0.69578338 0.84640002
-0.045207981 -0.98896724 0.98010004
-0.024861626 0.086497977 0.0081000002
-0.03074258 -0.095157206 0.010000001
-0.011951216 -0.77990842 0.60839993
0.27652431 -0.42852572 0.26009998
0.35378823 0.066587523 0.1296
-0.29820743 0.32353103 0.1936
-0.35721427 -0.15651828 0.15209998
-0.23443076 -0.43028155 0.24010001
-0.6895386 0.51394212 0.7396
0.23883714 -0.62598467 0.44890001
-0.053166822 0.059776992 0.0063999998
0.55552065 0.40926373 0.4761
-0.91949707 0.030416444 0.84640002
-0.012393213 -0.11935832 0.0144
0.040669974 0.044112962 0.0035999999
-0.064412281 0.91774243 0.84640002
-0.83566582 0.43042147 0.8836
-0.61662573 0.26205483 0.44890001
0.58635467 0.41783759 0.51840001
0.85241169 0.31858173 0.82810003
-0.39722639 0.26946464 0.2304
-0.090214141 0.25448263 0.072900005
-0.56793731 0.39185104 0.4761
-0.19926389 0.25038749 0.1024
0.19457959 0.046247017 0.040000003
-0.0040771314 -0.24996676 0.0625
0.25731248 -0.17288809 0.096100003
0.10905768 0.81271547 0.6724
-0.5525831 -0.2337776 0.36000001
-0.11761117 -0.023824604 0.0144
-0.092642389 0.037648208 0.010000001
0.58640033 0.5587796 0.65609998
0.0033021204 -0.11995456 0.0144
0.28312209 0.062784329 0.084099993
0.35931545 -0.6123662 0.50409997
0.96314335 -0.11513046 0.94090003
-0.079538591 -0.0085797412 0.0063999998
0.14512053 0.57187414 0.34809998
-0.033007756 0.5189513 0.27039999
-0.062658697 -0.36465585 0.13690001
-0.10471093 -0.9442116 0.90249997
-0.17586081 -0.54219276 0.3249
-0.037695132 0.081725627 0.0081000002
0.029111026 0.0072490084 0.00089999998
0.29454565 -0.24008927 0.1444
-0.77735835 -0.41244876 0.7744
-0.49761057 0.57444209 0.5776
0.20470574 0.54267442 0.33639997
-0.027910067 0.73947352 0.54760003
0.75717521 -0.13994893 0.59289998
-0.050395694 0.10890488 0.0144
-0.077119142 0.14018786 0.025599999
0.078346908 0.97686327 0.96040004
0.02172959 -0.48951796 0.24010001
0.55293113 0.44538423 0.50409997
0.21582277 -0.74954683 0.60839993
0.0095163425 -0.0030723324 9.9999997e-05
-0.44594026 0.060309798 0.20249999
-0.70060629 0.36503538 0.62410003
0.48706248 0.68437564 0.70559996
0.17013395 0.10514011 0.040000003
-0.43100935 -0.55157131 0.48999998
-0.404726 0.19671513 0.20249999
-0.33507749 -0.15691741 0.13690001
0.18387657 0.078672767 0.040000003
0.024489013 -0.15811479 0.025599999
-0.39956695 0.01860792 0.16000001
0.0076424675 0.039263122 0.0016
-0.073554434 -0.094814271 0.0144
0.131185 0.91059899 0.84640002
-0.88575774 0.24866295 0.84640002
-0.4499279 -0.29860494 0.29160002
-0.099459864 -0.010379597 0.010000001
-0.26964152 -0.53599763 0.36000001
-0 -0 0
-0.017532371 0.57973492 0.33639997
-0.63749224 -0.23665094 0.46240002
0.46823946 0.49310431 0.46240002
-0.05257906 -0.60772979 0.37210003
-0.41618478 -0.7411412 0.72250003
0.015253587 0.22949363 0.052900001
0.068560578 0.15556172 0.028900001
-0.37274379 -0.11472601 0.15209998
-0.048573151 0.011859547 0.0025000002
-0.19658819 0.18507591 0.072900005
0.36729333 -0.13113201 0.15209998
-0.17483565 -0.69845009 0.51840001
0.0074964943 0.16983463 0.028900001
-0.33808145 -0.28160423 0.1936
0.1138112 0.1998675 0.052900001
-0.017784515 -0.73978627 0.54760003
0.48756519 -0.47400442 0.46240002
-0.28726256 0.59420556 0.43560004
-0.14170836 0.59331167 0.37210003
-0.27234408 -0.94139719 0.96040004
0.081944585 -0.10092118 0.016899999
-0 0 0
-0.39581832 -0.79713726 0.79209995
-0.037703726 0.013357726 0.0016
0.30200455 0.36012951 0.2209
0.20625439 -0.38866326 0.1936
-0.28928804 -0.46777391 0.30250001
-0.22189295 -0.21647984 0.096100003
0.0020227409 -0.01989745 0.00039999999
0.0089257443 -0.017897796 0.00039999999
-0.65789402 0.29253292 0.51840001
-0.3897669 0.49495631 0.3969
0.50121468 -0.51689833 0.51840001
-0.33107328 0.73924994 0.65609998
-0.05447112 -0.60756308 0.37210003
0.23157531 0.20608948 0.096100003
0.52830249 -0.11178771 0.29160002
-0.065284967 -0.075748749 0.010000001
-0.72767282 0.18163779 0.5625
0.17971399 -0.88187462 0.80999994
0.41911834 -0.27265331 0.25
-0.24049304 -0.54969364 0.36000001
0.32813522 0.44139245 0.30250001
-0.28639683 0.045572415 0.084099993
-0.18374033 -0.048368249 0.0361
0.22549377 -0.31820205 0.15209998
0.060910754 -0.066256173 0.0081000002
-0.18995325 0.84900987 0.75690001
0.61994147 -0.56680906 0.70559996
0.53571302 -0.38550177 0.43560004
-0.0071047018 -0.0070372727 9.9999997e-05
0.056464292 0.23326333 0.057599999
-0.79457247 -0.15733606 0.65609998
0.048572507 0.49763513 0.25
0.0090902336 -0.004167452 9.9999997e-05
-0.69462264 -0.454312 0.68889999
-0.19654791 -0.19942147 0.078400001
-0.50628972 0.3219794 0.36000001
-0.75176787 -0.4378871 0.75690001
-0.16882388 -0.41713127 0.20249999
0.29728472 0.66672468 0.53290004
0.43016857 0.30960459 0.28089997
-0.050294526 -0.90860909 0.82810003
0.17647946 -0.64633971 0.44890001
0.61772633 -0.053048573 0.38440001
0.040297478 0.7288869 0.53290004
-0.20835638 -0.80342239 0.68889999
0.065797009 0.20993035 0.0484
-0.27159023 0.79488277 0.70559996
0.02679652 0.24855974 0.0625
-0.16254282 0.049797934 0.028900001
0.35778743 0.17885235 0.16000001
0.040146068 0.029804248 0.0025000002
0.19938344 -0.26295674 0.10890001
-0.27756718 0.30175564 0.1681
0.011130194 -0.027858907 0.00089999998
0.58922482 0.31892651 0.44890001
-0.39061448 -0.29583842 0.24010001
-0.13404579 0.47130853 0.24010001
-0.80633461 0.29903936 0.7396
0.45822477 0.28570977 0.29160002
0.60434055 -0.49312523 0.60839993
0.058192223 0.068656139 0.0081000002
0.058200624 0.014583811 0.0035999999
-0.75733227 -0.13909642 0.59289998
-0.37463802 -0.72941506 0.6724
0.32787091 0.22913027 0.16000001
0.85446709 0.34100735 0.84640002
0.029526826 0.25831795 0.067599997
0.67246872 -0.59815204 0.80999994
-0.067309611 0.019220198 0.0049000001
0.196637 0.27736959 0.1156
-0.41965127 -0.32371715 0.28089997
-0.52645111 0.68003625 0.7396
0.02923655 0.040561363 0.0025000002
0.077517942 0.16245298 0.032400001
-0.35795161 0.038348921 0.1296
0.0097210156 0.0023456034 9.9999997e-05
0.0052009104 0.0085411081 9.9999997e-05
0.38891992 0.15856008 0.17639999
-0.22092313 0.30918112 0.1444
-0.11565812 -0.22163753 0.0625
-0.97527063 0.096162319 0.96040004
-0.1722602 -0.22074062 0.078400001
-0.27602443 -0.36798167 0.21160001
-0.17445943 0.39301896 0.1849
0.11052594 0.66082072 0.44890001
-0.20706581 -0.24397489 0.1024
0.10998801 0.65077084 0.43560004
-0.11005053 -0.75198996 0.5776
0.24300689 -0.91839403 0.90249997
-0.25744361 -0.22208734 0.1156
0.46476725 -0.069938488 0.2209
0.22156206 -0.17120236 0.078400001
-0.13111536 -0.93081081 0.8836
0.38508275 -0.68979079 0.62410003
-0.1612334 -0.4308176 0.21160001
-0.15843341 -0.022334972 0.025599999
0.056191966 0.7679469 0.59289998
0.1569519 -0.12396008 0.040000003
-0.22434974 -0.63132185 0.44890001
0.80815393 -0.054655407 0.65609998
-0.40422785 -0.83755589 0.86489999
-0.0011084562 -0.069991224 0.0049000001
-0.6120066 -0.57536757 0.70559996
-0.13848647 0.84877646 0.7396
-0.24838383 0.23217551 0.1156
-0.24464983 -0.56968981 0.38440001
-0.58115315 -0.1492013 0.36000001
-0.81971067 0.021780336 0.6724
-0.62217921 -0.14997676 0.40959999
-0.22315685 0.33196539 0.16000001
0.10755245 -0.19191787 0.0484
-0.45228967 0.29501536 0.29160002
0.039127171 0.008310508 0.0016
0.72102916 -0.20643866 0.5625
-0.88758945 -0.06545876 0.79209995
-0.34606022 -0.4654485 0.33639997
-0.1977967 -0.096314415 0.0484
0.82097977 0.53515631 0.96040004
0.03424561 -0.036431279 0.0025000002
-0.70845026 -0.53870052 0.79209995
-0.004213687 0.099911183 0.010000001
-0.56320792 -0.44854975 0.51840001
0.30732414 -0.32871243 0.20249999
0.70776343 0.30326709 0.59289998
-0.18979983 0.089866668 0.044099998
-0.4595896 -0.54118145 0.50409997
-0.03927727 0.24689531 0.0625
-0.46073863 0.83079475 0.90249997
-0.017262546 0.024535779 0.00089999998
0.51544607 0.12335041 0.28089997
0.032021858 0.26809439 0.072900005
0.75217617 0.24151812 0.62410003
0.70644939 0.3962692 0.65609998
0.58975464 -0.017013175 0.34809998
-0.14975654 -0.0085428022 0.022500001
0.22925338 0.73508012 0.59289998
0.38841331 -0.33050737 0.26009998
-0.4342435 -0.17981265 0.2209
0.47607151 -0.29488289 0.3136
0.045941286 0.077391207 0.0081000002
0.91666692 0.20813881 0.8836
-0.58438981 -0.43747979 0.53290004
0.052278943 -0.073259212 0.0081000002
-0.36649558 -0.34011906 0.25
0.17573622 0.89287001 0.82810003
0.53566551 0.19483963 0.3249
-0.10389259 0.15907963 0.0361
-0.015152149 0.71984053 0.51840001
0.0041174674 0.1799529 0.032400001
-0.63590175 0.63689011 0.80999994
0.46057659 -0.65411711 0.64000005
-0.61450493 -0.082363315 0.38440001
-0.51201081 0.44748729 0.46240002
-0.83915776 0.03760637 0.70559996
-0.095566861 -0.37810972 0.15209998
-0.038598008 -0.045936842 0.0035999999
-0.25195104 0.064192437 0.067599997
0.046851873 0.017461445 0.0025000002
0.23921452 0.4617103 0.27039999
-0 -0 0
-0.31140238 0.54765731 0.3969
0.077333018 -0.11670306 0.0196
-0.49536398 -0.84558529 0.96040004
0.70267314 0.49583313 0.7396
-0.10704163 0.15697798 0.0361
-0.26770636 -0.46897051 0.29160002
0.90453368 0.29037699 0.90249997
0.7832433 -0.37872154 0.75690001
-0.041970458 0.29704964 0.090000004
-0.1006713 -0.91447544 0.84640002
0.58074039 0.31359318 0.43560004
-0.072112188 -0.54525208 0.30250001
-0.62390471 -0.53211176 0.6724
0.18488368 -0.2611858 0.1024
-0.6603958 0.16210304 0.46240002
0.12892909 0.27088243 0.090000004
0.80574328 -0.48412588 0.8836
-0.16664752 0.03359469 0.028900001
0.60885793 0.56408513 0.68889999
-0.12981759 0.0068843458 0.016899999
0.76661873 0.19077665 0.62410003
-0.3197569 -0.4838962 0.33639997
-0.5009945 0.71126968 0.75690001
-0.88041282 -0.13028158 0.79209995
0.16985492 0.0070215939 0.028900001
-0.31122389 -0.2350312 0.15209998
-0.59243429 -0.60952574 0.72250003
-0.22702137 -0.2255245 0.1024
0.05166566 0.04722986 0.0049000001
0.53283226 0.087691635 0.29160002
0.0045797769 -0.008889637 9.9999997e-05
-0.070056066 0.071359292 0.010000001
0.11173955 0.79215801 0.64000005
-0.38728467 0.83451217 0.84640002
-0.25127307 0.16389588 0.090000004
0.26096311 -0.64953691 0.48999998
0.7463004 -0.14365117 0.5776
-0.3415283 -0.076540336 0.12249999
0.245582 0.085378446 0.067599997
0.31404188 -0.13029853 0.1156
-0.039369412 0.091924153 0.010000001
0.18968759 0.24519099 0.096100003
0.47280386 -0.48872945 0.46240002
0.26351669 0.57224029 0.3969
0.038763069 0.78904849 0.62410003
-0.48891371 -0.22926712 0.29160002
-0.042637877 0.026115349 0.0025000002
0.28633571 -0.75770169 0.65609998
0.19959228 -0.88784176 0.82810003
0.52819413 -0.043714348 0.28089997
0.32325625 -0.13418417 0.12249999
-0.52252758 -0.6319533 0.6724
-0.0038961209 0.039809801 0.0016
0.043048687 0.2665461 0.072900005
0.046289753 0.44761282 0.20249999
-0.56389213 0.53891146 0.60839993
-0.10339737 -0.33437851 0.12249999
-0.5089252 0.033093035 0.26009998
-0.064761631 0.23109722 0.057599999
-0.75283563 -0.32502079 0.6724
0.25250262 -0.24236836 0.12249999
-0.31824651 -0.24232037 0.16000001
0.45883405 0.24468608 0.27039999
0.70789456 -0.32754427 0.60839993
-0.96230233 -0.23253886 0.98010004
0.1500673 0.055495985 0.025599999
-0.015035796 -0.06836611 0.0049000001
-0.7163353 0.65403652 0.94090003
0.13140112 -0.13723609 0.0361
-0.14173588 0.43761963 0.21160001
0.044468451 -0.37738913 0.1444
-0.41161722 -0.59073794 0.51840001
0.25114429 0.81205088 0.72250003
0.76742834 0.22595075 0.64000005
0.16386983 -0.38671264 0.17639999
0.1666977 0.033344842 0.028900001
-0.015429187 -0.49976188 0.25
0.69593734 -0.075307176 0.48999998
0.2971012 0.088492237 0.096100003
-0.37836203 -0.89316416 0.94090003
0.15724884 -0.27869841 0.1024
0.63392478 0.24604748 0.46240002
-0.62141258 0.25049233 0.44890001
-0.5412817 -0.097540289 0.30250001
0.89774579 0.27866188 0.8836
-0.47463849 0.27788183 0.30250001
-0.77931297 -0.032730412 0.60839993
-0.1354195 0.56396943 0.33639997
0.13123167 0.53411448 0.30250001
0.21625543 0.73900849 0.59289998
0.49696863 -0.18417968 0.28089997
-0.1622467 -0.78337473 0.64000005
0.027584199 -0.028967431 0.0016
-0.57844359 -0.042461578 0.33639997
-0.38421893 -0.33537415 0.26009998
-0.20999593 -0.0013063316 0.044099998
0.23272599 -0.091316015 0.0625
0.25976789 -0.010983584 0.067599997
0.57998687 0.0038990208 0.33639997
-0.30523363 -0.771837 0.68889999
-0.51669526 0.71233839 0.7744
0.25226367 -0.28418839 0.1444
0.31931314 0.62292784 0.48999998
-0.31161126 -0.13600896 0.1156
-0.34867048 0.030477788 0.12249999
-0.22951308 0.14221023 0.072900005
0.57954502 0.022967877 0.33639997
0.33142409 0.30439788 0.20249999
0.047928203 -0.087766096 0.010000001
0.0027653459 -0.0096100392 9.9999997e-05
0.29580852 -0.55623496 0.3969
0 -0 0
0.38768658 -0.49658746 0.3969
0.20365769 0.2722564 0.1156
-0.49552852 0.33830684 0.36000001
0.22382428 -0.15100563 0.072900005
0.56273675 -0.20815223 0.36000001
-0.51329911 -0.43060893 0.44890001
0.11550435 -0.059655197 0.016899999
-0.10995617 -0.0031048395 0.0121
0.61400139 -0.21331257 0.42249995
0.20338182 -0.32099193 0.1444
0.94036847 0.27587542 0.96040004
0.18411131 -0.33241996 0.1444
-0.32334653 -0.19961721 0.1444
-0.10464103 0.2270468 0.0625
0.5797075 -0.31549844 0.43560004
0.382249 0.86970437 0.90249997
0.033572327 0.021746235 0.0016
-0.37625805 -0.41476488 0.3136
0.24163271 0.43773696 0.25
-0.00072387146 0.16999847 0.028900001
-0.18947591 0.48425084 0.27039999
0.050852258 0.43705153 0.1936
0.86426991 0.21245585 0.79209995
-0.086686336 -0.10993397 0.0196
-0.27082175 -0.38412961 0.2209
0.28694692 -0.11730931 0.096100003
-0.36416033 0.13959672 0.15209998
-0.089761399 -0.044078238 0.010000001
-0.5106504 0.40216431 0.42249995
-0.79137015 0.28166139 0.70559996
0.52621567 0.3815718 0.42249995
0.11788597 0.07551755 0.0196
0.11651519 -0.028709035 0.0144
-0.14164996 -0.34181178 0.13690001
-0.041859232 0.56846088 0.3249
0.0084571978 0.2498569 0.0625
0.1295906 -0.39950752 0.17639999
0.24865554 -0.69697231 0.54760003
0.06816452 0.28187513 0.084099993
0.17362252 -0.34922087 0.15209998
0.40941557 -0.18675888 0.20249999
-0.72121978 -0.29705563 0.60839993
-0.42217988 -0.081634298 0.1849
-0.15605791 0.10837861 0.0361
0.26634568 0.044271782 0.072900005
0.029010003 0.40897238 0.1681
-0.85226917 0.1150533 0.7396
-0.26711005 0.59258097 0.42249995
0.27417293 0.094494373 0.084099993
-0.10810263 -0.052094352 0.0144
0.57132775 -0.21373968 0.37210003
0.71488971 -0.62564582 0.90249997
-0.028869258 0.10614409 0.0121
-0.7678498 -0.42989153 0.7744
0.40000901 0.47370118 0.38440001
-0.49637842 0.53526485 0.53290004
0.0050184666 0.0086495653 9.9999997e-05
-0.91037458 0.3348406 0.94090003
0.39353347 0.17329577 0.1849
-0.38417342 -0.36511749 0.28089997
-0.076182701 -0.21701658 0.052900001
0.13256523 0.65675449 0.44890001
0.018672146 0.046382662 0.0025000002
-0.052476812 -0.046326932 0.0049000001
-0.37739578 -0.098348431 0.15209998
-0.67520767 -0.24998926 0.51840001
0.08998742 0.0015051547 0.0081000002
0.083706819 0.56382012 0.3249
0.27662921 0.30261576 0.1681
0.19558534 -0.60938191 0.40959999
0.1777226 0.73892808 0.5776
-0.081014939 0.12624018 0.022500001
0.74558806 0.53897911 0.84640002
0.18681797 0.095911615 0.044099998
-0.21609089 -0.23601849 0.1024
-0.0049435771 0.099877737 0.010000001
-0.23461612 -0.086343974 0.0625
-0.63987136 -0.012830312 0.40959999
0.12963849 0.0096881874 0.016899999
0.1694441 -0.013736794 0.028900001
-0.14533685 0.40469396 0.1849
0.058468059 0.013471657 0.0035999999
0.089630619 -0.008145785 0.0081000002
-0.60786802 -0.45617595 0.5776
0.1084642 0.051337283 0.0144
-0.045804564 0.038754892 0.0035999999
-0.7412461 -0.35064828 0.6724
-0.3429136 -0.55218679 0.42249995
-0.85678893 -0.074247643 0.7396
0.31754988 -0.53250551 0.38440001
-0.15536788 0.068998709 0.028900001
-0.25655082 0.042209838 0.067599997
-0.48009098 -0.22452761 0.28089997
-0.070470937 -0.73663688 0.54760003
0.11552599 0.079080626 0.0196
0.15324701 0.17150906 0.052900001
-0.032101031 0.32843497 0.10890001
-0.033952817 -0.12548786 0.016899999
-0.87511301 0.39468607 0.92159998
-0.3055484 0.33036369 0.20249999
-0.19008704 -0.7873798 0.65609998
0.21363224 -0.93592805 0.92159998
-0.24904376 0.021844963 0.0625
0.86032236 -0.26428264 0.80999994
0.20857856 0.47633493 0.27039999
0.49403366 0.64189619 0.65609998
0.20602487 -0.18961476 0.078400001
-0.49971938 -0.39985064 0.40959999
-0.41018081 -0.28592259 0.25
0.029368388 0.006123546 0.00089999998
0.31273693 0.13340022 0.1156
0.20866634 0.13768935 0.0625
-0.31072688 0.51327264 0.36000001
-0.54188192 -0.3012706 0.38440001
0.20675381 0.17364581 0.072900005
-0.090090476 0.64372641 0.42249995
-0.029638441 -0.10593188 0.0121
0.5972721 0.46996382 0.5776
-0.78959179 -0.025392713 0.62410003
0.18030542 0.47706386 0.26009998
0.4000366 -0.57443076 0.48999998
-0.017592499 0.046802823 0.0025000002
0.88775527 -0.24143463 0.84640002
0.35512328 0.75019157 0.68889999
-0.0051632724 0.11988886 0.0144
0.0018561088 0.099982776 0.010000001
-0.12319616 0.11714396 0.028900001
-0.099321395 -0.13796833 0.028900001
0.46301243 0.56437534 0.53290004
-0.86606234 0.082680754 0.75690001
0.38646039 0.83489424 0.84640002
0.11571344 0.059248619 0.016899999
0.071308747 -0.1652727 0.032400001
0.38525471 0.2125531 0.1936
0.0043560504 0.069864333 0.0049000001
0.32942784 0.019424539 0.10890001
-0.613778 -0.51310486 0.64000005
0.31519422 -0.72439814 0.62410003
0.070620179 0.59582949 0.36000001
0.47914293 0.46831834 0.44890001
0.13783777 0.5013988 0.27039999
0.079821236 -0.2050087 0.0484
-0.16123806 -0.62968427 0.42249995
-0 0 0
-0.25620672 -0.66216171 0.50409997
0.34371838 0.25837508 0.1849
-0.87577397 -0.2472246 0.82810003
0.043825757 -0.70864612 0.50409997
-0.31073609 0.37887079 0.24010001
-0.052071944 -0.10811342 0.0144
0.075918272 0.065087758 0.010000001
-0.33109227 -0.78286523 0.72250003
0.35985398 0.010253568 0.1296
-0.041905377 0.15441482 0.025599999
-0.29993114 0.0064271279 0.090000004
-0.1178505 -0.7102896 0.51840001
0.14412463 -0.63382018 0.42249995
-0.012495676 0.048413407 0.0025000002
0.84910959 -0.038896583 0.72250003
-0.42147925 0.60823947 0.54760003
-0.31877649 0.30328459 0.1936
-0.22519034 -0.083001897 0.057599999
-0.54477805 -0.55822647 0.60839993
-0.001958244 0.0098063899 9.9999997e-05
0.055633307 0.083095938 0.010000001
-0.30907911 -0.18458092 0.1296
-0.37709799 -0.50467527 0.3969
0.15982342 -0.0075150589 0.025599999
0.13319325 -0.89008957 0.80999994
0.7554602 -0.63982803 0.98010004
-0.058650088 -0.18072124 0.0361
0.54274613 -0.089031726 0.30250001
0.10426479 0.13427158 0.028900001
0.19862545 -0.023407916 0.040000003
0.42795718 -0.541251 0.4761
0.27391484 -0.5673365 0.3969
0.025147242 -0.14787704 0.022500001
0.28904688 0.44424301 0.28089997
-0.12098692 -0.32842377 0.12249999
-0.19264385 0.15933721 0.0625
-0.16142979 0.11806955 0.040000003
0.52112067 0.48221695 0.50409997
0.0054917261 0.3799603 0.1444
-0.26695916 -0.81751627 0.7396
-0.18266335 0.13976446 0.052900001
-0.0025823945 0.0096608093 9.9999997e-05
0.024761388 0.076071501 0.0063999998
-0.68805993 -0.38816696 0.62410003
-0.2062759 -0.039373223 0.044099998
-0.7852093 0.086870357 0.62410003
0.34826207 -0.28497985 0.20249999
-0.40351838 -0.38829488 0.3136
-0.34467894 -0.75504732 0.68889999
0.054061141 0.026026776 0.0035999999
0.028386606 0.14728951 0.022500001
0.10386086 0.67202151 0.46240002
-0.88605201 0.36947489 0.92159998
-0.11013123 -0.19044976 0.0484
-0.28849569 0.082281485 0.090000004
-0.040794555 -0.14434613 0.022500001
0.89183676 -0.26368022 0.86489999
0.9091 -0.30844328 0.92159998
-0.064891562 0.76726073 0.59289998
-0.77998447 0.0049174111 0.60839993
0.22541869 0.148615 0.072900005
0.37496445 0.79611665 0.7744
-0.11727747 0.51686168 0.28089997
-0.49406785 -0.69166249 0.72250003
-0.043506172 -0.024641698 0.0025000002
-0.32001868 0.48372304 0.33639997
0.10860369 0.24719475 0.072900005
-0.52743006 0.28603774 0.36000001
0.59809595 -0.36370486 0.48999998
-0.21735834 0.59131658 0.3969
-0.41200286 0.12310018 0.1849
0.10631906 0.57017213 0.33639997
0.46907979 0.029396491 0.2209
-0.38832924 -0.16000128 0.17639999
-0.10853419 -0.32221162 0.1156
0.67570281 0.30170479 0.54760003
0.29893082 0.082099684 0.096100003
0.057138499 -0.36556149 0.13690001
0.10489763 0.033113275 0.0121
-0.21443771 0.72912031 0.5776
0.11298055 0.15275928 0.0361
-0.37357166 0.16895029 0.1681
0.17284666 0.62659717 0.42249995
0.7093125 -0.21089296 0.54760003
0.82909995 -0.32356349 0.79209995
-0.40902701 0.028229589 0.1681
-0.094940878 0.67333961 0.46240002
0.068160884 -0.19863054 0.044099998
0.043295138 -0.041539509 0.0035999999
-0.85494643 -0.31171578 0.82810003
-0.33073413 0.16587624 0.13690001
-0.35704169 0.39169014 0.28089997
0.53811246 -0.57839 0.62410003
0.023206994 -0.076560006 0.0063999998
-0.59110355 -0.27036378 0.42249995
-0.10490892 -0.033077467 0.0121
-0.083750404 -0.69497186 0.48999998
0.33308131 0.10750283 0.12249999
0.030323692 -0.051773287 0.0035999999
0.70960909 0.27213037 0.5776
-0.04403843 0.50809509 0.26009998
0.38681021 0.70026988 0.64000005
-0.0070425994 0.15984493 0.025599999
0.35788131 -0.7819981 0.7396
-0.35906017 0.58921623 0.4761
-0.033209015 -0.13600427 0.0196
0.93976408 -0.021060705 0.8836
0.08905983 0.77489889 0.60839993
0.017600637 0.098438904 0.010000001
0.14258225 -0.66488367 0.46240002
0.50726634 0.48237005 0.48999998
-0.15984356 -0.007073361 0.025599999
-0.11997127 0.28584418 0.096100003
0.20136184 -0.78457212 0.65609998
-0.14860876 -0.059291113 0.025599999
0.32718858 -0.1727647 0.13690001
-0.58636737 0.45141259 0.54760003
-0.57469559 0.69262177 0.80999994
0.21128328 0.090881087 0.052900001
0.040090524 -0.16520518 0.028900001
-0.53927445 -0.18461594 0.3249
0.25996414 0.43876946 0.26009998
-0.44799593 -0.24372046 0.26009998
-0.2492654 0.14821187 0.084099993
-0.1426933 0.072378322 0.025599999
-0.77287227 -0.49906766 0.84640002
-0.74610853 -0.14464445 0.5776
-0.6659137 0.49543807 0.68889999
-0.061818391 -0.090986192 0.0121
0.009985039 -0.0005467959 9.9999997e-05
0.71094149 0.16571724 0.53290004
0.45551443 0.11578686 0.2209
0.59952509 0.023868334 0.36000001
0.3620241 0.21292849 0.17639999
-0.15860376 -0.085116692 0.032400001
-0.27590272 0.047725126 0.078400001
-0.29186881 0.3020142 0.17639999
-0.33719689 -0.71442169 0.62410003
0.58614302 0.12820448 0.36000001
0.009905274 -0.5799154 0.33639997
-0.15104029 0.54962426 0.3249
0.1898717 0.0069811912 0.0361
-0.55160379 0.2093638 0.34809998
-0.22447422 -0.3900145 0.20249999
-0.15898205 -0.10404185 0.0361
-0.011519101 0.027700366 0.00089999998
-0.33263001 -0.16204099 0.13690001
0.85388923 0.34245175 0.84640002
0.012644419 -0.91991311 0.84640002
-0.50192881 -0.68597925 0.72250003
0.44717947 0.05030426 0.20249999
-0.37862396 0.093508698 0.15209998
0.059166893 -0.95817494 0.92159998
-0.17977047 0.27673557 0.10890001
0.070796669 0.78682137 0.62410003
-0.020402048 0.8897661 0.79209995
-0.38891238 0.1585785 0.17639999
-0.44081157 0.59437793 0.54760003
-0.056858469 -0.094165355 0.0121
0.28721613 -0.040086027 0.084099993
-0.075635731 -0.15224728 0.028900001
0.55337393 -0.49130169 0.54760003
-0.53564143 -0.6728211 0.7396
0.023325525 -0.044225782 0.0025000002
0.4382256 0.2799255 0.27039999
-0.063732013 -0.4151364 0.17639999
-0.065041058 -0.046579625 0.0063999998
-0.36998153 0.0036986675 0.13690001
-0.2414712 0.44921225 0.26009998
0.074540019 0.1065072 0.016899999
0.55907589 -0.24399634 0.37210003
0.5931313 0.39025024 0.50409997
-0.31741375 -0.54419529 0.3969
-0.0022189748 0.099975377 0.010000001
-0.15560785 0.037231658 0.025599999
-0.068788528 -0.040842839 0.0063999998
-0.22778358 -0.031853523 0.052900001
-0.30498227 0.25881618 0.16000001
-0.0086032888 0.0050973925 9.9999997e-05
-0.37165114 -0.14790346 0.16000001
-0.14266649 -0.37369275 0.16000001
-0.022672059 -0.019646315 0.00089999998
-0.14788723 0.025087254 0.022500001
-0.023593141 -0.032301139 0.0016
0.095513918 -0.029615745 0.010000001
-0.32628554 0.36556497 0.24010001
0.18653052 0.7057665 0.53290004
-0.047923598 0.7985633 0.64000005
0.13925281 -0.097512335 0.028900001
0.042442415 0.14387023 0.022500001
-0.027816795 -0.80952221 0.65609998
-0.18991946 -0.0055316663 0.0361
-0.034024868 0.57900107 0.33639997
-0.11822867 0.054055344 0.016899999
0.070102304 0.056441717 0.0081000002
0.059963968 0.12650819 0.0196
-0.15437025 0.86635435 0.7744
0.41254279 0.26440203 0.24010001
0.082793616 -0.05608223 0.010000001
-0.21732856 -0.075288102 0.052900001
-0.22176339 -0.060999993 0.052900001
-0.035921469 -0.9593277 0.92159998
-0.69718707 0.67441106 0.94090003
-0.62361962 -0.63497913 0.79209995
-0.69617075 -0.07311812 0.48999998
-0.31661439 -0.41249886 0.27039999
-0.57452422 -0.54223788 0.62410003
-0.068932205 -0.012179947 0.0049000001
0.3276189 0.090916716 0.1156
-0.92422336 -0.32590064 0.96040004
0.7537691 -0.23650004 0.62410003
0.91451204 -0.29200628 0.92159998
-0.83806479 -0.14194167 0.72250003
0.74466008 -0.089338332 0.5625
0.0059599904 -0.029402016 0.00089999998
-0.048928007 0.1939228 0.040000003
-0.71770179 0.21772498 0.5625
0.70128369 0.36373237 0.62410003
0.94395971 0.22324899 0.94090003
0.68918735 0.57880974 0.80999994
-0.70423448 -0.14984609 0.51840001
0.28117418 -0.65195167 0.50409997
0.57655585 -0.37905592 0.4761
0.40094614 0.085686535 0.1681
-0.1643565 0.48279077 0.26009998
0.40978009 0.30361205 0.26009998
-0.030191034 0.063154586 0.0049000001
-0.019892763 0.0020683275 0.00039999999
0.80629462 0.53924853 0.94090003
-0.07401403 0.39309278 0.16000001
0.75996977 -0.0067769489 0.5776
0.09542264 0.29494834 0.096100003
-0.64825428 -0.48566082 0.65609998
-0.054699875 0.26440108 0.072900005
0.77318054 -0.10291661 0.60839993
0.17201884 0.45881316 0.24010001
0.37409663 0.51927996 0.40959999
-0.025161305 -0.043207739 0.0025000002
-0.017687559 0.024231182 0.00089999998
0.88870227 0.048044041 0.79209995
-0.087655172 0.36975205 0.1444
0.74050999 -0.49370533 0.79209995
0.48652437 0.79258692 0.86489999
-0.87496543 0.25007096 0.82810003
0.41485375 -0.5387916 0.46240002
0.64224261 0.70001745 0.90249997
-0.14714012 0.41466829 0.1936
-0.33368281 0.93207073 0.98010004
-0.68365914 -0.55408496 0.7744
-0.067109533 -0.019907549 0.0049000001
0.95304626 -0.11533745 0.92159998
0.16206576 0.11719509 0.040000003
-0.017697943 -0.80980664 0.65609998
0.1668404 0.41792855 0.20249999
-0.23431821 0.051913127 0.057599999
-0.0030894587 -0.89999467 0.80999994
-0.28619787 0.74705476 0.64000005
-0.38990429 0.46912116 0.37210003
0.67122978 0.19862176 0.48999998
-0.097301461 -0.66289699 0.44890001
-0.33192521 -0.11102099 0.12249999
0.0071059866 -0.34992784 0.12249999
0.33491921 0.85687172 0.84640002
0.046104819 -0.59822601 0.36000001
-0.079593867 -0.10278529 0.016899999
-0.015120902 0.01309039 0.00039999999
0.72717786 0.22093526 0.5776
0.034090094 -0.72920358 0.53290004
-0 0 0
0.31647432 -0.26066071 0.1681
0.35511389 0.45857835 0.33639997
-0.38283384 0.074419349 0.15209998
-0.17828254 0.60424775 0.3969
0.13320471 -0.068967424 0.022500001
-0.34081617 -0.44434708 0.3136
0.012554034 0.23967144 0.057599999
-0.0099824937 -0.00059146283 9.9999997e-05
0.70898563 0.24462098 0.5625
0.93591827 0.32273358 0.98010004
-0.77999049 0.0038503523 0.60839993
0.39314392 0.38462692 0.30250001
-0.11649496 0.23244122 0.067599997
-0.048469968 0.050504077 0.0049000001
0.89613396 -0.20819221 0.84640002
0.21651617 0.038996726 0.0484
-0.44747892 0.69904405 0.68889999
-0.68947828 0.026827853 0.4761
-0.15374748 -0.15735854 0.0484
-0.17226936 -0.20790207 0.072900005
0.11565112 0.12459863 0.028900001
0.2276703 0.72509742 0.5776
-0.79542822 0.085404538 0.64000005
-0.040380284 0.044378288 0.0035999999
-0.18657334 0.1165778 0.0484
-0.56308848 0.76513481 0.90249997
0.15458584 0.14213802 0.044099998
0.24215893 -0.81477547 0.72250003
-0.5295167 -0.67765188 0.7396
-0.029669493 -0.0044408385 0.00089999998
0.13066156 -0.49297825 0.26009998
-0.62195379 0.15090895 0.40959999
-0.015334234 -0.098817311 0.010000001
0.56983864 -0.21767852 0.37210003
-0.0049139597 -0.16992897 0.028900001
0.60718048 -0.42300344 0.54760003
0.51835829 -0.56938976 0.59289998
0.0055010151 0.80998135 0.65609998
0.31708363 -0.72357309 0.62410003
0.1209242 -0.10477279 0.025599999
0.93449998 0.21979488 0.92159998
0.039059274 0.045545284 0.0035999999
-0.1601911 -0.65056807 0.44890001
-0.56486815 -0.39626256 0.4761
0.28203371 0.20726064 0.12249999
0.81873345 -0.1878175 0.70559996
-0.2278816 -0.43378565 0.24010001
0.23728567 0.035993122 0.057599999
-0.25097319 0.22937404 0.1156
0.0023750241 -0.43999359 0.1936
-0.29619041 -0.091494478 0.096100003
0.38988444 0.0094920853 0.15209998
0.039567929 -0.71891195 0.51840001
0.068119556 -0.68662924 0.4761
0.40174448 -0.43208951 0.34809998
0.012678696 -0.037937455 0.0016
0.37647438 -0.31363523 0.24010001
0.22254848 0.089845255 0.057599999
0.36683446 -0.38253427 0.28089997
0.21203248 -0.058670457 0.0484
0.12689687 -0.67823094 0.4761
0.17148872 -0.19542676 0.067599997
-0.040204596 0.05730262 0.0049000001
0.48600456 -0.66045403 0.6724
0.25022146 -0.32479104 0.1681
0.28665206 -0.35976464 0.21160001
-0 0 0
0.1314664 -0.29174745 0.1024
0.067978248 0.058982689 0.0081000002
-0.63556814 -0.3981874 0.5625
0.035221204 0.37836418 0.1444
0.57465303 -0.48194808 0.5625
-0.44723842 0.82678765 0.8836
-0.012163674 -0.079069868 0.0063999998
-0.38062215 -0.30858842 0.24010001
0.40876877 0.77929974 0.7744
-0.32570884 -0.2490256 0.1681
0.49987873 -0.78423291 0.86489999
0.62635183 -0.31254339 0.48999998
-0.17694584 -0.38090703 0.17639999
-0.016053665 0.057812452 0.0035999999
0.35567421 0.79397476 0.75690001
-0.61954522 0.4572348 0.59289998
-0.76472396 -0.3226411 0.68889999
-0.20774308 -0.12017824 0.057599999
-0.059976082 0.0016938815 0.0035999999
-0.87694812 -0.24302697 0.82810003
0.056242574 -0.020899108 0.0035999999
-0.16696696 0.28464371 0.10890001
0.76325589 0.37408626 0.72250003
-0.29254442 0.39308745 0.24010001
-0.019428572 0.034964703 0.0016
-0.19368464 0.90960771 0.86489999
0.35862142 -0.23725659 0.1849
0.16863225 -0.19789684 0.067599997
0.2994701 -0.017823346 0.090000004
0.54936409 0.5537138 0.60839993
-0.1215777 -0.41245469 0.1849
0.18414466 0.35509259 0.16000001
0.91472304 0.21652196 0.8836
-0.75502193 0.41175464 0.7396
-0.26641786 -0.13791859 0.090000004
0.71082616 -0.40881065 0.6724
0.3377853 -0.5670107 0.43560004
0.21109205 0.51869082 0.3136
0.0034333952 0.0093921134 9.9999997e-05
0.17067301 0.24671994 0.090000004
-0 0 0
-0.18312347 -0.51861912 0.30250001
-0.25365013 -0.33475605 0.17639999
0.79865575 -0.046357546 0.64000005
-0.14912669 -0.64293176 0.43560004
0.34695998 -0.86285502 0.86489999
-0.41801441 -0.51074845 0.43560004
-0.14084272 -0.3313055 0.1296
-0.024502948 -0.48938698 0.24010001
0.029602027 0.11629152 0.0144
0.49746501 0.23458171 0.30250001
0.1044652 -0.17054918 0.040000003
-0.093994573 0.089805447 0.016899999
0.30381626 -0.71839797 0.60839993
-0.31095189 -0.13750975 0.1156
0.19610512 0.1383574 0.057599999
-0.28877577 0.19775882 0.12249999
-0.28313544 0.062724113 0.084099993
-0.38884732 0.52086246 0.42249995
-0.0037644568 -0.0092643863 9.9999997e-05
-0.64663112 -0.31665173 0.51840001
-0.91529328 0.092942342 0.84640002
-0.78607571 0.078645051 0.62410003
0.38753763 -0.31593448 0.25
-0.011593968 0.069033183 0.0049000001
-0.1057791 -0.030179176 0.0121
0.011988589 0.089197949 0.0081000002
-0.0052312487 0.36996302 0.13690001
-0.06690713 0.043856997 0.0063999998
0.39485943 0.84201306 0.86489999
0.22498763 0.047755301 0.052900001
0.77937686 0.18047644 0.64000005
0 0 0
-0.86790574 0.060329117 0.75690001
0.22188361 -0.060561299 0.052900001
-0.47897947 0.031283539 0.2304
-0.1506349 -0.30480999 0.1156
-0.013721597 -0.3297146 0.10890001
0.45928696 0.58022022 0.54760003
-0.70621562 0.60511118 0.86489999
-0.085228033 -0.96624857 0.94090003
0.045607902 -0.43762991 0.1936
-0.13918419 0.33200568 0.1296
-0.29671538 -0.14442991 0.10890001
0.41360864 0.24357319 0.2304
-0.30957121 -0.85572523 0.82810003
0.93282664 0.17981777 0.90249997
-0.30998635 -0.11317454 0.10890001
0.093329765 0.84486067 0.72250003
-0.12828183 -0.021065824 0.016899999
0.020857129 0.11817351 0.0144
-0.10255118 -0.54035479 0.30250001
0.019952582 -0.0013764044 0.00039999999
0.10221817 0.040637985 0.0121
0.61210632 0.43338889 0.5625
-0.094631642 -0.032324176 0.010000001
-0.44190755 0.42049697 0.37210003
0.093544737 -0.2955493 0.096100003
-0.20940705 0.34080595 0.16000001
-0.83707392 0.50961488 0.96040004
0.64358336 0.62912673 0.80999994
-0.15487592 -0.04016776 0.025599999
0.34904248 -0.56015122 0.43560004
-0.011556176 0.32979763 0.10890001
0.4689309 0.57245415 0.54760003
-0.042416833 0.59849882 0.36000001
0.020373957 -0.06696941 0.0049000001
-0.025088115 0.32904497 0.10890001
-0.52682257 0.18988948 0.3136
0.78458977 -0.4409295 0.80999994
0.065789737 -0.52590084 0.28089997
-0.40104103 0.39085308 0.3136
0.14605284 -0.57163674 0.34809998
0.36215264 -0.56368917 0.44890001
-0.038289044 -0.011573634 0.0016
-0.86564207 -0.2806491 0.82810003
-0.051598847 0.061135575 0.0063999998
0.14242233 -0.28655869 0.1024
0.035022307 0.082906201 0.0081000002
-0.10339216 0.76302689 0.59289998
0.070363507 -0.084551625 0.0121
-0.25351343 -0.64174056 0.4761
-0.049803723 -0.0044259643 0.0025000002
-0.75950992 0.28150433 0.65609998
-0.078418784 0.50393498 0.26009998
-0.95992088 -0.012320226 0.92159998
0.37829354 -0.65916157 0.5776
0.076943293 0.20610611 0.0484
0.87516916 0.31460905 0.86489999
0.0012741282 -0.85999912 0.7396
-0.016500477 0.068027452 0.0049000001
-0.059402023 0.4359718 0.1936
-0.65635961 0.54008526 0.72250003
0.54521197 -0.75342149 0.86489999
0.19314523 0.37295431 0.17639999
0.23878503 -0.16456519 0.084099993
-0.34089053 -0.49375468 0.36000001
-0.089279473 -0.23351483 0.0625
-0.047897559 -0.014346565 0.0025000002
0.20947155 0.21475954 0.090000004
-0.80989283 0.013176247 0.65609998
0.42403486 -0.47936878 0.40959999
-0.31958398 -0.016311849 0.1024
0.42100576 -0.12788333 0.1936
0.66050452 0.43339798 0.62410003
0.37795985 0.63619679 0.54760003
0.079981372 0.001726196 0.0063999998
0.058955945 0.011144354 0.0035999999
-0.4708074 -0.09348999 0.2304
0.38339117 -0.071492635 0.15209998
0.70999551 0.0025221391 0.50409997
-0.062937148 -0.95793474 0.92159998
-0.17653131 0.035166681 0.032400001
0.21510331 -0.44026196 0.24010001
-0.75790185 -0.33835599 0.68889999
0.15932459 -0.26592419 0.096100003
-0.51114237 -0.27410489 0.33639997
-0.58348721 0.4551293 0.54760003
0.022238443 -0.36933109 0.13690001
-0.39552352 -0.54079682 0.44890001
0.46511894 0.15415701 0.24010001
0.062202819 0.55653465 0.3136
-0.0016986753 0.64999777 0.42249995
-0.51167637 0.17258997 0.29160002
0.088252164 0.10868099 0.0196
-0.54809809 0.045700371 0.30250001
-0.17546555 0.62586886 0.42249995
0.060374014 -0.20113422 0.044099998
-0.42170838 -0.64425308 0.59289998
0.10045143 -0.58138579 0.34809998
-0.0090995645 -0.0041470369 9.9999997e-05
-0.18838173 0.75690967 0.60839993
-0.16513453 0.38617426 0.17639999
0.053754643 0.49710205 0.25
0.73579288 0.14528885 0.5625
0.86668628 -0.43560874 0.94090003
-0.2109739 -0.60422677 0.40959999
0.56330019 0.64984071 0.7396
-0.16660158 0.091344997 0.0361
-0.056394462 -0.41619664 0.17639999
0.85979909 0.018590515 0.7396
-0.21535702 -0.71841586 0.5625
-0.49477074 0.19000494 0.28089997
0.81991887 0.3195827 0.7744
0.1321388 0.1222266 0.032400001
-0.19725177 0.3933087 0.1936
-0.39905068 0.13099061 0.17639999
0.39966822 -0.69301176 0.64000005
-0.22325175 0.7473678 0.60839993
0.089021482 -0.14482808 0.028900001
0.4929795 -0.16544248 0.27039999
-0.2608934 0.16743545 0.096100003
0.62590623 -0.33517367 0.50409997
-0.37695858 -0.24576864 0.20249999
0.068416722 0.072932526 0.010000001
0.65757841 -0.45562121 0.64000005
-0.86752331 -0.19875433 0.79209995
-0.0090607358 0.0042311996 9.9999997e-05
0.40629473 0.32453743 0.27039999
0.22138825 0.11613459 0.0625
-0.1838322 0.35525444 0.16000001
0.36723936 -0.22368565 0.1849
0.94649166 0.081569061 0.90249997
-0.19391732 -0.048949726 0.040000003
0.21746579 -0.52688581 0.3249
-0.20842117 -0.24281806 0.1024
0.019026633 0.02319455 0.00089999998
-0.6472367 0.43529829 0.60839993
-0.70403117 -0.45819217 0.70559996
-0.56083769 0.38452712 0.46240002
-0.26193321 0.57296681 0.3969
0.2706182 -0.34693772 0.1936
0.49083987 -0.28978649 0.3249
0.23049377 -0.40960056 0.2209
0.060663216 -0.3751266 0.1444
0.0081344685 0.83996058 0.70559996
-0.1675669 0.42839393 0.21160001
0.093092903 -0.090739787 0.016899999
0.45147321 -0.29626337 0.29160002
-0.12751375 -0.14085537 0.0361
0.059329014 -0.21184917 0.0484
-0.73453206 0.089792222 0.54760003
-0.26710665 0.60353464 0.43560004
0.029992877 -0.00065365812 0.00089999998
0.56734312 -0.50568938 0.5776
-0.6706593 -0.7145741 0.96040004
-0.19717535 -0.74432647 0.59289998
0.90021169 0.33349487 0.92159998
0.052213706 -0.38648897 0.15209998
-0.28503907 -0.37370139 0.2209
0.19589958 -0.65117079 0.46240002
-0.32772347 -0.44169825 0.30250001
0.14076465 0.051819991 0.022500001
-0.063125707 0.030251354 0.0049000001
0.50433487 -0.19299318 0.29160002
-0.13779634 -0.31082499 0.1156
-0.14748214 0.26124516 0.090000004
-0.28129891 -0.50721878 0.33639997
0.5698871 0.18769325 0.36000001
-0.48786449 -0.17996725 0.27039999
0.34699878 0.15489303 0.1444
0.21486947 0.25046179 0.10890001
-0.20768595 -0.38790017 0.1936
-0.42781809 0.31284443 0.28089997
0.21780947 0.12271525 0.0625
0.63874328 -0.040087759 0.40959999
0.33518004 -0.13135587 0.1296
0.5870285 -0.05913977 0.34809998
0.20605032 0.34284583 0.16000001
0.71722156 -0.18219009 0.54760003
-0.95774722 0.15368928 0.94090003
0.1515083 -0.23546812 0.078400001
0.057234056 -0.14941306 0.025599999
-0.27827072 0.081641883 0.084099993
0 0 0
0.18679582 -0.6642344 0.4761
0.11417156 0.33085471 0.12249999
0.56603926 0.067078643 0.3249
0.22713073 0.22541435 0.1024
-0.25070992 0.61052811 0.43560004
-0.14619736 0.033560917 0.022500001
0.4661358 0.27261224 0.29160002
0.009308571 -0.0036538346 9.9999997e-05
-0.056974933 0.040667642 0.0049000001
-0.8241787 0.098130003 0.68889999
0.23101769 0.90085006 0.86489999
0.88942105 0.032096047 0.79209995
0.047046944 -0.60818303 0.37210003
-0.54656774 -0.2221795 0.34809998
-0.17713486 -0.3361893 0.1444
0.032131173 0.22774458 0.052900001
0.53614271 -0.064428419 0.29160002
-0.079867475 0.060176291 0.010000001
-0.24124227 0.85668087 0.79209995
-0.22626556 0.12807767 0.067599997
-0.0041926773 -0.029705578 0.00089999998
0.30955523 -0.20267108 0.13690001
-0.10299027 0.43805593 0.20249999
0.16051656 -0.15044744 0.0484
0.80294496 -0.24673732 0.70559996
0.81818473 0.26490337 0.7396
-0.15551861 0.34671885 0.1444
0.0045294566 0.019480349 0.00039999999
0.25249809 -0.2704528 0.13690001
-0.25506535 0.85266739 0.79209995
-0.25914812 -0.021029858 0.067599997
0.81874365 0.04537452 0.6724
0.70198166 -0.23414038 0.54760003
-0.95922184 0.03864418 0.92159998
0.3414318 -0.16680628 0.1444
0.1272355 -0.17947458 0.0484
0.043403905 -0.15400033 0.025599999
-0.48946112 0.10211669 0.25
-0.42854851 -0.32855168 0.29160002
0.020945769 -0.17877717 0.032400001
-0.21036862 -0.79255605 0.6724
-0.13057302 -0.667346 0.46240002
0.5830946 -0.59067816 0.68889999
0.15787093 0.12278749 0.040000003
-0.21921885 -0.81089032 0.70559996
-0.21229352 0.92597598 0.90249997
0.69592249 -0.35226682 0.60839993
-0.20887817 -0.92675233 0.90249997
-0.067031361 -0.20953949 0.0484
0.14865707 0.13379492 0.040000003
0.48133692 0.45156926 0.43560004
-0.11366722 0.52790129 0.29160002
-0.010993111 -0.058984332 0.0035999999
0.4796724 -0.01773102 0.2304
0.26886958 0.19133519 0.10890001
0.36753419 -0.3389965 0.25
-0.19206506 -0.1072894 0.0484
0.43819663 -0.76314068 0.7744
-0.90939891 -0.19466297 0.86489999
0.082579128 0.2465374 0.067599997
-0.38973188 0.61725932 0.53290004
-0.8944518 0.21530442 0.84640002
0.0072750142 -0.039332863 0.0016
0.35901374 0.42977801 0.3136
-0.22557168 0.19778125 0.090000004
0.70757806 0.572218 0.82810003
0.12832817 0.68813652 0.48999998
-0.73354489 0.40928203 0.70559996
0.34252936 0.43031809 0.30250001
-0.04040768 0.39795381 0.16000001
0.013484677 0.026798572 0.00089999998
0.076302096 0.024041418 0.0063999998
-0.0014674908 -0.12999171 0.016899999
0.19664282 0.80636936 0.68889999
0.033926371 -0.07244999 0.0063999998
-0.87058264 -0.12839724 0.7744
0.69506186 -0.53971201 0.7744
-0.29345578 0.1509427 0.10890001
0.098935962 0.16220874 0.0361
0.39759675 0.57612222 0.48999998
0.071902096 -0.15404573 0.028900001
0.47189021 0.16528656 0.25
-0.068027958 -0.098854423 0.0144
0.67540687 -0.078901932 0.46240002
0.14310694 -0.12498163 0.0361
0.57281297 0.14136928 0.34809998
-0.023719259 0.01836836 0.00089999998
0.21257971 -0.46358371 0.26009998
0.14709496 -0.029378084 0.022500001
-0.24064489 0.12243382 0.072900005
-0.45654753 0.17794485 0.24010001
0.047320694 -0.016147817 0.0025000002
0.43029344 -0.18907024 0.2209
0.80846608 0.04982638 0.65609998
0.76314145 -0.32636651 0.68889999
-0.12237563 -0.15819041 0.040000003
-0.58052844 0.29238108 0.42249995
0.10961905 -0.37427753 0.15209998
0.27003449 0.50197744 0.3249
0.6868304 -0.67071903 0.92159998
0.1976479 0.030582864 0.040000003
0.36717808 0.33938217 0.25
0.74990839 0.01172266 0.5625
-0.36917624 -0.15397699 0.16000001
0.86174947 -0.17829166 0.7744
0.0082998611 -0.13975376 0.0196
0.32241085 -0.13620292 0.12249999
-0.028667703 -0.77947301 0.60839993
0.11425096 0.062021907 0.016899999
0.0097914059 -0.002031836 9.9999997e-05
0.13034216 -0.074235603 0.022500001
0.060224466 -0.4762069 0.2304
-0.165749 0.40758711 0.1936
-0.088570483 0.046424884 0.010000001
-0.54198986 0.82846063 0.98010004
-0.28083602 -0.072326563 0.084099993
0.14215571 0.64450896 0.43560004
0.09695217 -0.41892755 0.1849
-0.691679 -0.4766342 0.70559996
0.3176139 0.78842974 0.72250003
-0.2861048 0.46972764 0.30250001
0.13782966 -0.024555767 0.0196
-0.41924256 -0.62188077 0.5625
0.16071124 0.20438172 0.067599997
-0.55010331 0.10481589 0.3136
-0.0023184023 -0.88999695 0.79209995
-0.086113483 -0.52295738 0.28089997
-0.0047684289 -0.039714757 0.0016
0.24963944 0.147581 0.084099993
-0.49665549 -0.057735037 0.25
-0.23012881 0.068122908 0.057599999
0 -0 0
-0.020343402 -0.097908869 0.010000001
0.64662665 -0.55170107 0.72250003
0.27974114 -0.13358483 0.096100003
0.50826412 -0.49574953 0.50409997
0.72092348 0.11475775 0.53290004
-0.28106141 -0.071445666 0.084099993
-0.76171255 -0.32968777 0.68889999
-0.76738733 0.45079556 0.79209995
0.10868424 -0.37455001 0.15209998
-0.13264465 0.070038527 0.022500001
-0.26740333 -0.61432523 0.44890001
-0.38622102 -0.1375984 0.1681
-0.30198658 0.79454648 0.72250003
0.2558485 0.73684561 0.60839993
0.47459498 0.514548 0.48999998
-0.47277465 0.21652733 0.27039999
-0.19868717 -0.09446381 0.0484
0.40861654 0.66440386 0.60839993
-0.087279722 0.066949606 0.0121
0.042868759 -0.42785779 0.1849
0.67149007 -0.56877154 0.7744
0.68228495 0.50693911 0.72250003
0.31924659 -0.021945596 0.1024
-0.13961592 0.010363068 0.0196
-0.016524404 -0.036427241 0.0016
-0.2059337 0.59539169 0.3969
0 0 0
0.13737036 0.1588376 0.044099998
0.42571804 -0.19915862 0.2209
0.65767407 0.73997623 0.98010004
-0.12994936 0.25925499 0.084099993
0.0084635252 -0.0053262305 9.9999997e-05
0.69850838 -0.61399192 0.86489999
-0.063000128 0.049305011 0.0063999998
0.62495053 0.53088307 0.6724
-0.27582216 -0.88815659 0.86489999
-0.75220543 0.16458119 0.59289998
-0.89040202 0.26848507 0.86489999
-0.021557529 0.045113999 0.0025000002
0.056859553 0.80800188 0.65609998
0.24614613 -0.32789034 0.1681
-0.58890045 0.62673461 0.7396
-0.42737722 0.31344643 0.28089997
-0.19357444 0.76591706 0.62410003
0.053523142 -0.084470548 0.010000001
-0.17076388 0.13870724 0.0484
0.3293182 -0.021202147 0.10890001
0.40135404 0.15432088 0.1849
-0.38861117 0.38920608 0.30250001
0.19473219 0.29082531 0.12249999
-0.022758145 -0.019546529 0.00089999998
-0.5880872 0.047470521 0.34809998
-0.31001246 -0.50198829 0.34809998
-0.88019305 -0.18777686 0.80999994
0.4724651 -0.43171373 0.40959999
0.26896545 -0.023613442 0.072900005
-0.27823532 0.65321136 0.50409997
-0.56755227 -0.79892707 0.96040004
0.15606669 -0.18232715 0.057599999
0.27947107 0.077433296 0.084099993
-0.046243813 0.05255007 0.0049000001
0.16697043 -0.18606685 0.0625
-0.066198342 -0.7771858 0.60839993
0.024258807 0.18844497 0.0361
-0.51722556 0.50087696 0.51840001
-0.6114136 -0.43436557 0.5625
0.01343103 0.34974217 0.12249999
0.072566152 0.033677187 0.0063999998
0.8978287 0.14833653 0.82810003
0.084196933 -0.070787542 0.0121
-0.51578867 0.5165869 0.53290004
-0.39895079 -0.50043803 0.40959999
0.065811813 0.54604834 0.30250001
-0.20439139 0.14395887 0.0625
0.039555334 0.43821841 0.1936
0.04860232 -0.16290431 0.028900001
0.065530531 -0.061690763 0.0081000002
0.43224978 -0.12514038 0.20249999
-0.53744048 -0.3287214 0.3969
-0.035018299 -0.24753529 0.0625
-0.2078063 -0.09857256 0.052900001
0.60544407 -0.17417653 0.3969
-0.74721771 0.46482867 0.7744
-0.014879993 -0.078603983 0.0063999998
-0.14644647 -0.15051055 0.044099998
-0.51488823 0.75032669 0.82810003
-0.61677468 0.063158877 0.38440001
-0.15210751 -0.39148858 0.17639999
-0.045533851 0.21523631 0.0484
0.0035789588 -0.0093376143 9.9999997e-05
-0.24264002 -0.06021478 0.0625
0.51945508 0.48401076 0.50409997
-0.014876083 0.13920741 0.0196
0.25381115 0.056390539 0.067599997
-0.04907307 0.83856535 0.70559996
0.27391055 -0.58946836 0.42249995
0.44188157 0.27411798 0.27039999
-0.12956475 -0.16526636 0.044099998
0.1552197 -0.48580536 0.26009998
0.70176619 -0.29176053 0.5776
0.019720536 -0.0033317399 0.00039999999
-0.63045198 0.30418789 0.48999998
-0.035196673 0.25760666 0.067599997
0.16043416 0.29976806 0.1156
0.19439676 0.81719637 0.70559996
0.60849029 0.30354506 0.46240002
-0.47438711 -0.27831078 0.30250001
0.23107819 0.42071709 0.2304
-0.06494952 0.5864141 0.34809998
-0.13739869 -0.48075107 0.25
0.24473704 -0.051027223 0.0625
-0.043476213 0.054861818 0.0049000001
-0.14404015 0.44738397 0.2209
-0.69553173 -0.2526572 0.54760003
-0.41070357 0.46445942 0.38440001
-0.21724983 -0.034677263 0.0484
0.11117624 -0.68098444 0.4761
0.08216735 -0.27811602 0.084099993
0.080668308 0.039907709 0.0081000002
