ply
format ascii 1.0
comment PCL generated
element vertex 1425
property float x
property float y
property float z
element camera 0
property float view_px
property float view_py
property float view_pz
property float x_axisx
property float x_axisy
property float x_axisz
property float y_axisx
property float y_axisy
property float y_axisz
property float z_axisx
property float z_axisy
property float z_axisz
property float focal
property float scalex
property float scaley
property float centerx
property float centery
property int viewportx
property int viewporty
property float k1
property float k2
end_header
-0.64339012 -0.45842034 0.62410003
0.091340542 0.061293595 0.0121
-0.37387267 -0.50706929 0.3969
-0.86788177 -0.060673177 0.75690001
-0.19773386 0.15297489 0.0625
-0.0140194 0.099012405 0.010000001
-0.51436144 0.66410255 0.70559996
0.16565266 0.34199297 0.1444
0.18156464 -0.4117454 0.20249999
0.18727146 -0.78805417 0.65609998
0.0077500795 0.0063195145 9.9999997e-05
-0.36526814 -0.50097823 0.38440001
0.23944694 0.4840095 0.29160002
0.87152529 -0.12183486 0.7744
-0.69600827 -0.41433388 0.65609998
-0.252177 0.36056447 0.1936
-0.73466259 0.58640498 0.8836
-0.28750744 0.18149237 0.1156
0.032596052 0.13615248 0.0196
0.054874714 -0.95843035 0.92159998
0.062242709 -0.13647655 0.022500001
-0.0026354024 -0.20998345 0.044099998
0.31951353 -0.60025918 0.46240002
0.88340575 0.34941995 0.90249997
-0.53303933 -0.60989273 0.65609998
-0.91076392 0.33378011 0.94090003
-0.057959333 -0.093491793 0.0121
0.36403504 -0.90987831 0.96040004
0.28122056 0.38899228 0.2304
-0.64707202 0.061625957 0.42249995
-0.17478938 0.11639874 0.044099998
0.82322139 -0.4537693 0.8836
-0.10032719 0.68266714 0.4761
0.13521893 -0.21027564 0.0625
-0.0057457862 0.53996944 0.29160002
0.61560148 0.41065171 0.54760003
-0.569049 -0.61788613 0.70559996
0.0095235435 0.20978394 0.044099998
0.0078316461 -0.06956052 0.0049000001
0.1433679 0.10883771 0.032400001
0.28850088 0.3960647 0.24010001
0.44212019 0.59340519 0.54760003
-0.49872944 -0.61267364 0.62410003
-0.45243648 -0.62305796 0.59289998
-0.010650435 -0.58990383 0.34809998
-0.12806842 -0.02232662 0.016899999
0.078281477 -0.016492728 0.0063999998
0 -0 0
0.068760961 -0.39404559 0.16000001
-0.01952932 -0.12852472 0.016899999
-0.40084308 0.31531698 0.26009998
0.13004082 0.093216866 0.025599999
-0.4603419 -0.73823118 0.75690001
-0.86606497 0.082652673 0.75690001
-0.06154402 -0.078818366 0.010000001
0.16870241 -0.295194 0.1156
0.48056212 0.54950893 0.53290004
-0.55888361 -0.43789163 0.50409997
0.2970686 -0.11895479 0.1024
-0.32713708 -0.15027091 0.1296
-0.36353776 0.29789311 0.2209
0.15559351 -0.24472567 0.084099993
-0.086690523 -0.024181692 0.0081000002
-0.68611741 -0.48460594 0.70559996
-0.059822008 -0.036350068 0.0049000001
-0.56417322 0.7767294 0.92159998
0.55209208 0.69806468 0.79209995
0.92927599 0.03668905 0.86489999
0.13667649 -0.52241707 0.29160002
0.022268847 0.21887004 0.0484
0.33375445 0.18168095 0.1444
0.03466614 0.26776531 0.072900005
0.65029454 0.19878899 0.46240002
0.67911363 -0.034708969 0.46240002
0.42030227 0.27082464 0.25
-0.44597426 -0.85012174 0.92159998
-0.033284657 -0.049921252 0.0035999999
0.29869422 -0.47368953 0.3136
-0.024240302 0.065668926 0.0049000001
-0.16859271 -0.021828879 0.028900001
0.029747853 -0.41894516 0.17639999
0.5059042 -0.51230943 0.51840001
-0.32960033 0.70693958 0.60839993
-0.027663046 -0.10646481 0.0121
-0.33859402 0.354195 0.24010001
-0 -0 0
0.92820191 0.057803277 0.86489999
-0.26264355 -0.44879654 0.27039999
-0.22325218 -0.18509042 0.084099993
0.13475254 0.037970409 0.0196
0.057899836 0.28416124 0.084099993
0.33048013 0.7395153 0.65609998
0.10996832 0.87310189 0.7744
0.48249215 0.24248989 0.29160002
-0.80400652 0.20609097 0.68889999
-0.55115718 0.26139194 0.37210003
-0.37089252 0.082696632 0.1444
0.091270357 0.092572786 0.016899999
0.0080814417 0.018294543 0.00039999999
0.41812962 -0.3256802 0.28089997
0.1126226 -0.6096853 0.38440001
0.90936011 0.034121148 0.82810003
0.18572617 0.82946116 0.72250003
0.39171973 -0.56802785 0.4761
-0.32498115 0.59731668 0.46240002
-0.4536956 -0.07589674 0.21160001
-0.76036596 -0.60228205 0.94090003
-0.31733626 0.16999324 0.1296
-0.078361228 -0.69560009 0.48999998
-0.5865196 0.60132742 0.70559996
0.11798777 0.075358376 0.0196
-0.70199066 0.42380312 0.6724
0.64458722 0.5068602 0.6724
-0.11259766 0.17726184 0.044099998
-0.17007989 0.16933054 0.057599999
0.22496703 -0.33074135 0.16000001
-0.37772283 -0.73907065 0.68889999
0.87179452 -0.32384303 0.86489999
-0.26725039 -0.038434766 0.072900005
-0.076658286 -0.34150183 0.12249999
-0.21064411 -0.44241279 0.24010001
-0.38717061 0.28372326 0.2304
0.61910105 -0.19802494 0.42249995
0.25841123 0.25064647 0.1296
-0.10614052 0.23734823 0.067599997
0.65088671 -0.65018958 0.84640002
-0.20844895 0.66824323 0.48999998
0.43785244 -0.10385192 0.20249999
0.3496477 -0.65218592 0.54760003
-0.14123724 -0.38490522 0.1681
-0.42768121 -0.1033866 0.1936
-0.22614165 0.28010708 0.1296
-0.50115877 0.41393223 0.42249995
0.38421246 0.28771648 0.2304
0.80740416 0.51932496 0.92159998
0.08503855 -0.9060179 0.82810003
0.6440798 0.24751003 0.4761
0.45982856 0.16928586 0.24010001
0.26885256 -0.024865825 0.072900005
-0.26375827 -0.69139826 0.54760003
-0.045788612 -0.088901088 0.010000001
-0.11540943 -0.4452872 0.21160001
0.57333541 -0.73224753 0.86489999
-0.61421007 0.60195184 0.7396
0.098824844 -0.015285635 0.010000001
0.53291613 -0.45387262 0.48999998
-0.4706884 -0.38801086 0.37210003
-0.052841272 -0.34598812 0.12249999
-0.85096586 -0.26068586 0.79209995
0.59732181 -0.36497489 0.48999998
-0.1161375 -0.15037313 0.0361
-0.7302233 0.47294179 0.75690001
0.021822998 -0.033522483 0.0016
-0.060145229 -0.25294772 0.067599997
-0.45946053 -0.58008283 0.54760003
0.24739939 0.26152158 0.1296
0.18705165 -0.033341825 0.0361
-0.042397052 0.16462834 0.028900001
-0.26927975 -0.019708563 0.072900005
-0.83773321 -0.061669052 0.70559996
-0.027786115 -0.34889528 0.12249999
0.95999467 0.0031979508 0.92159998
-0.085642874 -0.11074881 0.0196
-0.42330614 0.60696948 0.54760003
-0.6309759 -0.22532082 0.44890001
0.21397525 -0.38446665 0.1936
0.5631699 -0.23439215 0.37210003
0.64137095 -0.44389555 0.60839993
-0.056971349 -0.19171403 0.040000003
-0.37696972 -0.29714274 0.2304
0.56488556 0.076186106 0.3249
-0.4220517 -0.71468335 0.68889999
-0.16944838 -0.085949086 0.0361
0.17237981 -0.36095044 0.16000001
-0.43235147 -0.4160195 0.36000001
-0.35805166 -0.17832278 0.16000001
-0.094683811 -0.83464664 0.70559996
-0.11642595 -0.4139384 0.1849
-0.062378325 0.19002354 0.040000003
-0.045267411 -0.021233508 0.0025000002
-0.25030956 0.59987086 0.42249995
0.2352253 0.08467029 0.0625
-0.21036637 -0.25425577 0.10890001
0.42277348 0.078502253 0.1849
-0.52547485 -0.26828369 0.34809998
-0.18707627 -0.48518291 0.27039999
-0.54481775 0.57207835 0.62410003
-0.3719058 -0.23512991 0.1936
-0.15132165 0.37027255 0.16000001
0.0097964983 0.0020071408 9.9999997e-05
-0.0059404061 -0.13987391 0.0196
-0.12536103 0.4529731 0.2209
0.12811492 0.27126846 0.090000004
0.28826112 -0.38380402 0.2304
0.10404261 0.035709038 0.0121
-0.45461911 0.76512831 0.79209995
0.23897609 -0.48424214 0.29160002
-0.04483676 -0.039870601 0.0035999999
-0.40189496 0.5608747 0.4761
0.32933214 -0.88042057 0.8836
-0.083424903 0.43201885 0.1936
-0.96192491 -0.12490185 0.94090003
0.52679271 -0.6797716 0.7396
-0.63871473 -0.44770911 0.60839993
-0.29741251 -0.039316721 0.090000004
0.24230877 0.17687982 0.090000004
0.067924149 0.72683311 0.53290004
-0.030528145 -0.45898589 0.21160001
-0.55455631 0.44335908 0.50409997
0.039546981 -0.030594712 0.0025000002
0.50794733 0.045710858 0.26009998
0.23118897 -0.57528394 0.38440001
-0.43518659 -0.41305283 0.36000001
-0.14269575 0.43730757 0.21160001
0.62173116 0.29924953 0.4761
0.48722517 -0.38342097 0.38440001
-0.7091701 -0.55414599 0.80999994
0.91981041 0.018676978 0.84640002
-0.51374215 -0.080429934 0.27039999
-0.041844208 -0.043000724 0.0035999999
0.003760359 0.029763395 0.00089999998
-0.28988457 0.73489255 0.62410003
0.12329808 0.11703668 0.028900001
0.23342666 -0.21888809 0.1024
-0.15160413 -0.18605424 0.057599999
0.21266882 -0.056320272 0.0484
0.83943284 0.030861143 0.70559996
-0.33964369 0.015561659 0.1156
0.013286959 0.037728723 0.0016
-0.64096558 -0.44448072 0.60839993
0.19423589 -0.14096957 0.057599999
-0.30750158 -0.28608176 0.17639999
0.42149055 -0.28713363 0.26009998
0.42030695 -0.090785831 0.1849
0.097838469 0.57168841 0.33639997
-0.37538594 0.059037182 0.1444
-0.38748711 0.8123138 0.80999994
0.32218477 -0.1819257 0.13690001
0.24225529 -0.41438192 0.2304
0.4611167 -0.13330939 0.2304
-0.52799469 -0.26328999 0.34809998
0 0 0
-0.23900297 -0.53942335 0.34809998
0.24747118 0.87570429 0.82810003
-0.15577424 0.090190858 0.032400001
0.24672149 0.32745764 0.1681
-0.034736842 0.12527311 0.016899999
0.039442513 -0.08089678 0.0081000002
-0.16861342 0.14131352 0.0484
-0.13926296 -0.14354731 0.040000003
-0.036802549 0.033846304 0.0025000002
0.85344589 0.36949989 0.86489999
0.60850257 -0.51935023 0.64000005
0.33931258 0.43285909 0.30250001
0.10231578 -0.50983477 0.27039999
0.016304938 0.047266785 0.0025000002
0.28897211 0.024394786 0.084099993
0.53173459 -0.2316426 0.33639997
0.41975975 -0.1319157 0.1936
-0.49613288 -0.25971559 0.3136
0.21563029 -0.080022357 0.052900001
-0.035969935 -0.082499482 0.0081000002
-0.8384974 0.050220706 0.70559996
-0.48556793 0.21242355 0.28089997
-0.20693329 0.71047777 0.54760003
-0.38943982 0.020895286 0.15209998
0.18449755 0.30912888 0.1296
-0.57335716 0.54347181 0.62410003
-0.15504429 -0.039512865 0.025599999
0.072599985 -0.48459184 0.24010001
-0.66646278 -0.64863503 0.86489999
-0.14280193 -0.28636971 0.1024
-0.033189122 0.10487365 0.0121
-0.31478512 0.54571998 0.3969
0.0048903273 -0.43997282 0.1936
-0.1619453 -0.14890844 0.0484
-0.45285538 -0.5072692 0.46240002
0.5183236 -0.23715112 0.3249
0.01830573 -0.046528488 0.0025000002
0.1099661 0.0027306553 0.0121
-0.79111296 0.38540921 0.7744
0.12201393 -0.60787547 0.38440001
0.79570264 0.26917884 0.70559996
-0.27158391 -0.34618229 0.1936
-0.31724921 -0.72350049 0.62410003
0.1707695 -0.10410466 0.040000003
-0.75720894 0.63775742 0.98010004
0.44050834 -0.163867 0.2209
0.14457066 0.44721285 0.2209
0.64704245 -0.26708815 0.48999998
0.31413448 0.74660534 0.65609998
-0.066201463 -0.087848537 0.0121
0.17068338 -0.2092061 0.072900005
0.047056109 -0.016903332 0.0025000002
0.29167154 -0.10501292 0.096100003
0.092040777 -0.62324029 0.3969
-0.1879559 0.068356238 0.040000003
0.92719656 -0.20689735 0.90249997
-0.15206249 -0.69352502 0.50409997
0.47649336 0.29420072 0.3136
0.83781719 0.14339584 0.72250003
-0.072144285 -0.26018304 0.072900005
-0.27846164 -0.17708507 0.10890001
0.3750532 0.28325799 0.2209
0.32265085 -0.15967606 0.1296
-0.035829604 -0.74914366 0.5625
-0.11496042 -0.079900578 0.0196
0.20140804 -0.088514403 0.0484
0.068636715 -0.013747772 0.0049000001
0.1848208 0.18286954 0.067599997
0.45807248 -0.85502613 0.94090003
-0.020395491 0.087658569 0.0081000002
-0.6879757 0.2123428 0.51840001
0.030030517 -0.24818978 0.0625
0.30741513 -0.36864066 0.2304
-0.41879442 -0.19029254 0.21160001
0.056536887 -0.070025578 0.0081000002
-0.22628276 0.65184051 0.4761
0 -0 0
0.01854446 0.25933781 0.067599997
-0.82179612 0.28557149 0.75690001
0.56637454 -0.12497951 0.33639997
-0.28187379 0.2977367 0.1681
-0.94998211 0.0058328742 0.90249997
0.023351884 -0.12788545 0.016899999
-0.0066625928 0.38994309 0.15209998
-0.67427379 -0.088061966 0.46240002
0.22569247 -0.2125157 0.096100003
0.14363846 -0.55160493 0.3249
0.22136 0.27110839 0.12249999
-0.88933617 -0.034367148 0.79209995
-0.87342364 -0.21709703 0.80999994
0.5968678 -0.061228026 0.36000001
0.17220762 -0.41574574 0.20249999
0.0033784211 0.27997962 0.078400001
0.00067737658 -0.0099770315 9.9999997e-05
0.24490993 0.050190888 0.0625
-0.015436215 -0.2094319 0.044099998
-0.31668341 -0.31970549 0.20249999
-0.033664849 -0.66915369 0.44890001
0.60141283 -0.72242832 0.8836
0.19947603 0.014467674 0.040000003
-0.56695336 -0.1223269 0.33639997
-0.32877582 0.42837656 0.29160002
-0.10649999 -0.027527284 0.0121
0.23716985 -0.036748629 0.057599999
0.079623215 0.26844022 0.078400001
-0.016930318 0.010647268 0.00039999999
-0.48292992 0.61251825 0.60839993
0 0 0
-0.03496711 0.22732642 0.052900001
-0.079085745 0.24768011 0.067599997
-0.12109068 -0.070264123 0.0196
-0.048085134 -0.18381463 0.0361
-0.029480401 0.18769898 0.0361
-0.52061301 -0.45283782 0.4761
-0.41491294 0.14644879 0.1936
-0.27850625 -0.028883725 0.078400001
-0.43756044 -0.046269391 0.1936
-0.23373127 0.65982544 0.48999998
-0.19292153 0.21652085 0.084099993
0.46974316 0.35698923 0.34809998
0.035503015 -0.12505811 0.016899999
0.021998007 -0.449462 0.20249999
-0.010418928 -0.12958181 0.016899999
0.014232209 -0.4897933 0.24010001
-0.23468564 -0.96178097 0.98010004
-0.36456621 0.80093163 0.7744
0.65515316 0.42328981 0.60839993
-0.23988037 -0.007576467 0.057599999
-0.9215582 0.1250217 0.86489999
-0.63997608 -0.0055332812 0.40959999
-0.01191388 -0.33979121 0.1156
0.75880992 -0.52019948 0.84640002
0.60378343 -0.50945628 0.62410003
-0.36987698 0.80950046 0.79209995
-0.59836668 0.044241816 0.36000001
0.29230681 -0.58056581 0.42249995
0.57011348 -0.24366084 0.38440001
-0.14585032 0.06578511 0.025599999
-0.073710665 0.03109239 0.0063999998
-0.25212517 -0.5773499 0.3969
0.054825753 0.96844941 0.94090003
-0.68522477 0.25172815 0.53290004
0.57974631 0.10951804 0.34809998
-0.23580544 -0.70142412 0.54760003
0.82830334 0.37684694 0.82810003
-0.38310492 0.17213541 0.17639999
0.16586471 0.80304974 0.6724
0.53703618 0.26756716 0.36000001
-0.4603624 -0.1358913 0.2304
-0.14058127 0.16922443 0.0484
0.19400452 -0.46082777 0.25
-0.1374079 0.31099689 0.1156
0.051994812 -0.49728918 0.25
-0.76781452 0.40909761 0.75690001
0.18402813 -0.078317627 0.040000003
-0.41651794 0.56259471 0.48999998
0.41046479 0.33528885 0.28089997
-0.9384104 -0.05464286 0.8836
-0.01409734 -0.39975151 0.16000001
-0.10251465 -0.13561249 0.028900001
-0.083546795 0.054953914 0.010000001
-0.43208954 -0.43057942 0.37210003
-0.80613452 0.46373174 0.86489999
-0.068997234 -0.57588136 0.33639997
0.59087247 0.37532619 0.48999998
0.0099976314 -0.00021762862 9.9999997e-05
-0.034037896 0.20722312 0.044099998
-0.48247713 -0.68761599 0.70559996
0.35195577 0.14327295 0.1444
0.02408655 0.85966259 0.7396
0.30556044 0.66297275 0.53290004
0.3473565 0.67597592 0.5776
-0.77211159 0.61963195 0.98010004
-0.82094359 0.39262146 0.82810003
0.72934502 -0.59300578 0.8836
0.21833853 -0.072306901 0.052900001
0.10605141 0.15764865 0.0361
0.0088738007 -0.0046103871 9.9999997e-05
-0.0069240988 0.04951825 0.0025000002
-0.048777293 -0.010989791 0.0025000002
-0.010755587 -0.43986854 0.1936
-0 0 0
0.52618968 -0.77892518 0.8836
0.37677723 0.16167532 0.1681
0.079922482 -0.0035208438 0.0063999998
0.74803472 -0.51821238 0.82810003
0.29195711 -0.19303118 0.12249999
-0.62417436 0.14144389 0.40959999
0.030950934 -0.41885802 0.17639999
-0.67203778 0.28507048 0.53290004
0.15707383 -0.030460037 0.025599999
0.88775313 -0.27711809 0.86489999
0.30947909 -0.081379965 0.1024
-0 -0 0
-0.5596723 -0.10801356 0.3249
-0.1415783 -0.094104111 0.028900001
0.016011737 -0.16924427 0.028900001
-0.056976061 0.18125597 0.0361
0.090506971 -0.52221495 0.28089997
-0.43787354 -0.043206107 0.1936
-0.42309725 -0.80566043 0.82810003
0.93054885 -0.33790362 0.98010004
-0.53991985 0.0093038399 0.29160002
0.087194078 -0.082445085 0.0144
-0.23053047 0.67153233 0.50409997
0.72359133 -0.44599956 0.72250003
-0.26135197 -0.81932604 0.7396
-0.60750902 0.45665383 0.5776
-0.015800061 -0.23947935 0.057599999
0.061997678 -0.050559744 0.0063999998
-0.18003917 0.33464295 0.1444
-0.33528781 -0.10040957 0.12249999
-0.52105397 0.78236997 0.8836
-0.19443683 -0.64116639 0.44890001
0.18620482 0.685148 0.50409997
0.10075116 -0.082153529 0.016899999
-0.63401723 -0.74727654 0.96040004
-0.39766774 0.099801697 0.1681
0.0091688856 0.27984983 0.078400001
-0.417299 0.32674375 0.28089997
-0.24520008 -0.36534494 0.1936
0.16508296 -0.35333779 0.15209998
0.32648599 0.59649551 0.46240002
0.009944926 0.0010480649 9.9999997e-05
-0.36639836 0.88732868 0.92159998
0.10691687 0.22598404 0.0625
-0.27289078 0.21915889 0.12249999
-0.040968593 -0.41799709 0.17639999
-0.18055698 -0.086018495 0.040000003
0.18630838 -0.23513654 0.090000004
-0.13317272 -0.19966228 0.057599999
-0.032362875 -0.050523702 0.0035999999
-0.069250032 -0.040055368 0.0063999998
-0.271191 0.12827875 0.090000004
-0.058162916 0.014733461 0.0035999999
-0.24851997 0.24645042 0.12249999
0.4986513 0.53314811 0.53290004
-0.82813507 0.14068487 0.70559996
-0.80056268 0.49264526 0.8836
0.20918904 0.82385677 0.72250003
-0.76863188 0.57515651 0.92159998
-0.19233811 0.21703927 0.084099993
0.56669325 0.50641763 0.5776
-0.64141876 -0.10527086 0.42249995
-0.81685454 -0.19582804 0.70559996
-0.88852477 0.19652951 0.82810003
0.62167835 0.66454202 0.82810003
-0.85764968 0.06353759 0.7396
0.016086403 0.49974117 0.25
-0.3378776 -0.09131664 0.12249999
-0 -0 0
0.043616291 -0.089986771 0.010000001
0.37179053 0.31917363 0.24010001
0.31239414 0.59271401 0.44890001
0.069764763 -0.31230253 0.1024
0.00087503367 0.37999901 0.1444
0.097809725 -0.66282219 0.44890001
0.63068092 -0.1088189 0.40959999
-0.19687466 -0.87820292 0.80999994
-0.38162923 -0.19813921 0.1849
0.56535947 -0.52275103 0.59289998
-0.35847786 0.12606987 0.1444
0.18582693 0.31995055 0.13690001
-0.10359073 -0.66194338 0.44890001
0.24580169 -0.32814863 0.1681
0.34955314 0.31418562 0.2209
0.111234 0.2569572 0.078400001
-0.64532328 0.1384123 0.43560004
0.057232086 0.54701418 0.30250001
0.11510225 -0.23313402 0.067599997
0.89110166 0.12624493 0.80999994
0.060457326 0.19064341 0.040000003
-0.32064769 -0.77639234 0.70559996
-0.2101711 -0.48654711 0.28089997
-0.30836198 -0.58353484 0.43560004
-0.028126044 -0.041339155 0.0025000002
-0.27078494 0.78458619 0.68889999
-0.57757229 -0.25161526 0.3969
0.66315109 0.15043493 0.46240002
0.4308064 -0.40312013 0.34809998
-0.33636945 -0.12827943 0.1296
-0.019872375 0.0022558202 0.00039999999
0.1377261 -0.059426624 0.022500001
0.44493118 0.11677437 0.21160001
-0.4944222 -0.3032271 0.33639997
0.042436928 0.10148451 0.0121
0.37776008 -0.1593654 0.1681
-0.041472416 0.027929176 0.0025000002
-0.62901795 -0.25833389 0.46240002
0.54228169 0.091818251 0.30250001
-0.041887462 0.056084227 0.0049000001
0.069483474 -0.28155291 0.084099993
0.0081618428 -0.039158452 0.0016
0.44788766 0.44305381 0.3969
-0.4550955 -0.58351356 0.54760003
-0.2318489 -0.81776899 0.72250003
0.80997592 0.0062488178 0.65609998
0.28260219 -0.10067771 0.090000004
0.38619512 0.44604179 0.34809998
0.15014929 0.11642677 0.0361
0.31212094 -0.42834622 0.28089997
-0.085559361 0.14689995 0.028900001
-0.28091392 -0.59723312 0.43560004
-0.1948216 0.12224787 0.052900001
0.15968239 -0.28879327 0.10890001
-0.71229684 0.1050391 0.51840001
0.66680688 0.61924845 0.82810003
0.43355417 -0.70776463 0.68889999
-0.32976726 -0.30619201 0.20249999
-0.035567932 -0.18664116 0.0361
0.19546114 -0.04236681 0.040000003
-0.83095723 0.17891368 0.72250003
-0.32414648 -0.28254038 0.1849
0.41114518 -0.2845341 0.25
-0.35295498 0.26272184 0.1936
-0.7502737 0.12119972 0.5776
-0.17492986 0.53197706 0.3136
0.9367938 0.20980303 0.92159998
-0.1623079 -0.050558336 0.028900001
0.10264844 0.59115422 0.36000001
0.022300746 -0.020066803 0.00089999998
-0.39887011 -0.160632 0.1849
0.36085498 -0.081753805 0.13690001
0.34636632 -0.23755074 0.17639999
-0.15299889 0.18490899 0.057599999
0.028705468 -0.040938929 0.0025000002
0.66517586 0.2180392 0.48999998
-0.26333693 0.94395643 0.96040004
-0.087919697 -0.5631786 0.3249
-0.61983353 0.36634192 0.51840001
0.057858177 0.2018723 0.044099998
-0.027727149 0.028830625 0.0016
-0.13800025 -0.40725416 0.1849
-0.50822747 0.042482972 0.26009998
0.45760959 -0.60678947 0.5776
-0.099299349 -0.098689601 0.0196
-0.7979244 0.51557416 0.90249997
-0.018406304 -0.25934765 0.067599997
-0.75203449 -0.4374291 0.75690001
0.63592929 -0.17661825 0.43560004
-0.088372715 0.80516475 0.65609998
-0.009979073 0.07937517 0.0063999998
0.47998071 0.43831325 0.42249995
0.68575054 -0.076460205 0.4761
0.0038254813 -0.059877921 0.0035999999
0.28365627 -0.060325112 0.084099993
-0.20693147 0.87588775 0.80999994
-0.56111884 0.10022809 0.3249
-0.010447835 -0.36985245 0.13690001
0.11559523 0.96308768 0.94090003
-0.35492438 -0.6264413 0.51840001
-0.22801071 0.3879576 0.20249999
0.24177435 0.063601568 0.0625
-0.038034379 0.012384905 0.0016
-0.19105169 -0.88971871 0.82810003
-0.69039124 -0.31774199 0.5776
0.22808498 0.91190857 0.8836
-0.08910764 0.2654427 0.078400001
-0.76652801 0.54409081 0.8836
0.40522453 0.75854671 0.7396
-0.18003827 -0.39049485 0.1849
0.22248824 0.22999777 0.1024
-0 0 0
0.67938739 -0.20623474 0.50409997
-0.45770654 -0.17494209 0.24010001
0.034496024 -0.072180495 0.0063999998
0.34892476 0.088608801 0.1296
-0.30246991 0.8794384 0.86489999
0.038497601 0.28743336 0.084099993
-0.2078518 -0.72062314 0.5625
0.36112201 0.56435001 0.44890001
0.87475234 -0.4191758 0.94090003
0.30414715 0.25979707 0.16000001
-0.24174859 -0.73106605 0.59289998
-0.26891106 -0.024224959 0.072900005
-0.38922778 -0.7780757 0.75690001
0.30943084 0.018776445 0.096100003
0.2889578 0.47969091 0.3136
-0.49267671 0.34244657 0.36000001
-0.063140504 -0.24189517 0.0625
-0.31117025 0.93982607 0.98010004
0.31764966 0.76681072 0.68889999
-0.15299933 -0.35873556 0.15209998
-0.43964025 0.23815213 0.25
0.032839373 0.72926098 0.53290004
0.25456914 -0.30853614 0.16000001
-0.64795589 0.46920481 0.64000005
0.082218856 -0.57414287 0.33639997
0.15884945 0.019153336 0.025599999
0.068993129 0.011829996 0.0049000001
-0.27554485 0.41722301 0.25
-0.087079339 -0.65423024 0.43560004
-0.16983457 -0.0074981563 0.028900001
0.34584117 -0.55035794 0.42249995
0.52906483 0.031470072 0.28089997
0.26321185 -0.27407938 0.1444
0.6683411 0.36182889 0.5776
-0.25680944 -0.3572799 0.1936
-0.46649686 -0.14993572 0.24010001
-0.15009561 -0.31618237 0.12249999
0.22747299 0.67257416 0.50409997
0.064839393 0.1785941 0.0361
-0.061138362 0.11472619 0.016899999
0.18385537 0.15426342 0.057599999
-0.14839883 0.059814565 0.025599999
0.56269854 -0.52561432 0.59289998
0.15744133 -0.243541 0.084099993
0 0 0
-0.68994486 -0.0087224143 0.4761
-0.041018158 0.74887753 0.5625
-0.58416575 -0.082766645 0.34809998
0.13081361 -0.26997742 0.090000004
0.14410028 0.36240187 0.15209998
-0.013337651 0.014903257 0.00039999999
-0.66330016 -0.19008647 0.4761
-0.65684354 -0.1321235 0.44890001
-0.11193805 -0.066104993 0.016899999
-0.52416492 0.81618083 0.94090003
-0.052247994 -0.14060636 0.022500001
-0.037111256 0.5988512 0.36000001
-0.075959675 -0.048271406 0.0081000002
0.017170575 -0.010255309 0.00039999999
-0.00073882606 -0.31999913 0.1024
0.16564126 -0.87445009 0.79209995
0.70291048 0.10008394 0.50409997
0.022219202 -0.26908422 0.072900005
0.399575 0.71605849 0.6724
0.1091719 0.1431136 0.032400001
0.2993108 0.11319467 0.1024
0.12243979 0.086651579 0.022500001
-0.093406767 -0.035709616 0.010000001
-0.26290098 0.38959345 0.2209
-0.12952025 0.16530123 0.044099998
0.4977093 0.18216863 0.28089997
0.13658307 0.15951508 0.044099998
0.30019921 0.6544314 0.51840001
-0.019239333 0.0054633352 0.00039999999
0.11381791 0.17648083 0.044099998
0.17213376 0.22083923 0.078400001
-0.83879089 0.23093256 0.75690001
0.25732112 -0.037226781 0.067599997
-0.19133517 -0.78707743 0.65609998
0.081689268 -0.2256698 0.057599999
-0.82960874 -0.025481593 0.68889999
-0.49550903 0.5223704 0.51840001
-0.097561985 0.021946721 0.010000001
0.035075091 0.3180719 0.1024
0.080962785 0.039306853 0.0081000002
-0.049971201 0.0016968763 0.0025000002
-0.61069471 -0.71459919 0.8836
-0.75006402 0.27821568 0.64000005
-0.36139423 0.44078815 0.3249
0.34412318 -0.20390987 0.16000001
0.1659075 0.12874277 0.044099998
-0.38533139 0.10732999 0.16000001
0.027804004 0.1879546 0.0361
0.054961856 -0.26434675 0.072900005
-0.66593426 -0.36623967 0.5776
0.15134774 -0.49748752 0.27039999
-0.56194562 0.17976949 0.34809998
-0.049507424 -0.12020405 0.016899999
0.082095332 0.057099532 0.010000001
-0.12471905 -0.78009307 0.62410003
-0.029955827 -0.00162739 0.00089999998
-0.10641921 0.35436556 0.13690001
0.095071673 -0.128691 0.025599999
0.61490804 -0.13706985 0.3969
-0.025625411 -0.03071381 0.0016
-0.0053375391 -0.039642282 0.0016
0.69637018 -0.27851143 0.5625
-0.12891109 0.34681684 0.13690001
-0.46097377 -0.4294219 0.3969
0.77531052 0.59941119 0.96040004
-0.29601592 -0.60106122 0.44890001
-0.0042770561 0.019537317 0.00039999999
0.70669651 0.3301211 0.60839993
0.93416274 0.26122785 0.94090003
0.50717795 -0.40653473 0.42249995
-0.055952236 0.09470664 0.0121
0.1694786 -0.013304324 0.028900001
-0.62163866 -0.18990886 0.42249995
-0.12425525 0.13023299 0.032400001
0.56185061 0.18006623 0.34809998
-0.67808235 0.54507279 0.75690001
0.03087444 -0.98951846 0.98010004
0.10712372 -0.024990171 0.0121
-0.5999406 0.0084415469 0.36000001
0.30918273 0.43047187 0.28089997
0.13292612 -0.64647555 0.43560004
-0.089967847 -0.0024058558 0.0081000002
0 -0 0
0.85411745 0.21185681 0.7744
-0.017439434 -0.27945638 0.078400001
0.084441811 -0.76535583 0.59289998
-0.36070514 0.63465881 0.53290004
-0.24905433 -0.88564777 0.84640002
-0.66498774 -0.4447374 0.64000005
-0.54416078 0.44032833 0.48999998
0.3145861 0.19477062 0.13690001
-0.052801777 0.028495127 0.0035999999
0.1420065 0.12623055 0.0361
0.64456618 -0.43924299 0.60839993
0.44073591 -0.090839639 0.20249999
0.1912619 0.87944233 0.80999994
0.029787663 -0.026696347 0.0016
0.3408576 -0.76773435 0.70559996
-0.1036756 0.3655836 0.1444
0.28103215 -0.44935611 0.28089997
0.067929089 -0.29220822 0.090000004
0.48001814 0.39240617 0.38440001
-0.52846241 0.62699878 0.6724
0.41996846 -0.0051473789 0.17639999
0.54004884 -0.42947322 0.4761
-0.048880868 -0.034794547 0.0035999999
0.3227345 0.62116218 0.48999998
0 -0 0
-0.28055444 0.19206563 0.1156
0.5980342 -0.41863477 0.53290004
0.13293147 -0.5953396 0.37210003
0.68416047 0.65910876 0.90249997
0.07418821 -0.11872704 0.0196
-0.21970141 -0.011458184 0.0484
0.15193604 -0.53899485 0.3136
0.37392965 0.65013587 0.5625
0.6035105 -0.18076253 0.3969
-0.28832507 -0.86311567 0.82810003
0.80586654 0.52170789 0.92159998
-0.075495839 0.58514982 0.34809998
0.83875084 0.50685018 0.96040004
0.74253953 -0.16197231 0.5776
0.62710577 -0.52833539 0.6724
-0.14276436 -0.046025466 0.022500001
-0.059544887 -0.0073760422 0.0035999999
-0.24398425 -0.41336626 0.2304
-0.50496906 -0.24208724 0.3136
0.84787613 -0.14389639 0.7396
-0.11253805 -0.73139268 0.54760003
-0.26024842 -0.071908064 0.072900005
0.19001129 -0.35198823 0.16000001
0.14594623 0.10535509 0.032400001
0.9163577 -0.081784233 0.84640002
0 0 0
-0.45976755 0.014621892 0.21160001
0.53683841 0.2195552 0.33639997
0.023830356 0.28901923 0.084099993
0.38137108 -0.58698899 0.48999998
0.062090978 -0.13654564 0.022500001
-0.69740278 0.39195585 0.64000005
0.42786372 -0.64018166 0.59289998
-0.25711706 -0.31936002 0.1681
0.15830174 -0.1668549 0.052900001
0.25409082 -0.49903694 0.3136
0.32812595 0.22876488 0.16000001
0.59693056 0.53261048 0.64000005
0.33561528 0.17822005 0.1444
-0.22876857 -0.84974408 0.7744
0.109595 0.0094305901 0.0121
0.14571579 0.17795199 0.052900001
0.23961233 0.46150398 0.27039999
0.46428108 0.29486111 0.30250001
0.024826402 0.19845314 0.040000003
-0.43843013 -0.1013855 0.20249999
-0.27482161 0.55576348 0.38440001
-0.42158407 0.3686012 0.3136
0.55355614 0.13592494 0.3249
-0.21771982 -0.12287425 0.0625
-0.47903392 -0.60284865 0.59289998
-0.29981083 -0.010652665 0.090000004
0.024620719 -0.15809433 0.025599999
-0.010103436 -0.017260376 0.00039999999
0.31728262 -0.52099115 0.37210003
0.36259109 -0.21196155 0.17639999
0.12839504 0.27113599 0.090000004
-0.51999342 0.63404006 0.6724
-0.029441427 0.50914949 0.26009998
0.060980096 -0.68730009 0.4761
-0.45496225 0.42119989 0.38440001
-0.56397283 -0.13540554 0.33639997
-0.013624631 0.439789 0.1936
0.44125679 -0.46356493 0.40959999
0.15245567 -0.048551705 0.025599999
0.10020313 0.32489896 0.1156
0.13978674 -0.16988133 0.0484
-0.075625591 0.12954062 0.022500001
-0.12473993 0.22812265 0.067599997
-0.96648711 0.082478821 0.94090003
-0.077131309 0.078426778 0.0121
0.63617027 0.069909498 0.40959999
-0.087010503 0.023003755 0.0081000002
0.24156189 -0.16046138 0.084099993
0.38660213 -0.74574709 0.70559996
0.2193045 0.80050325 0.68889999
0.15735444 -0.028975483 0.025599999
0.19532351 -0.12144436 0.052900001
-0.29037973 -0.51359475 0.34809998
-0.13898274 -0.016846359 0.0196
0.073302843 0.79663461 0.64000005
0.050551731 0.21411334 0.0484
-0.1446117 0.06846498 0.025599999
-0.057485066 -0.43622869 0.1936
-0.56444293 -0.17176768 0.34809998
0.30387202 -0.15251823 0.1156
-0.62740642 -0.57346421 0.72250003
-0.63146406 0.10417831 0.40959999
-0.40943915 0.86830842 0.92159998
0.1610326 -0.55719697 0.33639997
0.9008413 0.30163705 0.90249997
-0.18767415 0.2467355 0.096100003
-0.015327147 -0.8598634 0.7396
0.0024305584 0.23998769 0.057599999
0.43010235 0.13233277 0.20249999
0.2149111 0.047044855 0.0484
-0.89791769 0.061186451 0.80999994
-0.22313286 0.21520159 0.096100003
0.23508324 -0.81684506 0.72250003
-0.0043676137 -0.0089957733 9.9999997e-05
-0.09253487 0.18851338 0.044099998
-0.014675178 0.18943241 0.0361
-0.31546566 -0.096857771 0.10890001
0.049708299 0.0053930506 0.0025000002
0.60101324 0.54303133 0.65609998
0.61767644 0.053626455 0.38440001
0.035325345 -0.082777537 0.0081000002
0.14536458 0.37265152 0.16000001
-0.66748804 -0.7311359 0.98010004
0.41547799 -0.06146564 0.17639999
0.14752811 0.52984476 0.30250001
0.70998502 -0.16976851 0.53290004
-0.0062710559 0.11983602 0.0144
-0.030046141 -0.026405104 0.0016
-0.2933186 0.10032044 0.096100003
-0.77259076 0.60291255 0.96040004
0.31887305 -0.24149533 0.16000001
-0.029363414 -0.11635201 0.0144
-0.031314638 0.024887616 0.0016
-0.026498351 0.064790718 0.0049000001
-0.82351744 -0.21052101 0.72250003
-0.28690428 -0.59437865 0.43560004
-0.23194224 -0.61790198 0.43560004
0.78439945 -0.46132156 0.82810003
-0.08255063 0.2146751 0.052900001
0.60971928 0.018505534 0.37210003
0.0081971493 -0.0057277167 9.9999997e-05
0.18605709 0.7471832 0.59289998
-0.32076168 0.84089947 0.80999994
0.031247985 0.13646817 0.0196
0.28643736 0.26467645 0.15209998
-0.73035449 -0.11908977 0.54760003
-0.032187361 0.32842654 0.10890001
-0.087145396 0.022487344 0.0081000002
0.077988796 -0.017825468 0.0063999998
0.36654043 0.65433025 0.5625
0.72922081 0.51023227 0.79209995
0.25126836 -0.31123015 0.16000001
-0 -0 0
0.53977609 0.47648904 0.51840001
-0.10127089 -0.17246509 0.040000003
-0.058112666 -0.014930424 0.0035999999
0.60559702 0.37061065 0.50409997
-0.10947116 -0.85300416 0.7396
-0.61062658 -0.32130238 0.4761
0.47800654 0.66626555 0.6724
-0.16081038 -0.055136394 0.028900001
-0.21872686 -0.88332254 0.82810003
0.40159956 -0.24416758 0.2209
-0.4056471 0.059585501 0.1681
0.63651067 -0.23927847 0.46240002
-0.38945115 0.35948265 0.28089997
-0.619344 0.028512845 0.38440001
0.077040367 -0.14023116 0.025599999
0.80732083 0.065826327 0.65609998
0.037395105 0.36810544 0.13690001
0.2294471 0.099267468 0.0625
0.0045154118 0.22995569 0.052900001
-0.30615434 -0.048677661 0.096100003
-0.085972384 -0.026622362 0.0081000002
0.57920247 -0.31642464 0.43560004
0.17820908 -0.57292372 0.36000001
-0.035449203 0.035261225 0.0025000002
-0.22222756 0.84113908 0.75690001
-0.23672159 -0.50750655 0.3136
0.060580265 0.10358586 0.0144
-0.82140923 0.49687704 0.92159998
-0.4458971 -0.73537463 0.7396
0.14134349 -0.60367376 0.38440001
0.53958982 0.47670001 0.51840001
-0.39804786 0.16265886 0.1849
-0.96074599 0.13366842 0.94090003
0.41533828 0.40483838 0.33639997
-0.38555446 -0.57223052 0.4761
-0.099143222 -0.31475487 0.10890001
0.00064267631 -0.41999948 0.17639999
0.22058348 -0.15570141 0.072900005
0.29794335 0.20206377 0.1296
0.54242587 0.20536357 0.33639997
-0.80523407 -0.35496211 0.7744
0.01704086 0.024690263 0.00089999998
-0.59286278 0.70350111 0.84640002
-0.12502471 0.6785785 0.4761
-0.61133754 0.10327831 0.38440001
-0.84462947 -0.095399693 0.72250003
0.52301925 -0.59207338 0.62410003
0.88710612 -0.36693704 0.92159998
-0.019352896 0.0050463253 0.00039999999
0 0 0
-0.12345893 -0.46385115 0.2304
-0.22521134 0.49079511 0.29160002
-0.66715866 0.54267794 0.7396
0.4395645 0.019571798 0.1936
-0.16998966 0.0018758912 0.028900001
0.3401593 -0.35269198 0.24010001
0.22809087 -0.66179645 0.48999998
0.028610436 -0.095819853 0.010000001
-0.45827731 -0.30410841 0.30250001
0.16461404 0.40804684 0.1936
0.10138105 0.12378159 0.025599999
-0.29191545 -0.43033168 0.27039999
-0.057161439 -0.093981758 0.0121
-0.13995983 0.19496474 0.057599999
-0.3369557 -0.48431477 0.34809998
0.028302044 0.35888579 0.1296
0.038799804 0.092166021 0.010000001
0.4168503 -0.8758629 0.94090003
0.12638041 -0.74941844 0.5776
0.6440475 0.27423123 0.48999998
0.74907541 -0.6004048 0.92159998
-0.27629974 0.44052064 0.27039999
0.22353074 -0.054166533 0.052900001
0.50824034 -0.6178121 0.64000005
0.23081872 0.91122049 0.8836
-0.34571734 -0.33298576 0.2304
0.018678537 -0.54968274 0.30250001
-0.36188823 0.45325145 0.33639997
0.36248443 -0.38665879 0.28089997
-0.76409227 -0.2006565 0.62410003
0.41409716 0.40610778 0.33639997
0.14250323 -0.12566952 0.0361
-0.050520469 0.086299956 0.010000001
0.12957002 -0.11005276 0.028900001
-0.59657311 -0.12728138 0.37210003
-0.24851303 0.21712044 0.10890001
0.083953276 -0.071076356 0.0121
0.17370245 0.16561237 0.057599999
0.32559836 -0.3925375 0.26009998
-0.5476346 0.36836982 0.43560004
0.80614203 0.15011653 0.6724
-0.52941048 0.28235531 0.36000001
-0.22665429 0.63049805 0.44890001
0.0087049324 0.028709304 0.00089999998
-0.5178684 0.047035065 0.27039999
-0.27003136 -0.79541373 0.70559996
-0.0099014314 -0.0014005937 9.9999997e-05
0.27950996 -0.15580173 0.1024
-0.055187445 0.22328088 0.052900001
0.49942765 -0.1033055 0.26009998
0.023180772 -0.40934417 0.1681
0.012179065 0.93992108 0.8836
0.22048287 0.11784441 0.0625
-0.91989052 0.014194933 0.84640002
-0.446376 0.61510032 0.5776
0.25957957 0.014779849 0.067599997
0.6898405 -0.31893584 0.5776
0.24198648 0.40291753 0.2209
0.14061484 0.55238342 0.3249
-0.56747538 0.3561905 0.44890001
0.27581614 0.23135568 0.1296
-0.24704881 0.68692571 0.53290004
-0.20810708 -0.54137921 0.33639997
-0.52897584 0.032931872 0.28089997
0.058864258 0.011618904 0.0035999999
0.22539528 -0.66271937 0.48999998
0.34346569 -0.85348189 0.84640002
-0.52621543 0.21908282 0.3249
-0.3059181 0.1700415 0.12249999
0.45771715 -0.86654198 0.96040004
0.31003854 -0.5019722 0.34809998
0.4350597 0.58619368 0.53290004
-0.016429715 0.1490975 0.022500001
0.82956803 0.026773624 0.68889999
-0.31772238 -0.66832066 0.54760003
0.16142274 0.31055224 0.12249999
-0.53354794 -0.083226509 0.29160002
-0.46168408 0.2392651 0.27039999
-0.19046673 -0.62146795 0.42249995
0.3239758 0.92489988 0.96040004
-0.42907673 0.44754124 0.38440001
-0.22745372 -0.03412924 0.052900001
0.34329993 0.1083751 0.1296
0.68447518 0.33029333 0.5776
0.64211649 -0.49374732 0.65609998
0.070463814 0.86714172 0.75690001
-0.049829423 -0.53769606 0.29160002
-0.79987037 -0.014403017 0.64000005
-0.11922603 -0.35026443 0.13690001
-0.46649686 0.057277337 0.2209
0.57714868 -0.29899725 0.42249995
0.36620328 0.64303589 0.54760003
0.28184652 0.31138805 0.17639999
-0.18369718 -0.30960518 0.1296
-0.83949536 -0.02911173 0.70559996
-0.27202892 -0.12649222 0.090000004
0.03815886 -0.046302278 0.0035999999
0.52105528 0.20518626 0.3136
0.35842124 0.12623075 0.1444
-0.12831049 0.12623954 0.032400001
0.098210111 0.01883545 0.010000001
-0.26044831 -0.58460808 0.40959999
0.7099821 -0.0050446321 0.50409997
0.10389727 -0.90404946 0.82810003
-0.20277549 -0.55405962 0.34809998
0.64395797 0.3220531 0.51840001
0.59044582 -0.41203615 0.51840001
0.43853393 0.19516145 0.2304
0.38328636 -0.66782594 0.59289998
0.50483763 -0.52729404 0.53290004
-0.18383014 -0.12085727 0.0484
0.023586422 0.10744152 0.0121
-0.1270815 -0.027391437 0.016899999
-0.480367 0.5759753 0.5625
-0.43294829 0.2880204 0.27039999
-0.73928326 -0.17623913 0.5776
-0.30059794 0.41199619 0.26009998
0.24860497 0.8023687 0.70559996
-0.74141467 0.49234566 0.79209995
0.79580879 0.23577178 0.68889999
0.12517293 0.6378336 0.42249995
-0.14925474 -0.75539589 0.59289998
-0.038553074 0.04597456 0.0035999999
0.016369853 0.025140164 0.00089999998
-0.6164636 -0.066125862 0.38440001
-0.94993472 -0.19627558 0.94090003
-0.34399983 0.064529859 0.12249999
-0.6015569 -0.24623019 0.42249995
0.28688532 0.042388871 0.084099993
-0.44396964 -0.28946665 0.28089997
-0.46355602 -0.72437274 0.7396
0.32114395 -0.35674438 0.2304
-0.1466212 0.20249006 0.0625
-0.40455085 0.49592197 0.40959999
0.067885175 0.017076373 0.0049000001
0.093649499 -0.11717411 0.022500001
-0.059296589 -0.0091604823 0.0035999999
-0.4461605 0.41598174 0.37210003
-0.1163501 0.13734138 0.032400001
0.8516475 0.46432385 0.94090003
-0.40000442 -0.18329343 0.1936
0.1795252 -0.01306546 0.032400001
-0.35033345 0.42398876 0.30250001
0.780415 0.21691586 0.65609998
-0.27590296 0.047723807 0.078400001
0.25514588 -0.60868758 0.43560004
0.017055841 -0.18923292 0.0361
0.018852035 0.023336684 0.00089999998
-0.0083847735 -0.98996449 0.98010004
0.40522835 -0.42882395 0.34809998
0.54705274 -0.36923343 0.43560004
0.29700091 0.088828273 0.096100003
-0.059992589 0.16970825 0.032400001
-0.15170014 0.34840646 0.1444
0.59574896 -0.13108465 0.37210003
-0.21133825 -0.061123978 0.0484
0.80928826 0.03394825 0.65609998
-0.79853594 -0.39298907 0.79209995
0.23367031 0.1352708 0.072900005
-0.00022179825 -0.20999987 0.044099998
-0.00052246073 0.079998292 0.0063999998
-0.079270348 -0.19446389 0.044099998
0.0027033424 0.059939068 0.0035999999
0.49486193 0.52298349 0.51840001
-0.21441671 0.3842206 0.1936
0.020171985 -0.10813459 0.0121
-0.01256503 -0.089118578 0.0081000002
-0.4411819 -0.76141876 0.7744
-0.013877298 0.90989423 0.82810003
-0.051610064 -0.15144768 0.025599999
-0.46415573 0.45503783 0.42249995
0.0071747489 -0.60995781 0.37210003
0.1322564 -0.809264 0.6724
-0.00037467055 -0.34999979 0.12249999
0.67973673 -0.26619163 0.53290004
-0.14662869 0.086023413 0.028900001
0.44327012 0.18415098 0.2304
0.034713041 0.12527969 0.016899999
0.62271541 -0.27317673 0.46240002
-0.17161113 0.56449056 0.34809998
-0.10317955 0.17133003 0.040000003
-0.78995317 -0.0086052651 0.62410003
0.56309676 -0.39877567 0.4761
0.074193165 0.050944816 0.0081000002
0.57049137 0.78449965 0.94090003
-0.083408475 0.08627297 0.0144
0.66265005 0.15262668 0.46240002
0.51454818 -0.32762811 0.37210003
-0.73056746 0.24325119 0.59289998
-0.057074312 -0.10555815 0.0144
0.02698944 0.042090025 0.0025000002
-0.76827067 -0.42913893 0.7744
0.26606834 0.67978507 0.53290004
-0.078816414 -0.013710333 0.0063999998
0.276757 0.27478272 0.15209998
-0.038534414 0.031860616 0.0025000002
0.34899649 -0.25120002 0.1849
-0.87932146 -0.13745452 0.79209995
0.037197459 0.014708802 0.0016
0.70350915 -0.19487149 0.53290004
-0.24005084 0.1441374 0.078400001
-0.013684051 -0.15941375 0.025599999
-0.60329187 0.18149081 0.3969
-0.072461687 0.97731739 0.96040004
-0.25382647 0.69510585 0.54760003
-0.24651052 0.91745979 0.90249997
0.44660553 0.055167645 0.20249999
-0.3282721 -0.78405195 0.72250003
-0.19647653 -0.31352347 0.13690001
-0.056002222 0.094677083 0.0121
0.64059687 0.15885742 0.43560004
0.0092138685 0.36988527 0.13690001
-0.3934938 -0.35505292 0.28089997
-0.036539506 -0.72908497 0.53290004
-0.22479005 0.18321961 0.084099993
0.48437122 -0.41831148 0.40959999
0.35431227 0.063740313 0.1296
-0.0015907247 0.049974691 0.0025000002
-0.011991262 0.099278443 0.010000001
-0.32850218 0.29272223 0.1936
-0.17109689 0.055909347 0.032400001
0.64912957 0.1659241 0.44890001
-0.24788155 -0.07845211 0.067599997
-0.14148362 -0.29813153 0.10890001
0.027963949 -0.010863591 0.00089999998
0.92954546 -0.02907401 0.86489999
-0.0085306559 -0.12971979 0.016899999
0.7163465 -0.39905855 0.6724
0.59835857 0.044351596 0.36000001
0.78271204 0.16541424 0.64000005
-0.038292274 0.046192009 0.0035999999
0.2554307 0.9461264 0.96040004
-0.27959046 -0.077001162 0.084099993
0.308685 -0.32743481 0.20249999
0.10912741 -0.013827855 0.0121
-0.20448822 0.17630817 0.072900005
0.28988585 -0.13552189 0.1024
0.78103393 -0.57522696 0.94090003
0.29113206 0.41873872 0.26009998
-0.28103 -0.69535756 0.5625
-0.6590879 -0.43554929 0.62410003
0.67027986 0.33648914 0.5625
0.44543928 -0.2271208 0.25
-0.23232226 -0.57482725 0.38440001
-0.36773345 -0.53597766 0.42249995
-0.27770746 0.43963453 0.27039999
-0.27034539 -0.33438507 0.1849
-0.13935874 0.097360857 0.028900001
0.099770047 0.006777741 0.010000001
0.62984473 -0.013986611 0.3969
-0.039394703 -0.0069323294 0.0016
-0.47387257 0.25893009 0.29160002
0.13579135 -0.34418124 0.13690001
0.91417778 -0.37997237 0.98010004
0.27230856 -0.20358796 0.1156
0.88877815 0.33551964 0.90249997
-0.34643647 0.87383169 0.8836
0.039975982 -0.08063449 0.0081000002
0.22676621 0.22578105 0.1024
0.03304296 0.061710317 0.0049000001
0.017907219 0.17910704 0.032400001
0.19392966 -0.6933912 0.51840001
0.12113287 0.047189269 0.016899999
0.79861832 0.31907496 0.7396
-0.54000115 0.10439733 0.30250001
0.44556338 0.17853081 0.2304
-0.37208125 0.1468181 0.16000001
-0 0 0
0.018698636 -0.057011936 0.0035999999
0.16080809 0.68127877 0.48999998
0.2581622 0.030858854 0.067599997
0.21306251 0.52868176 0.3249
-0.31845096 0.22514212 0.15209998
-0.63490045 -0.2701878 0.4761
-0.88944143 -0.13745537 0.80999994
-0.068524055 0.18789481 0.040000003
0.01520732 0.86986709 0.75690001
-0.49119854 -0.55346543 0.54760003
-0.23924862 0.81563485 0.72250003
-0.19954969 0.19641772 0.078400001
0.0013356084 -0.10999189 0.0121
0.04029496 -0.51843643 0.27039999
0.26973283 -0.15278812 0.096100003
-0.79438907 0.30240044 0.72250003
-0.030731661 -0.025604004 0.0016
-0.2598193 0.14997983 0.090000004
0.64311248 -0.32373807 0.51840001
0.52174175 -0.13923208 0.29160002
-0.044253889 -0.040516578 0.0035999999
0.21372001 -0.27717099 0.12249999
-0.026660489 0.50930268 0.26009998
0.073120713 -0.05247248 0.0081000002
-0.030237349 0.5191201 0.27039999
0.16301073 -0.39790389 0.1849
0.054104503 0.43666086 0.1936
-0.12720042 0.27169847 0.090000004
-0.69980055 -0.70027077 0.98010004
0.28802383 0.56030554 0.3969
-0.26795742 0.82770693 0.75690001
-0.015085655 0.20945744 0.044099998
-0.0040886174 0.029720081 0.00089999998
-0.24219616 -0.061975978 0.0625
-0.09071257 0.42032278 0.1849
-0.88859183 -0.14284442 0.80999994
0.54526633 0.072004355 0.30250001
0.9424367 0.26872483 0.96040004
-0.82315189 -0.21194574 0.72250003
0.21017873 -0.94695562 0.94090003
-0.90321404 0.11092538 0.82810003
-0.15811214 0.20639899 0.067599997
0.032523442 -0.14643165 0.022500001
-0.33164564 -0.89023095 0.90249997
0.033282753 -0.91939783 0.84640002
0.47823384 -0.1459191 0.25
-0.57714891 0.057437647 0.33639997
0.73292232 -0.15913801 0.5625
0.20284188 -0.16265045 0.067599997
0.38305357 -0.11519535 0.16000001
0.83970636 0.022206886 0.70559996
0.63508326 0.33921862 0.51840001
0.37891054 -0.46521696 0.36000001
-0.1707163 0.48057875 0.26009998
0.27347669 0.1233309 0.090000004
0.10859457 0.32219127 0.1156
-0.36543551 -0.85519409 0.86489999
-0.033574611 0.59905988 0.36000001
0.1035485 0.68218601 0.4761
0.19722936 -0.18439248 0.072900005
0.27611846 -0.58843738 0.42249995
0.90447789 0.21637872 0.86489999
0.038229685 0.011768228 0.0016
0.81817943 0.32400987 0.7744
-0.19966699 -0.011536646 0.040000003
0.037251007 0.033352096 0.0025000002
-0.10987438 0.0052556023 0.0121
-0.47573477 -0.11737309 0.24010001
-0.4022004 0.90461856 0.98010004
6.9200512e-05 -0.15999998 0.025599999
0 -0 0
0.01820169 -0.0082884543 0.00039999999
-0.61999518 -0.0024449828 0.38440001
0.051030114 0.031558316 0.0035999999
0.13695221 0.1721746 0.0484
-0.11618643 -0.43474212 0.20249999
0.047890466 -0.1421496 0.022500001
-0.015920507 0.14915274 0.022500001
-0.00053243263 -0.099998586 0.010000001
0.13167945 -0.52369893 0.29160002
-0.45211685 0.70794797 0.70559996
0.054448891 -0.39627683 0.16000001
0.29161352 0.21109611 0.1296
0.072498254 0.16475438 0.032400001
0.23458838 0.33625627 0.1681
0.052857682 -0.16157372 0.028900001
0.65058404 -0.59257102 0.7744
-0.25532347 -0.83169097 0.75690001
0.34548378 -0.18094459 0.15209998
0.27009681 0.22259317 0.12249999
0.01741484 -0.29949412 0.090000004
0.52113259 0.096544206 0.28089997
-0.6902703 -0.29330343 0.5625
-0.58307183 0.36895421 0.4761
-0.55122346 -0.53763622 0.59289998
-0.648678 -0.312437 0.51840001
0.65633994 0.50805306 0.68889999
0.025822744 -0.086215936 0.0081000002
-0.028518412 -0.041069459 0.0025000002
-0.42787534 -0.40622982 0.34809998
0.12024906 -0.071694925 0.0196
0.31045231 -0.2522288 0.16000001
0.3020162 0.43552977 0.28089997
0.021316322 0.04522847 0.0025000002
-0.17977472 0.15900016 0.057599999
0.35502651 0.44593292 0.3249
0.60019088 0.48235965 0.59289998
-0.14521828 -0.49931115 0.27039999
-0.82330847 0.16662252 0.70559996
0.40812978 -0.03911626 0.1681
-0.37892655 0.88205135 0.92159998
0.69672036 0.2493607 0.54760003
0.62930518 -0.4608416 0.60839993
-0.021348506 -0.021077033 0.00089999998
0.30820072 -0.54946548 0.3969
-0.51971978 0.63426441 0.6724
-0.47822061 -0.82085627 0.90249997
-0.80038422 -0.21973869 0.68889999
0.0056035891 -0.0082824985 9.9999997e-05
0.34979472 -0.26691508 0.1936
0.32903832 0.025175216 0.10890001
-0.22399895 0.22852673 0.1024
0.040838767 0.16502181 0.028900001
0.036169853 -0.13524696 0.0196
0.017371895 0.046885151 0.0025000002
0.018280713 -0.13880135 0.0196
-0.34725684 0.60779327 0.48999998
0.29636967 -0.14513797 0.10890001
-0.338377 -0.68051523 0.5776
0.18230134 -0.81997937 0.70559996
0.15506966 -0.51725566 0.29160002
-0.0046580485 0.19994575 0.040000003
-0.32354569 0.25182965 0.1681
-0.0039873933 0.019598488 0.00039999999
-0.43690157 -0.052124865 0.1936
-0.70622718 0.14015439 0.51840001
0.107627 0.51895702 0.28089997
-0.51299077 -0.71501088 0.7744
0.77271551 -0.42108285 0.7744
0.17863643 0.1448759 0.052900001
0.021342261 0.10790972 0.0121
-0.33809429 -0.32648468 0.2209
-0.0811949 -0.27840146 0.084099993
0.16950375 -0.79206598 0.65609998
0.57915938 0.42775515 0.51840001
0.73704708 -0.61511099 0.92159998
-0.19872656 -0.82644284 0.72250003
-0.50994992 0.61640173 0.64000005
0.66838795 -0.26768941 0.51840001
-0.41630304 0.59965974 0.53290004
0.14506172 -0.30750141 0.1156
0.93788552 -0.063013591 0.8836
-0.010966795 -0.016725114 0.00039999999
-0.088007808 0.018831518 0.0081000002
0.78088731 0.4474538 0.80999994
-0.1275989 -0.3366282 0.1296
-0.69997442 0.20720969 0.53290004
0.2054645 -0.27089545 0.1156
0.12501945 -0.14307387 0.0361
-0.58074826 -0.15076964 0.36000001
0.091669716 0.3170121 0.10890001
0.45677707 -0.53042877 0.48999998
-0.22432645 -0.11035238 0.0625
0.0098786419 0.0015531993 9.9999997e-05
0.56250858 -0.63724732 0.72250003
0.63879329 -0.12017953 0.42249995
0.27843401 0.66398382 0.51840001
-0.098427802 -0.5715872 0.33639997
-0.38023904 -0.27625766 0.2209
-0.15915972 0.084072493 0.032400001
0.0026753461 -0.02988047 0.00089999998
0.41802281 -0.04070542 0.17639999
-0.37951568 0.17991062 0.17639999
-0.22253278 0.21582206 0.096100003
-0.42455885 0.068189211 0.1849
-0.031247413 0.52907801 0.28089997
-0.29352099 0.41706765 0.26009998
-0.41726375 -0.29324219 0.26009998
-0.14141279 0.20616116 0.0625
-0.70177186 0.31688517 0.59289998
0.7893849 -0.03116833 0.62410003
0.27000573 -0.20663233 0.1156
-0.045503177 0.053192679 0.0049000001
0.77042806 0.12182168 0.60839993
0.22888266 -0.59767276 0.40959999
-0.58019471 -0.75224596 0.90249997
-0.027708827 -0.011498739 0.00089999998
0.12178159 -0.46429434 0.2304
-0.12735079 0.026110813 0.016899999
-0.13005863 0.56522977 0.33639997
0.63427174 0.38118154 0.54760003
-0.26599365 -0.25719133 0.13690001
-0.18740174 -0.33057615 0.1444
-0.35285965 0.46031514 0.33639997
0.50880653 -0.77847028 0.86489999
0.12655438 0.77979743 0.62410003
0.11505156 0.28785959 0.096100003
0.75597936 0.07807149 0.5776
-0.0066999742 -0.099775299 0.010000001
-0.95588911 -0.088747092 0.92159998
-0.029927744 0.0020808924 0.00089999998
0.72186804 0.67750013 0.98010004
0.19973299 -0.77466553 0.64000005
0.02887585 0.0081354361 0.00089999998
0.27254784 0.14770809 0.096100003
0.16237348 0.50451446 0.28089997
0.54476494 -0.54417932 0.59289998
-0.28457782 -0.20375343 0.12249999
0.30861342 0.084603533 0.1024
-0.29059318 -0.10796113 0.096100003
