# .PCD v0.7 - Point Cloud Data file format
VERSION 0.7
FIELDS x y z
SIZE 4 4 4
TYPE F F F
COUNT 1 1 1
WIDTH 73
HEIGHT 1
VIEWPOINT 0 0 0 1 0 0 0
POINTS 73
DATA ascii
1 0 0
0.99619472 0.087155737 0.01519227
0.98480773 0.17364818 0.060307384
0.96592581 0.25881904 0.13397455
0.93969262 0.34202012 0.2339555
0.90630782 0.42261827 0.35721242
0.86602545 0.5 0.5
0.81915206 0.57357645 0.65797985
0.7660445 0.64278758 0.82635176
0.70710677 0.70710683 1
0.64278758 0.7660445 1.1736482
0.57357645 0.81915206 1.3420202
0.49999997 0.86602545 1.5
0.42261824 0.90630782 1.6427877
0.34202015 0.93969262 1.7660444
0.25881907 0.96592581 1.8660254
0.17364822 0.98480773 1.9396925
0.087155804 0.99619472 1.9848077
-4.3711388e-08 1 2
-0.087155767 0.99619472 1.9848077
-0.17364819 0.98480773 1.9396926
-0.25881904 0.96592581 1.8660254
-0.34202012 0.93969262 1.7660445
-0.42261833 0.90630776 1.6427875
-0.50000006 0.86602533 1.4999999
-0.57357645 0.819152 1.34202
-0.64278764 0.76604444 1.1736481
-0.70710677 0.70710677 1
-0.76604444 0.64278764 0.82635188
-0.819152 0.57357645 0.65797991
-0.86602539 0.50000006 0.50000012
-0.90630776 0.42261833 0.35721248
-0.93969256 0.34202021 0.23395562
-0.96592581 0.25881913 0.13397467
-0.98480773 0.1736483 0.060307443
-0.99619466 0.087155879 0.01519227
-1 -8.7422777e-08 0
-0.99619472 -0.087155811 0.01519227
-0.98480773 -0.17364822 0.060307443
-0.96592581 -0.25881907 0.13397467
-0.93969262 -0.34202015 0.23395562
-0.90630782 -0.42261827 0.35721236
-0.86602545 -0.5 0.5
-0.81915206 -0.57357639 0.65797979
-0.7660445 -0.64278758 0.8263517
-0.70710683 -0.70710677 0.99999988
-0.64278752 -0.76604456 1.1736485
-0.57357633 -0.81915212 1.3420204
-0.49999991 -0.86602545 1.5000002
-0.42261818 -0.90630782 1.6427877
-0.34202006 -0.93969268 1.7660446
-0.25881898 -0.96592581 1.8660254
-0.17364813 -0.98480779 1.9396926
-0.087155715 -0.99619472 1.9848077
1.1924881e-08 -1 2
0.087155737 -0.99619472 1.9848077
0.17364815 -0.98480773 1.9396926
0.25881901 -0.96592581 1.8660254
0.34202009 -0.93969262 1.7660445
0.42261818 -0.90630782 1.6427877
0.49999991 -0.86602545 1.5000002
0.57357633 -0.81915212 1.3420204
0.64278752 -0.7660445 1.1736485
0.70710665 -0.70710689 1.0000002
0.76604438 -0.64278775 0.82635212
0.81915194 -0.57357657 0.6579802
0.86602533 -0.50000018 0.50000036
0.9063077 -0.42261845 0.35721272
0.93969256 -0.34202036 0.23395586
0.96592575 -0.25881928 0.13397479
0.98480773 -0.17364845 0.060307562
0.99619466 -0.087156028 0.01519233
1 1.7484555e-07 0
