ply
format ascii 1.0
comment PCL generated
element vertex 882
property float x
property float y
property float z
property uchar red
property uchar green
property uchar blue
property uchar alpha
element camera 1
property float view_px
property float view_py
property float view_pz
property float x_axisx
property float x_axisy
property float x_axisz
property float y_axisx
property float y_axisy
property float y_axisz
property float z_axisx
property float z_axisy
property float z_axisz
property float focal
property float scalex
property float scaley
property float centerx
property float centery
property int viewportx
property int viewporty
property float k1
property float k2
end_header
0.80285043 0.24174602 0 255 255 255 255
0.10737012 0.56045079 0 255 255 255 255
0.0061176312 0.93560755 0 255 255 255 255
0.39674556 0.92020386 0 255 255 255 255
0.63282126 0.60591865 0 255 255 255 255
0.30904818 0.59982878 0 255 255 255 255
0.16128203 0.10040923 0 255 255 255 255
0.5052374 0.023286609 0 255 255 255 255
0.12429327 0.71211177 0 255 255 255 255
0.90124214 0.8326664 0 255 255 255 255
0.9938156 0.25124359 0 255 255 255 255
0.82345653 0.33322981 0 255 255 255 255
0.081399038 0.87585229 0 255 255 255 255
0.55944103 0.027584514 0 255 255 255 255
0.93954837 0.82279313 0 255 255 255 255
0.092466481 0.7423988 0 255 255 255 255
0.064539149 0.19983661 0 255 255 255 255
0.30284959 0.070656776 0 255 255 255 255
0.13544419 0.69959515 0 255 255 255 255
0.99086064 0.76826549 0 255 255 255 255
0.3055138 0.29990885 0 255 255 255 255
0.36809424 0.46679583 0 255 255 255 255
0.40031806 0.87333167 0 255 255 255 255
0.49008244 0.52461135 0 255 255 255 255
0.58544338 0.39132461 0 255 255 255 255
0.35727775 0.57925904 0 255 255 255 255
0.64256817 0.18073429 0 255 255 255 255
0.91248882 0.72396725 0 255 255 255 255
0.056586582 0.47192991 0 255 255 255 255
0.75155175 0.996135 0 255 255 255 255
0.294723 0.84401822 0 255 255 255 255
0.73853379 0.35926217 0 255 255 255 255
0.043854844 0.041383389 0 255 255 255 255
0.42991894 0.17929903 0 255 255 255 255
0.74097854 0.42077962 0 255 255 255 255
0.94756448 0.046492368 0 255 255 255 255
0.72068846 0.31565875 0 255 255 255 255
0.5132882 0.12100652 0 255 255 255 255
0.18899038 0.0033706478 0 255 255 255 255
0.64561784 0.77443379 0 255 255 255 255
0.39469525 0.0028956081 0 255 255 255 255
0.3536928 0.037263453 0 255 255 255 255
0.1836299 0.26618165 0 255 255 255 255
0.76123071 0.24021648 0 255 255 255 255
0.73811156 0.51278245 0 255 255 255 255
0.23635146 0.032834552 0 255 255 255 255
0.35680068 0.97488523 0 255 255 255 255
0.39209673 0.40065554 0 255 255 255 255
0.016268633 0.82201564 0 255 255 255 255
0.57995456 0.75724721 0 255 255 255 255
0.24279527 0.52751905 0 255 255 255 255
0.80373955 0.96348369 0 255 255 255 255
0.8431778 0.31702778 0 255 255 255 255
0.08449024 0.03216818 0 255 255 255 255
0.32039842 0.73010808 0 255 255 255 255
0.80660194 0.71509367 0 255 255 255 255
0.73300368 0.16029476 0 255 255 255 255
0.75235713 0.91663361 0 255 255 255 255
0.42647639 0.51358783 0 255 255 255 255
0.1568501 0.16458793 0 255 255 255 255
0.026370255 0.39320156 0 255 255 255 255
0.19742249 0.38317093 0 255 255 255 255
0.36808679 0.5895192 0 255 255 255 255
0.78382647 0.38435543 0 255 255 255 255
0.41153485 0.36378103 0 255 255 255 255
0.14160262 0.65433013 0 255 255 255 255
0.89130008 0.94534218 0 255 255 255 255
0.61781383 0.73447788 0 255 255 255 255
0.26236996 0.70230407 0 255 255 255 255
0.76664609 0.58276838 0 255 255 255 255
0.43241218 0.57324803 0 255 255 255 255
0.29786202 0.16541588 0 255 255 255 255
0.7335428 0.050219152 0 255 255 255 255
0.082049496 0.16001917 0 255 255 255 255
0.56380695 0.23889959 0 255 255 255 255
0.3246071 0.59017724 0 255 255 255 255
0.63210112 0.52202958 0 255 255 255 255
0.97334814 0.00018792786 0 255 255 255 255
0.1115488 0.75717461 0 255 255 255 255
0.38454336 0.52308369 0 255 255 255 255
0.12095565 0.52614599 0 255 255 255 255
0.17741379 0.012255736 0 255 255 255 255
0.47148818 0.79522765 0 255 255 255 255
0.74673361 0.73385811 0 255 255 255 255
0.49753171 0.51337969 0 255 255 255 255
0.31662649 0.92994392 0 255 255 255 255
0.086627707 0.61448854 0 255 255 255 255
0.095359795 0.82017046 0 255 255 255 255
0.66470766 0.17740929 0 255 255 255 255
0.98018968 0.22851464 0 255 255 255 255
0.41630888 0.30479679 0 255 255 255 255
0.81869185 0.048410013 0 255 255 255 255
0.82682639 0.79203999 0 255 255 255 255
0.048597939 0.93837517 0 255 255 255 255
0.54921466 0.43314129 0 255 255 255 255
0.46145886 0.67017031 0 255 255 255 255
0.95928729 0.63887262 0 255 255 255 255
0.68242604 0.43077543 0 255 255 255 255
0.4341003 0.42915964 0 255 255 255 255
0.16463356 0.93163198 0 255 255 255 255
0.94253933 0.48126003 0 255 255 255 255
0.8615759 0.02916703 0 255 255 255 255
0.095748559 0.9569357 0 255 255 255 255
0.84933752 0.7604562 0 255 255 255 255
0.134345 0.8295272 0 255 255 255 255
0.98897088 0.55065387 0 255 255 255 255
0.13432395 0.80766273 0 255 255 255 255
0.59906387 0.96115035 0 255 255 255 255
0.59970272 0.64766181 0 255 255 255 255
0.89952552 0.14891736 0 255 255 255 255
0.080803119 0.36098439 0 255 255 255 255
0.81908762 0.04009039 0 255 255 255 255
0.99985701 0.50151366 0 255 255 255 255
0.47086582 0.43395731 0 255 255 255 255
0.9306733 0.63549936 0 255 255 255 255
0.36558932 0.87321264 0 255 255 255 255
0.11675941 0.22716525 0 255 255 255 255
0.90237963 0.21250798 0 255 255 255 255
0.18410096 0.75171715 0 255 255 255 255
0.97296423 0.31844595 0 255 255 255 255
0.58124435 0.9619351 0 255 255 255 255
0.86909986 0.7155683 0 255 255 255 255
0.76959777 0.4681637 0 255 255 255 255
0.67671865 0.36930054 0 255 255 255 255
0.11582553 0.57624418 0 255 255 255 255
0.51821792 0.19662866 0 255 255 255 255
0.93722856 0.33730555 0 255 255 255 255
0.23671904 0.93708557 0 255 255 255 255
0.83881921 0.70758486 0 255 255 255 255
0.37104291 0.76949251 0 255 255 255 255
0.34308425 0.73663223 0 255 255 255 255
0.64270514 0.45984367 0 255 255 255 255
0.96379751 0.54508483 0 255 255 255 255
0.67235166 0.14789844 0 255 255 255 255
0.29680198 0.64531583 0 255 255 255 255
0.46634439 0.87804633 0 255 255 255 255
0.60725093 0.33544421 0 255 255 255 255
0.59361464 0.37684873 0 255 255 255 255
0.80360794 0.27033332 0 255 255 255 255
0.74614924 0.91943347 0 255 255 255 255
0.84657753 0.26436713 0 255 255 255 255
0.11606212 0.78380609 0 255 255 255 255
0.60167271 0.35278115 0 255 255 255 255
0.72089165 0.44049188 0 255 255 255 255
0.060366027 0.091934562 0 255 255 255 255
0.20998441 0.40345028 0 255 255 255 255
0.82856679 0.85268956 0 255 255 255 255
0.86329395 0.7923643 0 255 255 255 255
0.39777437 0.53564554 0 255 255 255 255
0.94026273 0.69457632 0 255 255 255 255
0.1809614 0.40660712 0 255 255 255 255
0.57262266 0.7882123 0 255 255 255 255
0.74205136 0.16623734 0 255 255 255 255
0.16506104 0.54565924 0 255 255 255 255
0.43657064 0.9112103 0 255 255 255 255
0.46509275 0.28314814 0 255 255 255 255
0.17557742 0.58115488 0 255 255 255 255
0.06695421 0.77725011 0 255 255 255 255
0.933936 0.78784585 0 255 255 255 255
0.217742 0.99430203 0 255 255 255 255
0.87978041 0.42772639 0 255 255 255 255
0.39775231 0.7083472 0 255 255 255 255
0.28041595 0.26104623 0 255 255 255 255
0.5007115 0.67819029 0 255 255 255 255
0.79669178 0.44097424 0 255 255 255 255
0.37276664 0.97765321 0 255 255 255 255
0.84758133 0.94538933 0 255 255 255 255
0.7658655 0.58963269 0 255 255 255 255
0.11162666 0.93092656 0 255 255 255 255
0.13529196 0.54819733 0 255 255 255 255
0.84213686 0.60038471 0 255 255 255 255
0.83134544 0.017714255 0 255 255 255 255
0.18153957 0.89829969 0 255 255 255 255
0.79496437 0.11547559 0 255 255 255 255
0.68614554 0.012706355 0 255 255 255 255
0.10977763 0.56592596 0 255 255 255 255
0.44043276 0.50752997 0 255 255 255 255
0.27427319 0.72084868 0 255 255 255 255
0.7685762 0.77498472 0 255 255 255 255
0.399039 0.56526798 0 255 255 255 255
0.21595892 0.77180564 0 255 255 255 255
0.54292119 0.063540287 0 255 255 255 255
0.71719497 0.30878669 0 255 255 255 255
0.65317297 0.82882166 0 255 255 255 255
0.23971324 0.78846496 0 255 255 255 255
0.37701896 0.081850074 0 255 255 255 255
0.38884965 0.20836443 0 255 255 255 255
0.099564329 0.57038921 0 255 255 255 255
0.10666411 0.89452869 0 255 255 255 255
0.68586481 0.79280967 0 255 255 255 255
0.90723503 0.79564244 0 255 255 255 255
0.35873559 0.34766778 0 255 255 255 255
0.30317238 0.63300878 0 255 255 255 255
0.0685165 0.071748577 0 255 255 255 255
0.40799347 0.46755552 0 255 255 255 255
0.63701653 0.62395239 0 255 255 255 255
0.23936118 0.17993774 0 255 255 255 255
0.68749267 0.95655614 0 255 255 255 255
0.48872444 0.34066567 0 255 255 255 255
0.7853778 0.72843766 0 255 255 255 255
0.12913062 0.16239679 0 255 255 255 255
0.81028777 0.51798028 0 255 255 255 255
0.37076122 0.90985209 0 255 255 255 255
0.088369504 0.47742534 0 255 255 255 255
0.80438077 0.77423429 0 255 255 255 255
0.27023497 0.7116158 0 255 255 255 255
0.56987673 0.62897056 0 255 255 255 255
0.059283596 0.87304914 0 255 255 255 255
0.26197934 0.12780009 0 255 255 255 255
0.94479769 0.66997278 0 255 255 255 255
0.59535563 0.58181429 0 255 255 255 255
0.2939252 0.8347168 0 255 255 255 255
0.76175201 0.98141789 0 255 255 255 255
0.79127294 0.25047645 0 255 255 255 255
0.32208356 0.5766508 0 255 255 255 255
0.97891414 0.45121419 0 255 255 255 255
0.73904753 0.78920186 0 255 255 255 255
0.96919447 0.10980877 0 255 255 255 255
0.69905394 0.057563983 0 255 255 255 255
0.58723408 0.50343472 0 255 255 255 255
0.83179832 0.85746908 0 255 255 255 255
0.21505049 0.40167505 0 255 255 255 255
0.48643962 0.27433407 0 255 255 255 255
0.27472422 0.74841893 0 255 255 255 255
0.40213418 0.21952192 0 255 255 255 255
0.41839176 0.99748981 0 255 255 255 255
0.80133623 0.71231699 0 255 255 255 255
0.83220661 0.56308824 0 255 255 255 255
0.69373488 0.62347955 0 255 255 255 255
0.81356466 0.015818432 0 255 255 255 255
0.20013031 0.7924788 0 255 255 255 255
0.46703261 0.93917787 0 255 255 255 255
0.58168066 0.43622711 0 255 255 255 255
0.048986644 0.2807346 0 255 255 255 255
0.49379107 0.63622075 0 255 255 255 255
0.78416926 0.32558939 0 255 255 255 255
0.49368981 0.99921978 0 255 255 255 255
0.72726446 0.98012942 0 255 255 255 255
0.27355385 0.0019886498 0 255 255 255 255
0.72854835 0.67568803 0 255 255 255 255
0.22151057 0.14694011 0 255 255 255 255
0.67317784 0.022846784 0 255 255 255 255
0.8592571 0.50538439 0 255 255 255 255
0.585935 0.55299193 0 255 255 255 255
0.12886396 0.39949968 0 255 255 255 255
0.5688104 0.32899427 0 255 255 255 255
0.19197847 0.035843 0 255 255 255 255
0.26817214 0.77365911 0 255 255 255 255
0.4720701 0.31715879 0 255 255 255 255
0.054393712 0.9658612 0 255 255 255 255
0.95337951 0.83856297 0 255 255 255 255
0.29145056 0.44706932 0 255 255 255 255
0.83778274 0.018715013 0 255 255 255 255
0.42719874 0.11133661 0 255 255 255 255
0.020703664 0.15574709 0 255 255 255 255
0.78702462 0.24221425 0 255 255 255 255
0.3026872 0.46020249 0 255 255 255 255
0.26506102 0.16194429 0 255 255 255 255
0.9655869 0.85099602 0 255 255 255 255
0.7149362 0.094450839 0 255 255 255 255
0.25049573 0.2837466 0 255 255 255 255
0.42344511 0.44247419 0 255 255 255 255
0.31958959 0.69161725 0 255 255 255 255
0.21613331 0.79165971 0 255 255 255 255
0.0087760165 0.27052703 0 255 255 255 255
0.75752085 0.96215552 0 255 255 255 255
0.10909002 0.048971452 0 255 255 255 255
0.40922484 0.94687277 0 255 255 255 255
0.067686468 0.83642358 0 255 255 255 255
0.058209389 0.088390127 0 255 255 255 255
0.99217063 0.84523404 0 255 255 255 255
0.33060437 0.29485786 0 255 255 255 255
0.30543649 0.5956654 0 255 255 255 255
0.45680213 0.27102339 0 255 255 255 255
0.44666144 0.17173836 0 255 255 255 255
0.36547422 0.69715714 0 255 255 255 255
0.45548496 0.78891933 0 255 255 255 255
0.13963135 0.77507454 0 255 255 255 255
0.48053658 0.35576466 0 255 255 255 255
0.56673425 0.48931259 0 255 255 255 255
0.62629169 0.32425511 0 255 255 255 255
0.45146814 0.73538172 0 255 255 255 255
0.37322658 0.86069298 0 255 255 255 255
0.68225449 0.44091305 0 255 255 255 255
0.69711655 0.74046385 0 255 255 255 255
0.52930319 0.68928719 0 255 255 255 255
0.58569789 0.85990757 0 255 255 255 255
0.98414505 0.89113438 0 255 255 255 255
0.45557293 0.44094718 0 255 255 255 255
0.1621578 0.90223438 0 255 255 255 255
0.61268556 0.52763206 0 255 255 255 255
0.59939152 0.06817048 0 255 255 255 255
0.31655136 0.73902285 0 255 255 255 255
0.84324503 0.79708797 0 255 255 255 255
0.094787523 0.40997925 0 255 255 255 255
0.28640056 0.72107923 0 255 255 255 255
0.73423439 0.73786867 0 255 255 255 255
0.45646089 0.10746096 0 255 255 255 255
0.59856164 0.13871537 0 255 255 255 255
0.548374 0.2956782 0 255 255 255 255
0.87917924 0.077677168 0 255 255 255 255
0.98496538 0.46487716 0 255 255 255 255
0.9375847 0.96911043 0 255 255 255 255
0.35601154 0.39315766 0 255 255 255 255
0.41005763 0.51816934 0 255 255 255 255
0.29539204 0.022743164 0 255 255 255 255
0.045801383 0.89478356 0 255 255 255 255
0.090913638 0.36235276 0 255 255 255 255
0.63380641 0.93415868 0 255 255 255 255
0.15944071 0.72859395 0 255 255 255 255
0.34413794 0.44584125 0 255 255 255 255
0.44967315 0.078372307 0 255 255 255 255
0.18370993 0.90613407 0 255 255 255 255
0.18583326 0.78227156 0 255 255 255 255
0.04484944 0.73420727 0 255 255 255 255
0.077949792 0.92402869 0 255 255 255 255
0.81188446 0.062915199 0 255 255 255 255
0.38890582 0.74946916 0 255 255 255 255
0.032025646 0.74491739 0 255 255 255 255
0.14262681 0.44208327 0 255 255 255 255
0.26308674 0.43801886 0 255 255 255 255
0.46482643 0.30888811 0 255 255 255 255
0.33280241 0.55574006 0 255 255 255 255
0.67124087 0.96660882 0 255 255 255 255
0.48989874 0.83068156 0 255 255 255 255
0.69520283 0.83403665 0 255 255 255 255
0.27652285 0.14487596 0 255 255 255 255
0.91240901 0.46023276 0 255 255 255 255
0.05101002 0.098242253 0 255 255 255 255
0.24250436 0.095859461 0 255 255 255 255
0.8324495 0.32045415 0 255 255 255 255
0.019888148 0.64433396 0 255 255 255 255
0.38336936 0.40879399 0 255 255 255 255
0.39380309 0.41539499 0 255 255 255 255
0.15371136 0.53642988 0 255 255 255 255
0.85747826 0.41679808 0 255 255 255 255
0.97444874 0.32230473 0 255 255 255 255
0.72568619 0.30725116 0 255 255 255 255
0.87804478 0.39692709 0 255 255 255 255
0.27386001 0.36794356 0 255 255 255 255
0.22760865 0.96906281 0 255 255 255 255
0.20198023 0.5041315 0 255 255 255 255
0.11393876 0.11438922 0 255 255 255 255
0.96436423 0.16494879 0 255 255 255 255
0.21263146 0.20686862 0 255 255 255 255
0.26080826 0.045080986 0 255 255 255 255
0.52732277 0.28069639 0 255 255 255 255
0.68941492 0.91069216 0 255 255 255 255
0.68949038 0.083218038 0 255 255 255 255
0.32608715 0.84320176 0 255 255 255 255
0.61964798 0.18356542 0 255 255 255 255
0.25999984 0.59409672 0 255 255 255 255
0.50587016 0.98568606 0 255 255 255 255
0.90134788 0.38391498 0 255 255 255 255
0.38261312 0.17520788 0 255 255 255 255
0.75185853 0.61022174 0 255 255 255 255
0.14427069 0.95383877 0 255 255 255 255
0.11435325 0.25820947 0 255 255 255 255
0.068227991 0.078717507 0 255 255 255 255
0.42315823 0.28085947 0 255 255 255 255
0.28558612 0.68396652 0 255 255 255 255
0.32594046 0.81290889 0 255 255 255 255
0.96466291 0.015355388 0 255 255 255 255
0.72360104 0.65415329 0 255 255 255 255
0.098573431 0.049688198 0 255 255 255 255
0.49735501 0.71822137 0 255 255 255 255
0.23325363 0.75735486 0 255 255 255 255
0.31231809 0.73912376 0 255 255 255 255
0.74304086 0.21366596 0 255 255 255 255
0.12303875 0.12565398 0 255 255 255 255
0.38887385 0.8748973 0 255 255 255 255
0.73587573 0.53314453 0 255 255 255 255
0.82873607 0.85022902 0 255 255 255 255
0.791354 0.89696407 0 255 255 255 255
0.9289465 0.21451223 0 255 255 255 255
0.17782351 0.21453264 0 255 255 255 255
0.89847875 0.50376397 0 255 255 255 255
0.027441556 0.8631416 0 255 255 255 255
0.51911932 0.7510426 0 255 255 255 255
0.51729488 0.61769277 0 255 255 255 255
0.80073082 0.014649879 0 255 255 255 255
0.33591416 0.033984434 0 255 255 255 255
0.77200472 0.64823222 0 255 255 255 255
0.77310824 0.51504558 0 255 255 255 255
0.86189818 0.89614695 0 255 255 255 255
0.64069957 0.25077206 0 255 255 255 255
0.77104425 0.37657529 0 255 255 255 255
0.78391659 0.59978032 0 255 255 255 255
0.2268043 0.57527053 0 255 255 255 255
0.49674436 0.15575081 0 255 255 255 255
0.78978276 0.67456788 0 255 255 255 255
0.37028345 0.68826151 0 255 255 255 255
0.17833185 0.39772502 0 255 255 255 255
0.55140311 0.69745117 0 255 255 255 255
0.14876762 0.068697989 0 255 255 255 255
0.31514397 0.94949841 0 255 255 255 255
0.083347864 0.65105814 0 255 255 255 255
0.98348284 0.85535258 0 255 255 255 255
0.29929039 0.75659108 0 255 255 255 255
0.37039816 0.16118859 0 255 255 255 255
0.65273803 0.011097718 0 255 255 255 255
0.41196063 0.42378232 0 255 255 255 255
0.38767302 0.19587721 0 255 255 255 255
0.023562631 0.61447734 0 255 255 255 255
0.77114779 0.520307 0 255 255 255 255
0.77022815 0.56093055 0 255 255 255 255
0.19487488 0.1405116 0 255 255 255 255
0.24919204 0.37320673 0 255 255 255 255
0.53823662 0.80059516 0 255 255 255 255
0.070657924 0.68700421 0 255 255 255 255
0.86929315 0.38580191 0 255 255 255 255
0.63650262 0.95264101 0 255 255 255 255
0.03686003 0.61998552 0 255 255 255 255
0.80799359 0.33615041 0 255 255 255 255
0.3765766 0.17839174 0 255 255 255 255
0.49733901 0.029314645 0 255 255 255 255
0.18948947 0.90929961 0 255 255 255 255
0.45309696 0.5771625 0 255 255 255 255
0.10517684 0.4766596 0 255 255 255 255
0.19163981 0.87632459 0 255 255 255 255
0.9969666 0.96186793 0 255 255 255 255
0.43725514 0.19184147 0 255 255 255 255
0.10237955 0.6864472 0 255 255 255 255
0.56504822 0.64061618 0 255 255 255 255
0.48704237 0.63570613 0 255 255 255 255
0.32762039 0.35633549 0 255 255 255 255
0.021508018 0.96412301 0 255 255 255 255
0.3089765 0.05836805 0 255 255 255 255
0.58410853 0.11697009 0 255 255 255 255
0.39451846 0.96068513 0 255 255 255 255
0.29536185 0.89185745 0 255 255 255 255
0.98999977 0.4848513 0 255 255 255 255
0.80115706 0.44309673 0 255 255 255 255
0.062013786 0.90633392 0 255 255 255 255
0.91975635 0.25365362 0 255 255 255 255
0.78265852 0.91672289 0 255 255 255 255
0.21552156 0.21991366 0 255 255 255 255
0.10856438 0.3179011 0 255 255 255 255
0.90636086 0.67361259 0 255 255 255 255
0.95851725 0.3934032 0 255 255 255 255
0.30931869 0.28613767 0 255 255 255 255
0 0.80285043 0.24174602 255 255 255 255
0 0.10737012 0.56045079 255 255 255 255
0 0.0061176312 0.93560755 255 255 255 255
0 0.39674556 0.92020386 255 255 255 255
0 0.63282126 0.60591865 255 255 255 255
0 0.30904818 0.59982878 255 255 255 255
0 0.16128203 0.10040923 255 255 255 255
0 0.5052374 0.023286609 255 255 255 255
0 0.12429327 0.71211177 255 255 255 255
0 0.90124214 0.8326664 255 255 255 255
0 0.9938156 0.25124359 255 255 255 255
0 0.82345653 0.33322981 255 255 255 255
0 0.081399038 0.87585229 255 255 255 255
0 0.55944103 0.027584514 255 255 255 255
0 0.93954837 0.82279313 255 255 255 255
0 0.092466481 0.7423988 255 255 255 255
0 0.064539149 0.19983661 255 255 255 255
0 0.30284959 0.070656776 255 255 255 255
0 0.13544419 0.69959515 255 255 255 255
0 0.99086064 0.76826549 255 255 255 255
0 0.3055138 0.29990885 255 255 255 255
0 0.36809424 0.46679583 255 255 255 255
0 0.40031806 0.87333167 255 255 255 255
0 0.49008244 0.52461135 255 255 255 255
0 0.58544338 0.39132461 255 255 255 255
0 0.35727775 0.57925904 255 255 255 255
0 0.64256817 0.18073429 255 255 255 255
0 0.91248882 0.72396725 255 255 255 255
0 0.056586582 0.47192991 255 255 255 255
0 0.75155175 0.996135 255 255 255 255
0 0.294723 0.84401822 255 255 255 255
0 0.73853379 0.35926217 255 255 255 255
0 0.043854844 0.041383389 255 255 255 255
0 0.42991894 0.17929903 255 255 255 255
0 0.74097854 0.42077962 255 255 255 255
0 0.94756448 0.046492368 255 255 255 255
0 0.72068846 0.31565875 255 255 255 255
0 0.5132882 0.12100652 255 255 255 255
0 0.18899038 0.0033706478 255 255 255 255
0 0.64561784 0.77443379 255 255 255 255
0 0.39469525 0.0028956081 255 255 255 255
0 0.3536928 0.037263453 255 255 255 255
0 0.1836299 0.26618165 255 255 255 255
0 0.76123071 0.24021648 255 255 255 255
0 0.73811156 0.51278245 255 255 255 255
0 0.23635146 0.032834552 255 255 255 255
0 0.35680068 0.97488523 255 255 255 255
0 0.39209673 0.40065554 255 255 255 255
0 0.016268633 0.82201564 255 255 255 255
0 0.57995456 0.75724721 255 255 255 255
0 0.24279527 0.52751905 255 255 255 255
0 0.80373955 0.96348369 255 255 255 255
0 0.8431778 0.31702778 255 255 255 255
0 0.08449024 0.03216818 255 255 255 255
0 0.32039842 0.73010808 255 255 255 255
0 0.80660194 0.71509367 255 255 255 255
0 0.73300368 0.16029476 255 255 255 255
0 0.75235713 0.91663361 255 255 255 255
0 0.42647639 0.51358783 255 255 255 255
0 0.1568501 0.16458793 255 255 255 255
0 0.026370255 0.39320156 255 255 255 255
0 0.19742249 0.38317093 255 255 255 255
0 0.36808679 0.5895192 255 255 255 255
0 0.78382647 0.38435543 255 255 255 255
0 0.41153485 0.36378103 255 255 255 255
0 0.14160262 0.65433013 255 255 255 255
0 0.89130008 0.94534218 255 255 255 255
0 0.61781383 0.73447788 255 255 255 255
0 0.26236996 0.70230407 255 255 255 255
0 0.76664609 0.58276838 255 255 255 255
0 0.43241218 0.57324803 255 255 255 255
0 0.29786202 0.16541588 255 255 255 255
0 0.7335428 0.050219152 255 255 255 255
0 0.082049496 0.16001917 255 255 255 255
0 0.56380695 0.23889959 255 255 255 255
0 0.3246071 0.59017724 255 255 255 255
0 0.63210112 0.52202958 255 255 255 255
0 0.97334814 0.00018792786 255 255 255 255
0 0.1115488 0.75717461 255 255 255 255
0 0.38454336 0.52308369 255 255 255 255
0 0.12095565 0.52614599 255 255 255 255
0 0.17741379 0.012255736 255 255 255 255
0 0.47148818 0.79522765 255 255 255 255
0 0.74673361 0.73385811 255 255 255 255
0 0.49753171 0.51337969 255 255 255 255
0 0.31662649 0.92994392 255 255 255 255
0 0.086627707 0.61448854 255 255 255 255
0 0.095359795 0.82017046 255 255 255 255
0 0.66470766 0.17740929 255 255 255 255
0 0.98018968 0.22851464 255 255 255 255
0 0.41630888 0.30479679 255 255 255 255
0 0.81869185 0.048410013 255 255 255 255
0 0.82682639 0.79203999 255 255 255 255
0 0.048597939 0.93837517 255 255 255 255
0 0.54921466 0.43314129 255 255 255 255
0 0.46145886 0.67017031 255 255 255 255
0 0.95928729 0.63887262 255 255 255 255
0 0.68242604 0.43077543 255 255 255 255
0 0.4341003 0.42915964 255 255 255 255
0 0.16463356 0.93163198 255 255 255 255
0 0.94253933 0.48126003 255 255 255 255
0 0.8615759 0.02916703 255 255 255 255
0 0.095748559 0.9569357 255 255 255 255
0 0.84933752 0.7604562 255 255 255 255
0 0.134345 0.8295272 255 255 255 255
0 0.98897088 0.55065387 255 255 255 255
0 0.13432395 0.80766273 255 255 255 255
0 0.59906387 0.96115035 255 255 255 255
0 0.59970272 0.64766181 255 255 255 255
0 0.89952552 0.14891736 255 255 255 255
0 0.080803119 0.36098439 255 255 255 255
0 0.81908762 0.04009039 255 255 255 255
0 0.99985701 0.50151366 255 255 255 255
0 0.47086582 0.43395731 255 255 255 255
0 0.9306733 0.63549936 255 255 255 255
0 0.36558932 0.87321264 255 255 255 255
0 0.11675941 0.22716525 255 255 255 255
0 0.90237963 0.21250798 255 255 255 255
0 0.18410096 0.75171715 255 255 255 255
0 0.97296423 0.31844595 255 255 255 255
0 0.58124435 0.9619351 255 255 255 255
0 0.86909986 0.7155683 255 255 255 255
0 0.76959777 0.4681637 255 255 255 255
0 0.67671865 0.36930054 255 255 255 255
0 0.11582553 0.57624418 255 255 255 255
0 0.51821792 0.19662866 255 255 255 255
0 0.93722856 0.33730555 255 255 255 255
0 0.23671904 0.93708557 255 255 255 255
0 0.83881921 0.70758486 255 255 255 255
0 0.37104291 0.76949251 255 255 255 255
0 0.34308425 0.73663223 255 255 255 255
0 0.64270514 0.45984367 255 255 255 255
0 0.96379751 0.54508483 255 255 255 255
0 0.67235166 0.14789844 255 255 255 255
0 0.29680198 0.64531583 255 255 255 255
0 0.46634439 0.87804633 255 255 255 255
0 0.60725093 0.33544421 255 255 255 255
0 0.59361464 0.37684873 255 255 255 255
0 0.80360794 0.27033332 255 255 255 255
0 0.74614924 0.91943347 255 255 255 255
0 0.84657753 0.26436713 255 255 255 255
0 0.11606212 0.78380609 255 255 255 255
0 0.60167271 0.35278115 255 255 255 255
0 0.72089165 0.44049188 255 255 255 255
0 0.060366027 0.091934562 255 255 255 255
0 0.20998441 0.40345028 255 255 255 255
0 0.82856679 0.85268956 255 255 255 255
0 0.86329395 0.7923643 255 255 255 255
0 0.39777437 0.53564554 255 255 255 255
0 0.94026273 0.69457632 255 255 255 255
0 0.1809614 0.40660712 255 255 255 255
0 0.57262266 0.7882123 255 255 255 255
0 0.74205136 0.16623734 255 255 255 255
0 0.16506104 0.54565924 255 255 255 255
0 0.43657064 0.9112103 255 255 255 255
0 0.46509275 0.28314814 255 255 255 255
0 0.17557742 0.58115488 255 255 255 255
0 0.06695421 0.77725011 255 255 255 255
0 0.933936 0.78784585 255 255 255 255
0 0.217742 0.99430203 255 255 255 255
0 0.87978041 0.42772639 255 255 255 255
0 0.39775231 0.7083472 255 255 255 255
0 0.28041595 0.26104623 255 255 255 255
0 0.5007115 0.67819029 255 255 255 255
0 0.79669178 0.44097424 255 255 255 255
0 0.37276664 0.97765321 255 255 255 255
0 0.84758133 0.94538933 255 255 255 255
0 0.7658655 0.58963269 255 255 255 255
0 0.11162666 0.93092656 255 255 255 255
0 0.13529196 0.54819733 255 255 255 255
0 0.84213686 0.60038471 255 255 255 255
0 0.83134544 0.017714255 255 255 255 255
0 0.18153957 0.89829969 255 255 255 255
0 0.79496437 0.11547559 255 255 255 255
0 0.68614554 0.012706355 255 255 255 255
0 0.10977763 0.56592596 255 255 255 255
0 0.44043276 0.50752997 255 255 255 255
0 0.27427319 0.72084868 255 255 255 255
0 0.7685762 0.77498472 255 255 255 255
0 0.399039 0.56526798 255 255 255 255
0 0.21595892 0.77180564 255 255 255 255
0 0.54292119 0.063540287 255 255 255 255
0 0.71719497 0.30878669 255 255 255 255
0 0.65317297 0.82882166 255 255 255 255
0 0.23971324 0.78846496 255 255 255 255
0 0.37701896 0.081850074 255 255 255 255
0 0.38884965 0.20836443 255 255 255 255
0 0.099564329 0.57038921 255 255 255 255
0 0.10666411 0.89452869 255 255 255 255
0 0.68586481 0.79280967 255 255 255 255
0 0.90723503 0.79564244 255 255 255 255
0 0.35873559 0.34766778 255 255 255 255
0 0.30317238 0.63300878 255 255 255 255
0 0.0685165 0.071748577 255 255 255 255
0 0.40799347 0.46755552 255 255 255 255
0 0.63701653 0.62395239 255 255 255 255
0 0.23936118 0.17993774 255 255 255 255
0 0.68749267 0.95655614 255 255 255 255
0 0.48872444 0.34066567 255 255 255 255
0 0.7853778 0.72843766 255 255 255 255
0 0.12913062 0.16239679 255 255 255 255
0 0.81028777 0.51798028 255 255 255 255
0 0.37076122 0.90985209 255 255 255 255
0 0.088369504 0.47742534 255 255 255 255
0 0.80438077 0.77423429 255 255 255 255
0 0.27023497 0.7116158 255 255 255 255
0 0.56987673 0.62897056 255 255 255 255
0 0.059283596 0.87304914 255 255 255 255
0 0.26197934 0.12780009 255 255 255 255
0 0.94479769 0.66997278 255 255 255 255
0 0.59535563 0.58181429 255 255 255 255
0 0.2939252 0.8347168 255 255 255 255
0 0.76175201 0.98141789 255 255 255 255
0 0.79127294 0.25047645 255 255 255 255
0 0.32208356 0.5766508 255 255 255 255
0 0.97891414 0.45121419 255 255 255 255
0 0.73904753 0.78920186 255 255 255 255
0 0.96919447 0.10980877 255 255 255 255
0 0.69905394 0.057563983 255 255 255 255
0 0.58723408 0.50343472 255 255 255 255
0 0.83179832 0.85746908 255 255 255 255
0 0.21505049 0.40167505 255 255 255 255
0 0.48643962 0.27433407 255 255 255 255
0 0.27472422 0.74841893 255 255 255 255
0 0.40213418 0.21952192 255 255 255 255
0 0.41839176 0.99748981 255 255 255 255
0 0.80133623 0.71231699 255 255 255 255
0 0.83220661 0.56308824 255 255 255 255
0 0.69373488 0.62347955 255 255 255 255
0 0.81356466 0.015818432 255 255 255 255
0 0.20013031 0.7924788 255 255 255 255
0 0.46703261 0.93917787 255 255 255 255
0 0.58168066 0.43622711 255 255 255 255
0 0.048986644 0.2807346 255 255 255 255
0 0.49379107 0.63622075 255 255 255 255
0 0.78416926 0.32558939 255 255 255 255
0 0.49368981 0.99921978 255 255 255 255
0 0.72726446 0.98012942 255 255 255 255
0 0.27355385 0.0019886498 255 255 255 255
0 0.72854835 0.67568803 255 255 255 255
0 0.22151057 0.14694011 255 255 255 255
0 0.67317784 0.022846784 255 255 255 255
0 0.8592571 0.50538439 255 255 255 255
0 0.585935 0.55299193 255 255 255 255
0 0.12886396 0.39949968 255 255 255 255
0 0.5688104 0.32899427 255 255 255 255
0 0.19197847 0.035843 255 255 255 255
0 0.26817214 0.77365911 255 255 255 255
0 0.4720701 0.31715879 255 255 255 255
0 0.054393712 0.9658612 255 255 255 255
0 0.95337951 0.83856297 255 255 255 255
0 0.29145056 0.44706932 255 255 255 255
0 0.83778274 0.018715013 255 255 255 255
0 0.42719874 0.11133661 255 255 255 255
0 0.020703664 0.15574709 255 255 255 255
0 0.78702462 0.24221425 255 255 255 255
0 0.3026872 0.46020249 255 255 255 255
0 0.26506102 0.16194429 255 255 255 255
0 0.9655869 0.85099602 255 255 255 255
0 0.7149362 0.094450839 255 255 255 255
0 0.25049573 0.2837466 255 255 255 255
0 0.42344511 0.44247419 255 255 255 255
0 0.31958959 0.69161725 255 255 255 255
0 0.21613331 0.79165971 255 255 255 255
0 0.0087760165 0.27052703 255 255 255 255
0 0.75752085 0.96215552 255 255 255 255
0 0.10909002 0.048971452 255 255 255 255
0 0.40922484 0.94687277 255 255 255 255
0 0.067686468 0.83642358 255 255 255 255
0 0.058209389 0.088390127 255 255 255 255
0 0.99217063 0.84523404 255 255 255 255
0 0.33060437 0.29485786 255 255 255 255
0 0.30543649 0.5956654 255 255 255 255
0 0.45680213 0.27102339 255 255 255 255
0 0.44666144 0.17173836 255 255 255 255
0 0.36547422 0.69715714 255 255 255 255
0 0.45548496 0.78891933 255 255 255 255
0 0.13963135 0.77507454 255 255 255 255
0 0.48053658 0.35576466 255 255 255 255
0 0.56673425 0.48931259 255 255 255 255
0 0.62629169 0.32425511 255 255 255 255
0 0.45146814 0.73538172 255 255 255 255
0 0.37322658 0.86069298 255 255 255 255
0 0.68225449 0.44091305 255 255 255 255
0 0.69711655 0.74046385 255 255 255 255
0 0.52930319 0.68928719 255 255 255 255
0 0.58569789 0.85990757 255 255 255 255
0 0.98414505 0.89113438 255 255 255 255
0 0.45557293 0.44094718 255 255 255 255
0 0.1621578 0.90223438 255 255 255 255
0 0.61268556 0.52763206 255 255 255 255
0 0.59939152 0.06817048 255 255 255 255
0 0.31655136 0.73902285 255 255 255 255
0 0.84324503 0.79708797 255 255 255 255
0 0.094787523 0.40997925 255 255 255 255
0 0.28640056 0.72107923 255 255 255 255
0 0.73423439 0.73786867 255 255 255 255
0 0.45646089 0.10746096 255 255 255 255
0 0.59856164 0.13871537 255 255 255 255
0 0.548374 0.2956782 255 255 255 255
0 0.87917924 0.077677168 255 255 255 255
0 0.98496538 0.46487716 255 255 255 255
0 0.9375847 0.96911043 255 255 255 255
0 0.35601154 0.39315766 255 255 255 255
0 0.41005763 0.51816934 255 255 255 255
0 0.29539204 0.022743164 255 255 255 255
0 0.045801383 0.89478356 255 255 255 255
0 0.090913638 0.36235276 255 255 255 255
0 0.63380641 0.93415868 255 255 255 255
0 0.15944071 0.72859395 255 255 255 255
0 0.34413794 0.44584125 255 255 255 255
0 0.44967315 0.078372307 255 255 255 255
0 0.18370993 0.90613407 255 255 255 255
0 0.18583326 0.78227156 255 255 255 255
0 0.04484944 0.73420727 255 255 255 255
0 0.077949792 0.92402869 255 255 255 255
0 0.81188446 0.062915199 255 255 255 255
0 0.38890582 0.74946916 255 255 255 255
0 0.032025646 0.74491739 255 255 255 255
0 0.14262681 0.44208327 255 255 255 255
0 0.26308674 0.43801886 255 255 255 255
0 0.46482643 0.30888811 255 255 255 255
0 0.33280241 0.55574006 255 255 255 255
0 0.67124087 0.96660882 255 255 255 255
0 0.48989874 0.83068156 255 255 255 255
0 0.69520283 0.83403665 255 255 255 255
0 0.27652285 0.14487596 255 255 255 255
0 0.91240901 0.46023276 255 255 255 255
0 0.05101002 0.098242253 255 255 255 255
0 0.24250436 0.095859461 255 255 255 255
0 0.8324495 0.32045415 255 255 255 255
0 0.019888148 0.64433396 255 255 255 255
0 0.38336936 0.40879399 255 255 255 255
0 0.39380309 0.41539499 255 255 255 255
0 0.15371136 0.53642988 255 255 255 255
0 0.85747826 0.41679808 255 255 255 255
0 0.97444874 0.32230473 255 255 255 255
0 0.72568619 0.30725116 255 255 255 255
0 0.87804478 0.39692709 255 255 255 255
0 0.27386001 0.36794356 255 255 255 255
0 0.22760865 0.96906281 255 255 255 255
0 0.20198023 0.5041315 255 255 255 255
0 0.11393876 0.11438922 255 255 255 255
0 0.96436423 0.16494879 255 255 255 255
0 0.21263146 0.20686862 255 255 255 255
0 0.26080826 0.045080986 255 255 255 255
0 0.52732277 0.28069639 255 255 255 255
0 0.68941492 0.91069216 255 255 255 255
0 0.68949038 0.083218038 255 255 255 255
0 0.32608715 0.84320176 255 255 255 255
0 0.61964798 0.18356542 255 255 255 255
0 0.25999984 0.59409672 255 255 255 255
0 0.50587016 0.98568606 255 255 255 255
0 0.90134788 0.38391498 255 255 255 255
0 0.38261312 0.17520788 255 255 255 255
0 0.75185853 0.61022174 255 255 255 255
0 0.14427069 0.95383877 255 255 255 255
0 0.11435325 0.25820947 255 255 255 255
0 0.068227991 0.078717507 255 255 255 255
0 0.42315823 0.28085947 255 255 255 255
0 0.28558612 0.68396652 255 255 255 255
0 0.32594046 0.81290889 255 255 255 255
0 0.96466291 0.015355388 255 255 255 255
0 0.72360104 0.65415329 255 255 255 255
0 0.098573431 0.049688198 255 255 255 255
0 0.49735501 0.71822137 255 255 255 255
0 0.23325363 0.75735486 255 255 255 255
0 0.31231809 0.73912376 255 255 255 255
0 0.74304086 0.21366596 255 255 255 255
0 0.12303875 0.12565398 255 255 255 255
0 0.38887385 0.8748973 255 255 255 255
0 0.73587573 0.53314453 255 255 255 255
0 0.82873607 0.85022902 255 255 255 255
0 0.791354 0.89696407 255 255 255 255
0 0.9289465 0.21451223 255 255 255 255
0 0.17782351 0.21453264 255 255 255 255
0 0.89847875 0.50376397 255 255 255 255
0 0.027441556 0.8631416 255 255 255 255
0 0.51911932 0.7510426 255 255 255 255
0 0.51729488 0.61769277 255 255 255 255
0 0.80073082 0.014649879 255 255 255 255
0 0.33591416 0.033984434 255 255 255 255
0 0.77200472 0.64823222 255 255 255 255
0 0.77310824 0.51504558 255 255 255 255
0 0.86189818 0.89614695 255 255 255 255
0 0.64069957 0.25077206 255 255 255 255
0 0.77104425 0.37657529 255 255 255 255
0 0.78391659 0.59978032 255 255 255 255
0 0.2268043 0.57527053 255 255 255 255
0 0.49674436 0.15575081 255 255 255 255
0 0.78978276 0.67456788 255 255 255 255
0 0.37028345 0.68826151 255 255 255 255
0 0.17833185 0.39772502 255 255 255 255
0 0.55140311 0.69745117 255 255 255 255
0 0.14876762 0.068697989 255 255 255 255
0 0.31514397 0.94949841 255 255 255 255
0 0.083347864 0.65105814 255 255 255 255
0 0.98348284 0.85535258 255 255 255 255
0 0.29929039 0.75659108 255 255 255 255
0 0.37039816 0.16118859 255 255 255 255
0 0.65273803 0.011097718 255 255 255 255
0 0.41196063 0.42378232 255 255 255 255
0 0.38767302 0.19587721 255 255 255 255
0 0.023562631 0.61447734 255 255 255 255
0 0.77114779 0.520307 255 255 255 255
0 0.77022815 0.56093055 255 255 255 255
0 0.19487488 0.1405116 255 255 255 255
0 0.24919204 0.37320673 255 255 255 255
0 0.53823662 0.80059516 255 255 255 255
0 0.070657924 0.68700421 255 255 255 255
0 0.86929315 0.38580191 255 255 255 255
0 0.63650262 0.95264101 255 255 255 255
0 0.03686003 0.61998552 255 255 255 255
0 0.80799359 0.33615041 255 255 255 255
0 0.3765766 0.17839174 255 255 255 255
0 0.49733901 0.029314645 255 255 255 255
0 0.18948947 0.90929961 255 255 255 255
0 0.45309696 0.5771625 255 255 255 255
0 0.10517684 0.4766596 255 255 255 255
0 0.19163981 0.87632459 255 255 255 255
0 0.9969666 0.96186793 255 255 255 255
0 0.43725514 0.19184147 255 255 255 255
0 0.10237955 0.6864472 255 255 255 255
0 0.56504822 0.64061618 255 255 255 255
0 0.48704237 0.63570613 255 255 255 255
0 0.32762039 0.35633549 255 255 255 255
0 0.021508018 0.96412301 255 255 255 255
0 0.3089765 0.05836805 255 255 255 255
0 0.58410853 0.11697009 255 255 255 255
0 0.39451846 0.96068513 255 255 255 255
0 0.29536185 0.89185745 255 255 255 255
0 0.98999977 0.4848513 255 255 255 255
0 0.80115706 0.44309673 255 255 255 255
0 0.062013786 0.90633392 255 255 255 255
0 0.91975635 0.25365362 255 255 255 255
0 0.78265852 0.91672289 255 255 255 255
0 0.21552156 0.21991366 255 255 255 255
0 0.10856438 0.3179011 255 255 255 255
0 0.90636086 0.67361259 255 255 255 255
0 0.95851725 0.3934032 255 255 255 255
0 0.30931869 0.28613767 255 255 255 255
0 0 0 1 0 0 0 1 0 0 0 1 0 0 0 0 0 882 1 0 0
