# .PCD v0.7 - Point Cloud Data file format
VERSION 0.7
FIELDS x y z rgba
SIZE 4 4 4 4
TYPE F F F U
COUNT 1 1 1 1
WIDTH 1113
HEIGHT 1
VIEWPOINT 0 0 0 1 0 0 0
POINTS 1113
DATA ascii
0.020300999 -0.032214999 0.030626001 16777215
0.046089999 0.018333999 0.001807 16777215
0.0043839999 -0.041122999 0.024636 16777215
-0.043386001 0.019850999 -0.013455 16777215
-0.034274001 -0.034446999 0.003245 16777215
-0.041375 -0.001669 0.028018 16777215
-0.032761998 -0.0060959999 0.037222002 16777215
-0.036386002 -0.02063 0.026542 16777215
0.049518999 -0.0063169999 0.001916 16777215
-0.043857001 -0.006697 -0.022954 16777215
-0.030873001 0.037014998 0.0053610001 16777215
-0.003515 0.036322001 -0.032028999 16777215
-0.046443 -2.4999999e-05 -0.018521 16777215
-0.020416999 0.043359 0.000204 16777215
-0.021811999 0.0242 -0.037085 16777215
0.0062589999 -0.043689001 -0.018599 16777215
0.023546999 0.019742999 -0.038906001 16777215
0.046663001 -0.016677 0.003793 16777215
0.045283999 -0.01316 -0.016047001 16777215
0.014567 -0.017868999 0.043977 16777215
-0.0092949998 0.031491999 -0.036258999 16777215
-0.047171999 -0.0065930001 0.015055 16777215
0.0053790002 -0.011989 -0.048080999 16777215
0.0078729996 -0.028426999 0.039276 16777215
-0.041797999 0.019059001 -0.018719001 16777215
0.0041129999 0.0042539998 -0.049628999 16777215
-0.028545 -0.014714 -0.038017001 16777215
-0.003083 0.047277998 0.0037179999 16777215
-0.0087120002 -0.045315001 -0.0122 16777215
0.0093710003 0.0085180001 -0.048287999 16777215
-0.023430999 -0.026061 0.034619 16777215
-0.034541 -0.028902 -0.019529 16777215
0.011158 -0.033082999 -0.034099001 16777215
0.020018 -0.039811999 0.018521 16777215
-0.025896 0.037128001 0.017378001 16777215
-0.041391 -0.0025289999 0.027923999 16777215
-0.018254999 -0.042569999 -0.0126 16777215
0.015239 0.034021001 0.031389002 16777215
-0.0071379999 -0.036724001 -0.030897999 16777215
0.034807999 -0.0039630001 0.035650998 16777215
0.003457 -0.010122 -0.048728999 16777215
0.046184 -0.0049200002 0.018445 16777215
0.024356 -0.039806001 -0.012293 16777215
-0.023279 -0.02117 0.038229 16777215
0.022247 0.036869999 -0.022334 16777215
0.040259 0.023146 -0.016899001 16777215
-0.041882001 -0.021594999 -0.015139 16777215
0.048294 0.0075249998 -0.010244 16777215
0.012244 0.016546 0.045240998 16777215
0.043191001 0.018677 0.015748 16777215
-0.036809001 -0.018267 -0.027845001 16777215
-0.00648 0.046091001 -0.010205 16777215
0.024863999 -0.039531998 0.012255 16777215
-0.0078699999 -0.017512999 -0.045805998 16777215
-0.0067520002 0.0049239998 -0.04927 16777215
-0.04995 0.002111 -0.00012 16777215
0.001157 -0.035275001 -0.033464 16777215
-0.010498 -0.0073500001 -0.048269 16777215
-0.023003999 -0.036320001 -0.022564 16777215
0.00042500001 0.041565999 0.024196001 16777215
0.040741999 -0.024089999 -0.01404 16777215
0.034637999 -0.001634 -0.036017999 16777215
-0.0063700001 0.045855001 0.011383 16777215
-0.049291 -0.0026090001 -0.007925 16777215
-0.016505999 0.020089 -0.042195 16777215
-0.049384002 -0.005597 0.0051469998 16777215
0.024226001 -0.041421 0.0034690001 16777215
-0.0069340002 0.014715 -0.047031999 16777215
0.00954 -0.046280999 0.0059719998 16777215
-0.023869 -0.035872001 -0.022461001 16777215
0.029608 -0.0022780001 0.040219001 16777215
0.035698 0.032343999 -0.0081590004 16777215
-0.041223999 -0.01522 0.023321001 16777215
0.036176998 -0.027280999 0.019145999 16777215
-0.037742998 -0.007859 0.031732999 16777215
-0.0042059999 -0.0035629999 0.049681 16777215
-0.046179 0.010048 -0.015988 16777215
-0.041584998 -0.015696 -0.022309 16777215
0.032515001 0.022260999 0.029894 16777215
-0.039395001 -0.023471 -0.018374 16777215
-0.019912999 0.0083379997 -0.045015998 16777215
-0.032871 -0.034520999 0.0099539999 16777215
0.047527 -0.001302 0.015471 16777215
-0.0056980001 0.026126999 -0.041366 16777215
-0.0024910001 0.040406998 0.026165999 16777215
0.027449001 0.0093820002 0.040608 16777215
-0.013295 -0.021152001 -0.042748999 16777215
0.0068799998 -0.03008 -0.038081001 16777215
-0.012658 -0.0043350002 0.048154999 16777215
-0.020622 0.040107001 0.017099001 16777215
-0.024963999 0.029634001 0.030063 16777215
0.036504 -0.020631 -0.026379 16777215
-0.015784999 0.039466001 -0.022911999 16777215
-0.013951 0.0038300001 0.047844999 16777215
0.00076899998 0.0024339999 -0.049927998 16777215
-0.041156001 0.019224999 0.019917 16777215
0.002259 0.047104001 -0.0060339998 16777215
0.040199 0.013717 0.025992 16777215
-0.010151 -0.015528 -0.046149999 16777215
0.037765998 -0.028772 -0.012508 16777215
0.021997999 0.0068270001 0.044321999 16777215
0.003914 -0.019144 0.045591999 16777215
-0.033392999 0.0025569999 -0.037117001 16777215
-0.043263 -0.0054290001 -0.024405999 16777215
-0.015176 -0.018064 -0.043682002 16777215
0.00303 -0.0096169999 0.048870999 16777215
0.016059 -0.036010001 -0.028378 16777215
0.026629001 -0.023729 -0.034161001 16777215
-0.001502 -0.022698 -0.043896001 16777215
0.045662001 -0.016496999 0.01065 16777215
-0.016601 0.038435001 -0.024239 16777215
-0.0058869999 0.024885001 0.042180002 16777215
0.043272 -0.018587001 -0.015645999 16777215
0.039544001 -0.026481999 -0.01262 16777215
0.017625 0.0025140001 -0.046716001 16777215
0.044624001 0.011547 -0.018999999 16777215
0.030301001 0.022389 0.032037999 16777215
0.047106002 -0.015926 -6.2999999e-05 16777215
-0.014671 -0.011485 0.046245001 16777215
0.023314999 -0.032992002 -0.027393 16777215
0.048960999 -0.0096310005 9.8999997e-05 16777215
0.045090001 0.013937 -0.015861999 16777215
-0.041156001 0.016224001 -0.022683 16777215
0.042808998 0.013328 0.021692 16777215
0.010607 -0.030043 0.037248001 16777215
0.044553999 0.012761 -0.018289 16777215
-0.015764 0.013588 0.045242999 16777215
-0.013464 0.045364 0.006203 16777215
-0.014352 0.037664998 0.026872 16777215
0.043497 -0.0016139999 -0.024599001 16777215
-0.044287998 -0.0050249998 -0.022596 16777215
-0.033089999 0.033303 -0.013272 16777215
0.047166001 0.0051199999 -0.015695 16777215
0.033599999 0.0012150001 -0.037005998 16777215
-0.025402 -0.00084200001 -0.043058001 16777215
-0.042633999 -0.018440999 -0.017480001 16777215
0.0051440001 -0.038883999 -0.028252 16777215
-0.016983001 0.041251998 0.018054999 16777215
0.027048999 -0.0074240002 0.041319001 16777215
0.0060410001 0.043967001 0.017930999 16777215
0.046629 -0.017145 -9.9999997e-06 16777215
-0.034129001 0.0070620002 0.035776 16777215
-0.027465001 0.013044 -0.039461002 16777215
0.047093 -0.011777 0.011339 16777215
-0.0052550002 -0.040814001 0.025033001 16777215
-0.017372999 -0.043931 0.0077280002 16777215
-0.0098280003 -0.026404999 -0.040383998 16777215
-0.029827001 -0.0088529997 0.039032001 16777215
-0.034214001 0.00089600001 -0.036449 16777215
-0.014726 -0.011949 0.046096999 16777215
-0.040789999 0.019882999 -0.019954 16777215
-0.021051999 0.029599 -0.032956 16777215
0.0031320001 -0.036841001 -0.031404998 16777215
0.036725 0.024967 -0.021461001 16777215
-0.037620999 0.031095 -0.003644 16777215
0.036768001 0.025614999 -0.020522 16777215
0.022957999 0.034081001 -0.02619 16777215
0.021914 -0.031114001 -0.030774999 16777215
0.027814999 0.037492 0.012994 16777215
0.0074550002 0.042764999 -0.020444 16777215
0.036637001 -0.030523 0.011199 16777215
-0.041802999 0.025885001 0.003183 16777215
0.011152 0.046293002 -0.0010479999 16777215
-0.036382001 0.018754 -0.028047999 16777215
-0.001925 0.042748 -0.021713 16777215
-0.016531 -0.037606999 -0.025683001 16777215
-0.035535999 0.032325 -0.0089109996 16777215
-0.0091800001 -0.046661001 0.0018119999 16777215
0.037459999 0.022374 -0.023282001 16777215
0.01007 -0.0089029996 0.048071001 16777215
0.0093050003 0.0069949999 0.048572 16777215
0.00092700002 0.018579001 -0.046007 16777215
0.02792 0.038718 0.007706 16777215
-0.042473 -0.0035349999 0.026118999 16777215
-0.0045150002 0.046957999 -0.006025 16777215
-0.045371 -0.019071 -0.0062020002 16777215
0.0097599998 0.040725999 -0.023810999 16777215
0.030725 -0.023179 0.030995 16777215
-0.0047030002 0.04707 0.0047869999 16777215
0.0037750001 -0.016744999 0.046636999 16777215
-0.0081089996 -0.046597999 -0.005318 16777215
0.017421 -0.015814999 0.043811001 16777215
-0.0057330001 -0.046870001 -0.0057450002 16777215
0.012895 -0.036104999 0.029821999 16777215
0.036010999 -0.010758 -0.032786999 16777215
0.010341 -0.038888998 0.026782 16777215
0.04259 -0.013157 0.022233 16777215
-0.047908001 -0.0090119997 0.010716 16777215
0.033509001 0.0070290002 0.036364999 16777215
0.010036 0.017165 0.045527998 16777215
0.030731 -0.014601 0.036323 16777215
0.027269 0.020072 0.036194 16777215
-0.031732 -0.019598 -0.032671999 16777215
0.0094860001 -0.0089699998 0.048175 16777215
0.044360999 0.017694 0.013608 16777215
0.019323001 -0.041919 -0.013401 16777215
-0.042911999 0.013745 -0.021194 16777215
-0.041342001 0.0084279999 -0.026686 16777215
0.0066999998 -0.034906 -0.033243001 16777215
-0.032744002 -0.035505999 -0.0055689998 16777215
0.044224001 -0.021402 -0.0060620001 16777215
0.0085739996 0.045058999 -0.013297 16777215
-0.041901 -0.010011 -0.025165001 16777215
-0.011993 -0.040585 0.023046 16777215
-0.012743 -0.018534999 -0.044236999 16777215
-0.017906001 0.016631 0.043276999 16777215
-0.033036001 0.035464 -0.003879 16777215
-0.047949001 -0.010624 -0.0087099997 16777215
-0.027946999 -0.017553 0.037115999 16777215
0.032457002 0.033753999 0.013569 16777215
-0.010832 0.035822 -0.030997001 16777215
-0.016712001 -0.019162999 -0.042589001 16777215
0.010207 -0.037494998 0.028949 16777215
0.02207 0.036504 0.023161 16777215
-0.018126 0.040417001 0.01901 16777215
-0.047343999 -0.015192 -0.001678 16777215
0.043251999 0.0032289999 0.024854001 16777215
0.01736 -0.043747999 0.0088320002 16777215
-0.048599999 -0.001703 0.01161 16777215
-0.042079002 -0.025522999 -0.0027429999 16777215
-0.032839 0.032671999 -0.015454 16777215
-0.034832999 0.011591 0.033730999 16777215
-0.02249 0.038539998 -0.018665001 16777215
0.049400002 -0.0058729998 -0.0046259998 16777215
-0.00159 0.044920001 -0.016175 16777215
-0.037955001 0.024661001 0.019634999 16777215
0.026524 -0.017898999 0.037967 16777215
-0.023782 -0.038724001 0.016519001 16777215
0.026807999 -0.025573 -0.032506999 16777215
-0.042899001 -0.023037 0.0084640002 16777215
0.026234001 0.040025 0.0060549998 16777215
-0.0095499996 -0.046326999 -0.0055479999 16777215
-0.0084450003 0.043147001 -0.019128 16777215
0.041159999 0.026077 -0.0072349999 16777215
-0.018577 -0.030492 -0.033535998 16777215
0.037037 0.031677999 0.004038 16777215
0.0093350001 0.021807 0.043427002 16777215
-0.039267 -0.014471 -0.026946001 16777215
-0.012283 0.045329999 -0.0085070003 16777215
0.026565 0.039873999 0.0057109999 16777215
0.043846998 0.005593 -0.023297001 16777215
-0.00088800001 -0.046955001 -0.0074979998 16777215
0.036421001 0.0090910001 -0.032892998 16777215
-0.020683 0.028945001 -0.033822 16777215
-0.0066200001 0.026712 -0.040810999 16777215
0.0031969999 0.047175001 0.0048850002 16777215
0.020527 -0.026435001 -0.036116 16777215
0.043968 -0.015156 0.017671 16777215
0.017028 -0.033647999 0.030912001 16777215
0.0066559999 -0.0090220002 -0.048636001 16777215
-0.025785999 -0.03139 -0.027263001 16777215
0.036796 -0.012205 0.031321 16777215
-0.042738002 -0.010043 0.023700999 16777215
-0.027017999 0.036396001 0.017384 16777215
-0.031102 0.023272 -0.030539 16777215
0.0098799998 0.031638 0.035962 16777215
-0.029414 -0.028666001 -0.026913 16777215
-0.023585999 0.041623 0.0049029998 16777215
0.0049239998 0.041547 -0.023729 16777215
0.034559999 0.022089999 0.027657 16777215
-0.027102999 0.031451002 -0.025872 16777215
-0.01482 -0.039345 -0.023771999 16777215
0.016899999 0.0084950002 0.0462 16777215
0.001199 0.046179 0.011647 16777215
0.034023002 0.010986 -0.034766 16777215
0.019258 -0.0050400002 -0.045836002 16777215
-0.038029 0.019624 0.025041001 16777215
0.0074390001 0.027588001 -0.040015999 16777215
-0.015896 0.030265 -0.035105001 16777215
-0.032772999 -0.035836 -0.001713 16777215
0.010826 -0.026132001 -0.040325999 16777215
0.0056679999 0.024512 -0.042451002 16777215
-0.001994 0.041037001 0.0251 16777215
0.023313999 -0.040538002 -0.011644 16777215
-0.011619 0.038306002 -0.027186999 16777215
-0.0030739999 -0.021777 0.044328999 16777215
0.030964 0.033282001 -0.017718 16777215
-0.017191 0.039652001 -0.021500999 16777215
0.042254999 0.025199 0.003302 16777215
-0.021776 -0.042624 -0.0035699999 16777215
-0.000158 0.041969001 -0.023415999 16777215
-0.00022 -0.047251001 -0.0051040002 16777215
-0.017952001 -0.024390001 0.038968999 16777215
-0.011276 -0.045552999 0.0085770003 16777215
-0.040971 -0.025017001 -0.011312 16777215
-0.017287999 0.026006 -0.038102001 16777215
0.022771999 0.0039110002 -0.044323001 16777215
0.046025999 0.014482 0.012217 16777215
0.018585 -0.031911001 -0.032035001 16777215
-0.0047010002 -0.019022999 -0.045573998 16777215
-0.028717 0.007762 -0.040107001 16777215
-0.034095999 0.027872 0.021833001 16777215
-0.013952 0.001469 0.047989 16777215
0.032855 0.027946001 0.023562999 16777215
0.014436 0.041522 0.019526999 16777215
-0.039710999 -0.023816001 0.017162001 16777215
-0.038054999 -0.011526 -0.030076999 16777215
-0.032844 -0.023266001 0.028661 16777215
0.019832 0.010899 -0.044442002 16777215
-0.035730999 0.030212 -0.014558 16777215
-0.037881002 0.023999 0.02066 16777215
0.048434999 -0.0089880005 -0.0080359997 16777215
-0.035342999 -0.0063680001 -0.034727 16777215
0.001117 0.045274001 -0.015085 16777215
-0.0094870003 0.046610001 -0.001671 16777215
0.014711 0.0079229996 0.047054 16777215
0.019029001 -0.037 -0.024919 16777215
-0.018406 -0.043912001 -0.0049689999 16777215
0.021949001 -0.027899999 -0.033996999 16777215
0.034053002 -0.034448002 -0.0050530001 16777215
0.041189 -0.026752001 0.003238 16777215
0.010974 -0.019098001 -0.044445999 16777215
-0.038090002 -0.023536 0.020865001 16777215
-0.048023999 0.0020880001 -0.013742 16777215
-0.032551002 0.023561999 0.028727001 16777215
-0.020321 0.041370999 -0.013804 16777215
-0.024891 -0.040871002 0.0054359999 16777215
0.031734001 -0.020202 -0.032260001 16777215
0.001502 -0.045993 0.012405 16777215
0.010086 -0.009718 -0.047892001 16777215
0.011462 0.035145 -0.031622998 16777215
-0.012273 -0.035018001 -0.031474002 16777215
-0.026796 -0.023715001 -0.034040999 16777215
-0.014104 -0.044821002 0.0086669996 16777215
-0.015232 0.0061420002 -0.047183 16777215
0.036088001 0.021547001 0.026138 16777215
0.029173 -0.030738 -0.024536001 16777215
0.020780001 0.029811 -0.032915998 16777215
0.038268 0.026231 0.016527001 16777215
0.030277001 -0.036426 0.010635 16777215
0.019342 -0.017804001 0.042126998 16777215
-0.043033998 -0.003266 0.025225 16777215
0.012011 0.020045999 0.043708999 16777215
0.018978 0.041650001 0.014754 16777215
-0.039322998 -0.029113 0.003817 16777215
0.044718999 -0.020901 0.0040239999 16777215
-0.048133001 -0.005752 -0.012104 16777215
-0.048131999 -0.010639 -0.007609 16777215
-0.045554999 -0.0079269996 0.018843999 16777215
0.028618 0.012623 0.038787 16777215
-0.040015999 0.0010470001 0.029959001 16777215
0.0013379999 -0.015566 0.047219999 16777215
-0.021143001 -0.041342001 -0.012615 16777215
-0.045481998 0.018906999 0.005938 16777215
-0.035859 -0.032283999 -0.0076970002 16777215
0.024831001 0.032485999 0.026722001 16777215
-0.019130001 -0.037291002 0.024355 16777215
-0.015193 -0.033856001 0.031608 16777215
0.015217 -0.014122 0.045249 16777215
-0.012822 0.04228 -0.018839 16777215
-0.016983001 -0.044121001 0.0073910002 16777215
0.046138 -0.0055450001 0.018363001 16777215
-0.0056619998 0.042289998 -0.022050999 16777215
-0.036965001 0.014381 -0.030073 16777215
-0.023434 -0.041935999 -0.0015069999 16777215
-0.033172 0.035525002 -0.001126 16777215
-0.040941 0.011233 0.026155001 16777215
-0.025847999 -0.039069001 0.011858 16777215
0.001829 -0.046186998 0.011529 16777215
0.014326 0.030758999 0.035305001 16777215
0.018805999 -0.037055999 -0.024998 16777215
0.0056019998 -0.038817 -0.028268 16777215
0.000205 0.036281999 -0.032269999 16777215
0.041127998 0.024458 0.012069 16777215
-0.020874999 0.042831998 0.0056099999 16777215
-0.01232 -0.023706 -0.041538998 16777215
0.020755 -0.019205 0.040750001 16777215
-0.018193001 -0.019363999 -0.041875001 16777215
0.040546998 -0.025699001 -0.011142 16777215
-0.032175001 0.030851001 0.020252001 16777215
0.026958 -0.039999999 -0.00061400002 16777215
0.027346 -0.018262999 0.037184 16777215
-0.01592 0.0047470001 0.047134001 16777215
-0.010545 0.032069001 0.035344999 16777215
0.013543 0.045543 -0.004286 16777215
-0.016683999 -0.042436998 0.01504 16777215
0.033020001 -0.034409001 0.0098890001 16777215
0.044358 0.0028289999 -0.022879999 16777215
0.03802 -0.02306 -0.021570999 16777215
-0.014902 -0.016353 0.044514999 16777215
0.0057029999 0.028503999 0.039588999 16777215
0.0045190002 0.044034999 -0.018195 16777215
-0.026601 0.038049001 0.013721 16777215
0.043570999 0.023235001 -0.001834 16777215
-0.024759 0.022701999 0.036276001 16777215
-0.042675 -0.024730001 0.0011089999 16777215
-0.025881 -0.031688999 -0.026786 16777215
0.026345 -0.040371999 6.7000001e-05 16777215
-0.023895999 0.040966999 0.0083280001 16777215
0.029375 0.012927 -0.038105 16777215
0.029933 0.033415999 -0.019152001 16777215
0.045565002 0.012569 0.015773 16777215
0.015559 -0.015775001 0.044521999 16777215
0.041448001 0.011465 -0.025227999 16777215
0.023403 0.010768 -0.042706002 16777215
-0.014774 0.034751002 0.030718001 16777215
0.017510001 0.0071330001 -0.046227999 16777215
-0.030850001 0.027392 0.026776001 16777215
0.045132 0.0046709999 0.020950001 16777215
-0.020694001 0.0013689999 0.045494001 16777215
-0.044091001 0.022376001 0.00112 16777215
0.044989999 -0.020499 0.0031989999 16777215
0.038819999 0.029837999 0.0025520001 16777215
-0.032754 -0.028596001 -0.022826999 16777215
0.02146 -0.042266 0.0077499999 16777215
-0.037615001 -0.030565999 -0.0070639998 16777215
0.049309 0.0078680003 -7.4000003e-05 16777215
-0.023298999 0.041768 -0.0049100001 16777215
0.032974999 0.016576 -0.033289999 16777215
0.018692 -0.0405 -0.018252 16777215
-0.0059250002 -0.042243 0.022081999 16777215
-0.020978 -0.0019759999 0.045338999 16777215
0.0094870003 0.024396 0.041839 16777215
-0.035080001 -0.01052 -0.033863999 16777215
0.038088001 -0.02227 -0.022355 16777215
0.041469999 0.0092639998 -0.026176 16777215
0.032968 0.035712 -0.000165 16777215
-0.001698 0.047472 0.000229 16777215
0.002594 0.0042770002 0.049729001 16777215
0.030827999 0.02036 0.033020001 16777215
-0.002846 -0.030647 0.038095001 16777215
0.042601001 -0.015246 0.020678001 16777215
0.045003001 -0.012331 -0.0175 16777215
-0.043492999 0.019675 -0.013393 16777215
-0.016752001 0.044716001 -0.0019670001 16777215
-0.023530999 0.038458001 -0.017534001 16777215
-0.046142001 0.018019 -0.0033430001 16777215
-0.028162001 0.035393 -0.017859001 16777215
-0.020941 -0.040272001 0.016261 16777215
0.020458 -0.043095998 -0.004857 16777215
0.018554 -0.001311 -0.046410002 16777215
-0.043536 -0.016369 -0.017541001 16777215
0.039779 0.026667999 0.011386 16777215
-0.037723001 -0.023810999 0.021183999 16777215
-0.022714 -0.033815999 -0.026776999 16777215
-0.0074209999 0.04513 0.013718 16777215
0.040975999 -0.024150001 0.01322 16777215
-0.031934001 0.03655 -3.8999999e-05 16777215
0.0067980001 0.034719002 -0.033438999 16777215
-0.02399 0.039097 0.015189 16777215
-0.0073850001 -0.046642002 0.0059090001 16777215
0.013544 0.027081 0.038780998 16777215
0.029398 -0.030153001 0.025067 16777215
0.025921 -0.00138 0.042732 16777215
0.023716001 -0.005448 -0.043643001 16777215
-0.020570001 0.029890001 0.032969002 16777215
0.034361001 0.02826 0.020842999 16777215
0.012371 0.040785 0.022445999 16777215
0.024776001 0.035287 -0.022504 16777215
0.038531002 -0.025398999 -0.017336 16777215
-0.034359001 0.034458 -0.001955 16777215
-0.046234999 -0.015813001 0.0092329998 16777215
0.016502 0.0097059999 0.046078999 16777215
0.0050730002 -0.042337999 0.022093 16777215
-0.011621 -0.001912 -0.048588999 16777215
0.018445 0.044093002 0.002351 16777215
-0.028627001 0.032460999 -0.022647999 16777215
0.011928 0.038421001 0.026872 16777215
0.029371001 0.025029 -0.030711999 16777215
0.013006 0.0016120001 -0.048248999 16777215
-0.017755 0.024948001 -0.038667001 16777215
-0.030512 0.036719002 0.0086629996 16777215
-0.049373999 -0.0039809998 -0.0066789999 16777215
-0.009567 0.019574 -0.044541001 16777215
0.035246 0.022794999 0.026114 16777215
-0.044663999 0.017078999 0.013488 16777215
0.025806 -0.026931999 0.032099001 16777215
-0.027099 -0.028898999 0.028987 16777215
-0.0093280002 -0.0026100001 -0.049045 16777215
0.019475 -0.042831 0.009385 16777215
-0.021864999 -0.00049499999 -0.044962998 16777215
-0.030455999 0.023382001 -0.031091001 16777215
-0.042153001 -0.010866 0.024336999 16777215
0.0086949999 0.0050360002 -0.048951998 16777215
-0.0092529999 -0.027059 0.040038999 16777215
-0.043446001 -0.022018 0.00868 16777215
0.0060820002 0.027819 -0.040068999 16777215
-0.015554 0.039399002 -0.023196001 16777215
-0.002869 -0.038226999 -0.02954 16777215
-0.038695998 0.013203 -0.028452 16777215
0.00026900001 -0.0085310005 -0.049185999 16777215
-0.045102 0.0027739999 0.021384001 16777215
0.026210999 0.021284999 0.036207002 16777215
0.047906999 0.0090410002 -0.010692 16777215
0.039349001 -0.0038399999 0.030583 16777215
-0.024495 0.040362999 0.0097359996 16777215
-0.008804 -0.035560001 0.031957999 16777215
-0.043713 0.000207 0.024272 16777215
0.032072999 -0.0012150001 -0.038337 16777215
0.017669 -0.043033 0.01166 16777215
-0.0055829999 0.047157001 -0.0021850001 16777215
0.033978 0.031021999 0.016709 16777215
0.016268 0.010063 0.046078 16777215
-0.046324 -0.0019039999 0.018711001 16777215
0.048982002 0.0054609999 0.0082280003 16777215
0.011853 0.041508999 -0.021221999 16777215
0.020002 -0.025522999 0.037122998 16777215
0.018485 0.041900001 0.014596 16777215
0.043756001 -0.00128 0.024157001 16777215
0.033137001 -0.031723998 -0.016935 16777215
0.03362 -0.035154998 0.00057700003 16777215
0.044114001 -0.014511 0.017906001 16777215
0.027801 0.0063450001 -0.041019 16777215
0.024325 -0.041074 0.00624 16777215
-0.012553 0.044893 0.010455 16777215
-0.029351 -0.028128 0.027601 16777215
0.0048039998 0.024080001 -0.042830002 16777215
0.0029800001 0.042268001 0.022616999 16777215
0.014163 0.015749 -0.044994999 16777215
-0.034318 0.017712999 -0.031219 16777215
-0.004714 0.046085998 0.011154 16777215
-0.003083 0.010833 -0.048583999 16777215
0.014285 -0.0057029999 -0.047538999 16777215
-0.022979001 0.024435 -0.036199 16777215
-0.019243 0.032120001 -0.031408999 16777215
-0.024769001 -0.021784 -0.036887001 16777215
-0.027197 0.034079999 0.021756999 16777215
0.013425 -0.023150001 0.041544002 16777215
0.045919001 0.018186999 0.0049910001 16777215
0.040130001 0.027636001 0.0065810001 16777215
-0.0064280001 0.042148001 -0.022143999 16777215
0.046709001 -0.013696 -0.010509 16777215
-0.029271999 -0.035804 -0.014924 16777215
0.022318 -0.031656001 -0.029859001 16777215
0.029881001 0.017173 -0.035781998 16777215
0.049442999 0.0064369999 0.0030769999 16777215
0.036354002 -0.030393001 -0.012443 16777215
-0.029518001 -0.005161 0.03999 16777215
-0.042328998 -0.006631 0.025681 16777215
-0.004979 -0.029863 0.038562 16777215
0.049711 0.0031580001 0.004214 16777215
0.048225999 0.01112 0.0061039999 16777215
-0.027767001 -0.036692999 -0.015402 16777215
-0.032793 -0.001959 0.037687998 16777215
-0.025460999 0.040879 0.000375 16777215
0.018219 0.043074001 0.010594 16777215
0.043483 0.023319 0.0025909999 16777215
0.046046 0.014922 0.011534 16777215
0.024475999 -0.033502001 -0.025637001 16777215
-0.010955 0.046179999 -0.0041260002 16777215
-0.0038370001 0.00061400002 -0.049848001 16777215
0.03768 0.011368 0.030610001 16777215
-0.005475 0.045136001 -0.014584 16777215
-0.0083520003 -0.036814 -0.030471999 16777215
0.040493999 0.012544 -0.026188999 16777215
0.0099759996 -0.030851001 0.036685999 16777215
0.033877999 -0.034685001 -0.0043890001 16777215
-0.0221 -0.041173998 0.011539 16777215
0.018890001 -0.031599 0.032200001 16777215
0.033022001 0.016252 0.03342 16777215
-0.03074 0.0036889999 -0.039241999 16777215
0.025185 0.027662 0.031904001 16777215
-0.025719 -0.012657 0.040755998 16777215
-0.032451998 -0.0093830004 -0.036733001 16777215
-0.024359001 0.017100999 -0.039781999 16777215
0.029151 0.031357002 -0.023678999 16777215
0.0091120005 -0.012673 0.047318 16777215
-0.00094499998 -0.00157 0.049964 16777215
-0.035716999 0.00058300002 -0.034984998 16777215
0.001214 -0.046755999 -0.0087329997 16777215
0.00056100002 0.033898 0.035021 16777215
0.03379 -0.029452 0.019926 16777215
0.0085760001 0.042720001 0.020106999 16777215
0.032855 -0.028271001 0.023127999 16777215
0.01251 0.022531999 0.042201001 16777215
0.020126 0.040679 -0.016168 16777215
-0.044401001 -0.017698999 -0.01347 16777215
0.0046620001 0.043108001 -0.020475 16777215
0.045487002 0.018143 -0.0081369998 16777215
-0.005051 0.047228999 -0.001707 16777215
-0.024017001 0.025459999 -0.034712002 16777215
0.038086999 0.0077590002 0.031346999 16777215
-0.042119998 -0.025148001 0.005018 16777215
-0.020819001 0.042771 0.0062950002 16777215
0.0035089999 -0.046131998 0.011385 16777215
-0.0069729998 -0.042518001 -0.021174001 16777215
0.0032009999 0.044507001 -0.017173 16777215
0.045115001 0.019698 0.0058940002 16777215
-0.000917 -0.018358 -0.046105999 16777215
-0.039393999 0.025587 0.014924 16777215
0.002687 -0.041042 -0.025028 16777215
-0.032871 -0.035781998 -0.00091499998 16777215
0.014614 -0.037188999 -0.027458999 16777215
0.042201001 0.019424999 0.017348999 16777215
0.006331 0.021679999 0.044036001 16777215
0.042647 -0.018811001 -0.017005 16777215
-0.0040779999 0.0093480004 0.048852 16777215
-0.007791 0.036979999 0.030398 16777215
0.0036919999 -0.032644998 -0.036132999 16777215
0.042955 0.023894999 -0.0047129998 16777215
0.01527 0.024900001 -0.039747 16777215
-0.014766 -0.019762 0.043003 16777215
0.008467 -0.025549 -0.041292001 16777215
-0.017062999 0.0050329999 -0.046698999 16777215
-0.006141 -0.010522 0.048369002 16777215
0.042362999 0.019179 0.017255999 16777215
0.014635 -0.030766999 0.03517 16777215
0.016373999 0.034099001 0.030717 16777215
-0.049910001 -0.0026809999 -0.001028 16777215
0.0039559999 0.017813999 -0.046181001 16777215
0.031229001 -0.011934 -0.036972001 16777215
-0.0020419999 -0.043554999 -0.019846 16777215
0.038490999 0.022036999 0.021917 16777215
0.030297 -0.035142999 0.014618 16777215
0.009203 -0.043765999 -0.017115001 16777215
0.040013999 -0.0040699998 0.029673999 16777215
0.012211 -0.011718 0.046891 16777215
0.047040999 -0.0066140001 0.015448 16777215
-0.015098 0.017847 0.043807998 16777215
0.0047610002 -0.031888001 -0.036750998 16777215
0.041983999 0.025127999 0.0061369999 16777215
-0.019470001 -0.032504998 -0.030825 16777215
0.048103999 0.0081660002 0.010589 16777215
0.018766001 0.032896001 0.030802 16777215
0.036998 -0.031931002 0.00119 16777215
-0.0040899999 0.013179 0.047862999 16777215
0.008196 0.046367999 -0.0071109999 16777215
-0.049856 -0.0016120001 0.003392 16777215
-0.039618 0.010284 0.028517 16777215
0.011732 -0.020757999 0.043416001 16777215
0.011886 0.045646001 -0.0070759999 16777215
0.048176002 0.00091100001 0.013347 16777215
0.038878001 -0.026092 -0.015302 16777215
-0.014074 0.039816 -0.023352001 16777215
0.010907 0.021536 -0.043210998 16777215
0.017764 0.044323001 0.0027699999 16777215
0.045437999 0.00098300003 0.02084 16777215
-0.027099 -0.021782 0.035213001 16777215
0.0080530001 -0.021106999 -0.044062 16777215
0.030828999 -0.006387 -0.038786002 16777215
-0.021005001 -0.027961999 0.034531999 16777215
0.0032339999 0.033344999 0.035461001 16777215
-0.013472 -0.028069001 -0.03802 16777215
0.029549999 -0.029359 0.025919 16777215
0.044054002 0.012617 0.019566 16777215
-0.020152999 0.0037849999 0.045584999 16777215
-0.010422 0.045843001 0.0079239998 16777215
0.042392001 0.025051 0.002746 16777215
-0.038727 -0.029541001 0.0057700002 16777215
-0.016571 0.001341 -0.047153 16777215
0.012757 0.043620002 0.015133 16777215
0.0064639999 -0.046851002 -0.0051040002 16777215
0.029422 -0.038155001 -0.004611 16777215
-0.017391 0.0010779999 0.046863999 16777215
-0.008382 -0.02338 -0.042709 16777215
-0.003365 0.027783001 0.040415999 16777215
0.034678001 -0.015576 -0.032072 16777215
-0.028387001 0.03909 -0.001041 16777215
0.018312 -0.016147999 0.043310001 16777215
0.015375 0.045185 0.001153 16777215
-0.006823 0.03046 0.037753999 16777215
-0.023313001 -0.0079669999 0.043430001 16777215
-0.025816999 -0.015508 -0.039585002 16777215
0.039331 0.0073549999 -0.029886 16777215
0.043869 -0.00092100003 0.02397 16777215
0.036812998 -0.022887999 0.023755001 16777215
0.034216002 0.031672999 0.014755 16777215
0.038938001 0.015503 -0.026786 16777215
0.049626 -0.005142 0.0028260001 16777215
-0.00049100001 0.018988 -0.045829002 16777215
-0.007681 0.046691999 -0.0050340001 16777215
-0.012274 -0.017447 -0.044856001 16777215
-0.0034159999 -0.018363999 0.045984998 16777215
0.021795001 -0.041249 -0.011816 16777215
0.036159001 -0.024364 -0.023125 16777215
0.014704 -0.005442 0.047444001 16777215
-0.0033410001 -0.044027999 -0.018464001 16777215
0.032056998 0.016929001 -0.033982001 16777215
-0.046811 -0.01325 0.010687 16777215
-0.040022001 -0.027116001 0.009137 16777215
-0.039632998 -0.027697001 0.0088999998 16777215
0.012476 -0.010331 -0.047182001 16777215
-0.002689 -0.043797001 0.019166 16777215
0.023257 0.038435999 -0.017951 16777215
0.041692998 0.015027 -0.022616001 16777215
-0.00072200003 -0.037264001 0.030998001 16777215
-0.043242998 -0.017457001 0.017098 16777215
0.045247 -0.018757001 -0.0079279998 16777215
-0.019306 0.042495001 -0.011241 16777215
0.031060999 -0.036322001 0.0085669998 16777215
-0.018846 0.043942999 -0.0022839999 16777215
-0.029459 -0.033927999 0.018888 16777215
0.030505 0.030096 0.023786999 16777215
0.042224001 -0.0043700002 -0.026381001 16777215
-0.029185999 -0.022402 0.033047002 16777215
0.011455 -0.035728998 0.030892 16777215
0.020037999 0.042502001 0.0098449998 16777215
0.038938999 0.027888 0.011046 16777215
-0.0094649997 0.044530999 0.014601 16777215
-0.028977999 0.01403 -0.037976 16777215
-0.010137 -0.020901 0.043740001 16777215
0.011433 -0.044532001 -0.013113 16777215
0.037276 0.013466 -0.030159 16777215
-0.0032279999 -0.025568999 0.042013999 16777215
-0.041464999 0.012365 0.024723001 16777215
0.0099830003 -0.026936 0.039955001 16777215
0.038228001 -0.030509001 -0.0027000001 16777215
-0.036642998 -0.016415 0.029302999 16777215
0.034161001 -0.0096049998 -0.035083 16777215
0.0041240002 0.00076800003 0.049823001 16777215
-0.014035 0.041699 -0.019399 16777215
-0.00043799999 0.034924999 -0.033886001 16777215
-0.0046669999 0.033473998 -0.035165999 16777215
-0.048055001 -0.012231 -0.0049919998 16777215
0.037964001 0.027465001 0.01493 16777215
-0.035119999 -0.029902 -0.016609 16777215
-0.026861001 -0.039879002 -0.0040440001 16777215
-0.032735001 0.015846999 0.033914 16777215
0.033365998 0.029239001 -0.020963 16777215
0.039514001 -0.0077360002 0.029536 16777215
-0.029617 -0.038158 -0.003083 16777215
-0.047602002 -0.012593 -0.00764 16777215
-0.020958001 -0.038612001 0.020219 16777215
-0.047648001 -0.0052740001 -0.014101 16777215
-0.016307 -0.025263 0.039076 16777215
0.01056 -0.046399999 -0.001728 16777215
0.045122001 0.016466999 -0.01279 16777215
0.032157 0.030571001 0.020746 16777215
0.039723001 -0.027480001 -0.0092420001 16777215
-0.022092 -0.0046529998 0.044585999 16777215
0.034219 0.024503 -0.025765 16777215
-0.025761001 -0.040677 0.001744 16777215
0.020656999 0.040181998 0.016860001 16777215
0.038513999 -0.024909999 -0.018141 16777215
-0.003858 0.047235001 0.0035959999 16777215
-0.023672 -0.001167 0.044024002 16777215
0.030164 -0.033939 0.017715 16777215
-0.022688 0.041820001 0.006883 16777215
0.041735001 0.025690001 0.0051910002 16777215
0.007768 -0.046503 0.0065979999 16777215
0.041892 -0.025851 -0.002143 16777215
0.042163 -0.020905999 0.015429 16777215
-0.0045929998 0.01764 0.046195999 16777215
0.010421 -0.017845999 -0.045150001 16777215
0.017844001 -0.029960999 -0.034451999 16777215
0.0032550001 -0.044946 -0.015844001 16777215
0.033888001 -0.019375 0.030587999 16777215
0.0035600001 0.016217999 -0.046859998 16777215
-0.0063209999 0.0090159997 0.048682 16777215
0.031334002 -0.032632001 0.018392 16777215
-0.033018999 -0.035654001 -0.001095 16777215
0.004772 0.046599001 -0.0084340004 16777215
-0.01449 0.018748 0.043595999 16777215
-0.035473999 0.013578 0.032207001 16777215
-0.030479001 0.011326 -0.037801001 16777215
0.030154999 -0.033509001 -0.018614 16777215
-0.033438999 0.030710001 -0.018353 16777215
-0.032698002 -0.03036 -0.020237001 16777215
-0.01372 -0.0043489998 0.047862001 16777215
0.013553 -0.044461999 -0.01122 16777215
-0.00068300002 0.015097 0.047401998 16777215
-0.0093520004 0.0036869999 0.048964001 16777215
0.024427 0.017673999 -0.039462 16777215
0.045947999 0.010267 0.016493 16777215
-0.010413 0.040084999 -0.024722001 16777215
0.021116 -0.040649999 -0.014939 16777215
-0.038695998 0.00059100002 0.031658001 16777215
0.033133 0.007582 -0.036586002 16777215
0.007125 -0.001468 0.049465999 16777215
0.0097359996 0.025807999 -0.040831 16777215
-0.0035290001 -0.006813 0.049357001 16777215
0.007214 0.035852 -0.031996001 16777215
-0.045848001 -0.0088379998 0.017648 16777215
0.024560001 -0.006149 -0.043069001 16777215
0.0098000001 0.010546 0.047757 16777215
0.044983 0.020659 -0.0019180001 16777215
0.044259999 0.021337001 0.006048 16777215
-0.017143 0.039935 0.020953 16777215
0.005136 -0.0071279998 0.049166001 16777215
0.035843 0.032659002 0.0057799998 16777215
0.013351 0.037431002 -0.027736999 16777215
0.048413001 -0.008804 -0.0083830003 16777215
0.032235999 -0.0089290002 -0.037046999 16777215
-0.042277001 -0.025357001 0.000401 16777215
-0.001288 0.025107 -0.042424999 16777215
-0.026023 -0.0075710001 -0.041944001 16777215
0.048806001 0.0025239999 -0.01053 16777215
0.047377001 0.0090309996 0.012846 16777215
-0.002933 -0.045717999 0.013246 16777215
-0.0087820003 0.0041410001 -0.049029 16777215
0.040057998 0.017981 0.023176 16777215
-0.028267 0.023722 -0.032823998 16777215
0.028008999 0.022867 0.033705998 16777215
0.015006 0.045193002 -0.00343 16777215
0.029848 -0.035620999 0.014255 16777215
0.018851001 0.030013001 -0.033860002 16777215
0.041576002 0.013245 -0.024022 16777215
-0.003577 -0.0075400001 0.049236 16777215
-0.011175 0.0035850001 0.048588999 16777215
0.045898002 0.016697999 0.0091890004 16777215
-0.022031 0.022465 0.038150001 16777215
0.0019650001 -0.045846 -0.012932 16777215
0.014835 0.034317002 -0.031226 16777215
-0.034111999 0.0085190004 0.035440002 16777215
-0.036490001 -0.031473 0.0084199999 16777215
0.047295999 0.015406 -0.000336 16777215
-0.0142 0.0055689998 0.047580998 16777215
-0.039239999 -0.018754 0.023885 16777215
-0.04112 0.021979 0.016548 16777215
-0.011715 0.037691001 -0.028083 16777215
0.0060169999 -0.046702001 0.0068649999 16777215
-0.0020880001 0.022314001 0.044089999 16777215
0.0097329998 0.031970002 0.035675999 16777215
0.035592999 0.010649 0.03328 16777215
0.018265 0.042490002 0.012883 16777215
-0.015179 0.023003001 -0.041028 16777215
-0.043613002 -0.003786 0.024126001 16777215
0.036111999 0.030536 -0.012757 16777215
0.045871999 -0.018688001 -0.002968 16777215
0.012787 0.045217 -0.0084260004 16777215
0.02847 -0.023018001 0.033202 16777215
-0.017975001 0.040532 -0.018883999 16777215
0.0053409999 -0.033957999 0.03455 16777215
-0.045162998 0.017478 -0.011037 16777215
-0.002941 -0.042038001 -0.023092 16777215
0.023476001 0.016883999 -0.040410999 16777215
-0.032864999 -0.024191 0.027775999 16777215
0.0058619999 0.020318 0.044813 16777215
0.0034970001 -0.047028001 0.0061030001 16777215
-0.045827001 -0.018704999 -0.0034990001 16777215
-0.040265001 -0.012601 0.02651 16777215
-0.023352999 -0.031727999 0.028968999 16777215
-0.011884 0.00352 -0.048425999 16777215
0.013303 0.0038439999 -0.048028 16777215
-0.044741001 0.0084809996 -0.020459 16777215
0.0073859999 0.040904 -0.024321999 16777215
-0.032816999 0.035441 0.0055940002 16777215
-0.026146 0.011899 -0.040736999 16777215
-0.037847999 -0.023238 -0.021661 16777215
0.0024689999 0.0056909998 0.049578 16777215
-0.042134002 0.023213999 0.011298 16777215
0.041722 0.010984 -0.025013 16777215
-0.030091001 -0.037211999 0.0077599999 16777215
0.018578 -0.03709 0.025110999 16777215
0.034324002 -0.011845 -0.034153 16777215
0.0044030002 -0.037576001 0.030268 16777215
0.030276 0.037358999 0.0060720001 16777215
-0.028407 -0.010689 0.039577998 16777215
-0.016116001 0.043457001 0.012157 16777215
-0.016948 -0.01471 0.044419002 16777215
0.034979001 0.011908 0.033457 16777215
0.01501 -0.043085001 0.014759 16777215
-0.042541001 0.015758 -0.020374 16777215
-0.033739999 0.025277 0.025567001 16777215
0.044496 0.018669 0.011573 16777215
-0.010155 -0.046509001 -0.00032799999 16777215
0.015619 -0.00095900003 0.047486998 16777215
0.0044149999 -0.045995001 0.011679 16777215
0.044420999 0.0078429999 -0.021415001 16777215
0.019022999 -0.031415999 0.032319002 16777215
0.049447998 -0.002444 0.006947 16777215
0.042677999 -0.011341 -0.023153 16777215
-0.046083 -0.00083999999 -0.019378999 16777215
0.024588 0.041329999 0.001647 16777215
0.048625998 -0.0030759999 0.01118 16777215
-0.0016139999 0.035916999 0.032680001 16777215
0.0081289997 -0.045908 0.0099360002 16777215
-0.022854 -0.032868002 0.027941 16777215
-0.043981999 -0.02259 -0.00043700001 16777215
0.034740999 -0.025474999 0.023957999 16777215
0.016171999 -0.044436999 0.0071020001 16777215
-0.038518 -0.027698999 -0.012894 16777215
-0.045545001 0.012236 0.016116999 16777215
0.047419 0.0012300001 -0.015803 16777215
0.043246001 0.020462001 0.012879 16777215
0.009021 0.033976998 0.033755999 16777215
-0.033436999 -0.031656999 0.016479 16777215
0.026043 0.035309002 0.020984 16777215
0.024865 -0.028021 0.031808 16777215
0.029614 0.028264999 -0.027162001 16777215
-0.015730999 -0.005895 0.047053002 16777215
0.040957 0.026456 0.0068569998 16777215
-0.001891 -0.038681999 -0.028956 16777215
3.7000002e-05 -0.010512 -0.048760001 16777215
0.0080260001 -0.012207 0.047649998 16777215
0.026432 -0.019695999 0.037034001 16777215
0.018045001 0.026349001 0.037485 16777215
0.046512999 -0.013802 0.011202 16777215
-0.037946001 -0.021687999 -0.023212999 16777215
-0.022668 0.036109 -0.023269 16777215
0.016492 -0.010291 0.045942001 16777215
0.046549998 -0.01602 0.0069849999 16777215
-0.049256001 0.0070529999 -0.0043299999 16777215
-0.011003 -0.037415002 -0.028772 16777215
-0.0083940001 -0.046016 -0.0091249999 16777215
-0.02372 -0.037560001 0.019345 16777215
0.016651001 -0.040615998 0.019873001 16777215
-0.027352 0.020342 0.035962999 16777215
0.0022450001 0.040311001 0.026353 16777215
-0.0043779998 -0.011357 -0.048351999 16777215
0.011556 -0.041328002 0.02177 16777215
-0.013788 0.016989 -0.044610001 16777215
0.01929 -0.019384 -0.041370999 16777215
0.019732 -0.038564 0.021512 16777215
0.023895999 -0.023241 -0.036476001 16777215
-0.012961 9.6999996e-05 -0.048291001 16777215
-0.044633001 0.018367 0.011579 16777215
-0.043680999 -0.020477001 -0.011284 16777215
-0.018301999 0.038584001 -0.022705 16777215
-0.041211002 -0.026859 -0.001513 16777215
0.031355001 0.013099 0.036424 16777215
-0.014566 -0.003879 0.047657002 16777215
-0.0061849998 -0.0069559999 0.049073 16777215
0.041250002 -0.010261 0.026110999 16777215
0.040924001 0.016333001 -0.023012999 16777215
-0.014261 0.014083 0.045572001 16777215
-0.019246001 -0.023166001 -0.039177999 16777215
0.031339999 0.031826001 0.019888001 16777215
-0.047458999 -0.012877 0.0079929996 16777215
-0.032653 0.022495 0.029548001 16777215
0.0053920001 -0.047223002 -9.8999997e-05 16777215
0.041632 0.020214001 -0.017720001 16777215
0.038260002 0.001799 0.032134 16777215
0.013334 -0.045697 0.0028949999 16777215
0.042357001 -0.020507 -0.01549 16777215
-0.045559999 0.019268 0.0035870001 16777215
-0.042732999 -0.0076339999 -0.024684999 16777215
-0.042415999 0.0097930003 0.024385 16777215
0.037085 0.016843 0.028467 16777215
-0.026333001 -0.039592002 -0.0083489995 16777215
-0.024793001 0.00034599999 0.043419 16777215
-0.049180001 0.0062899999 -0.0061229998 16777215
0.026688 -0.037498001 0.015157 16777215
0.041529 0.026296999 -0.003025 16777215
0.020927999 0.028098 -0.034456 16777215
-0.025232 -0.001213 -0.043147001 16777215
-0.0068080002 -0.046691999 0.0061579999 16777215
0.049532 0.0052789999 0.0039579999 16777215
0.0021240001 0.045208 0.015195 16777215
0.049885999 0.0030189999 0.001152 16777215
0.043264002 -0.023461999 -0.0042750002 16777215
0.046473 0.017418999 -0.00202 16777215
-0.044592999 -0.015944 0.01516 16777215
0.042098999 -0.022187 0.013498 16777215
-0.0101 0.038732 -0.027124001 16777215
0.018801 -0.035645001 -0.027178001 16777215
0.0027640001 0.047169 -0.005204 16777215
-0.035523001 0.019719999 0.028411999 16777215
-0.04758 -0.01325 -0.0064480002 16777215
-0.027125999 0.033580001 0.022688 16777215
0.036587998 0.020265 0.026574999 16777215
0.0088 -0.046309002 -0.0068060001 16777215
0.0024590001 -0.035218 0.033461001 16777215
-0.004214 -0.042373002 0.022198999 16777215
0.031932 -0.025877999 -0.027171999 16777215
0.022213999 0.010665 -0.043365002 16777215
0.044826999 -0.0030149999 -0.021919001 16777215
0.019084999 0.028477 0.035174001 16777215
0.026603 0.029425999 0.028859001 16777215
0.029123999 -0.0066499999 0.040034998 16777215
0.032497 -0.034012999 -0.012731 16777215
-0.045607999 -0.0090089999 0.018166 16777215
-0.0033150001 -0.044718999 -0.016527999 16777215
0.017468 -0.018034 0.042831 16777215
0.0096260002 -0.025634 0.040979002 16777215
-0.044172 0.017649001 0.014273 16777215
-0.046386 0.013822 -0.01169 16777215
0.046452999 -0.01688 0.005138 16777215
0.011007 -0.041243002 -0.022229001 16777215
-0.0062600002 -0.047061998 -0.0025800001 16777215
-0.036088001 -0.019574 -0.027805001 16777215
-0.041223001 -0.026706001 -0.0032279999 16777215
-0.0099470001 0.036471002 0.030451 16777215
0.017502001 0.043616999 0.0092569999 16777215
0.038536999 -0.019122999 -0.024692001 16777215
0.047132 0.015857 9.0000001e-05 16777215
0.038208 0.0081420001 0.031091999 16777215
0.010692 0.039932001 0.024876 16777215
0.0058439998 -0.047153998 -0.001443 16777215
0.041875999 -0.025909999 0.001604 16777215
-0.026156999 -0.034740001 0.021877 16777215
-0.018839 0.0048560002 0.046032 16777215
-0.037997998 -0.014945 -0.028437 16777215
0.044213001 -0.00096199999 -0.023328001 16777215
0.0048139999 -0.013575 -0.047672 16777215
0.042766001 -0.023349 -0.0081839999 16777215
0.046755001 -0.0081150001 -0.015524 16777215
0.038702998 0.020249 -0.023404 16777215
-0.040607002 0.027329 0.0048529999 16777215
0.035110001 -0.014544 -0.032138001 16777215
0.033767 -0.034333002 0.0073299999 16777215
-0.033969 0.030455001 0.017843001 16777215
-0.025286 -0.026175 -0.033188999 16777215
0.047786001 -0.00056000001 -0.014701 16777215
-0.017169001 0.038424999 -0.023859 16777215
0.025986001 0.016609 -0.038975 16777215
0.039517999 -0.028623 -0.0055260002 16777215
-0.0085960003 -0.044317 0.015809 16777215
0.004164 0.038922999 -0.028354 16777215
0.013434 0.023685999 0.041205 16777215
0.035704002 -0.0069650002 -0.034226999 16777215
-0.013561 -0.034972999 0.030998001 16777215
0.044753 0.012957 0.017638 16777215
-0.0298 0.0088630002 0.039050002 16777215
0.018680001 0.034159999 -0.029293001 16777215
0.047548 -0.014683 -0.00056700001 16777215
-0.013905 -0.0056429999 -0.047658999 16777215
-0.026872 -0.013248 -0.039792001 16777215
-0.045999002 -0.017287999 -0.0072770002 16777215
-0.028968001 -0.038697001 -0.001281 16777215
-0.040649999 0.027601 -0.001871 16777215
0.001884 0.019361001 0.045619 16777215
0.01076 -0.01486 0.046255 16777215
0.049754001 -0.0047010002 7.8999998e-05 16777215
0.024747999 0.0034680001 -0.043292001 16777215
-0.046962999 0.013553 -0.0095349997 16777215
-0.003668 0.004952 -0.049592 16777215
-0.033464 0.014845 0.033704001 16777215
0.0060689999 0.046468001 0.0084020002 16777215
0.0034 -0.0063669998 -0.049431998 16777215
-0.032449 0.0067969998 0.037362002 16777215
-0.048262 -0.00351 -0.012536 16777215
0.0068999999 0.011069 0.048131 16777215
-0.030583 -0.035647001 0.012519 16777215
-0.0093700001 -0.0048000002 0.048854001 16777215
-0.0076560001 -0.046438999 -0.0071979999 16777215
0.020871 0.038066 -0.021421 16777215
0.039733 -0.01527 -0.025746999 16777215
0.00027799999 0.034855999 -0.033967 16777215
0.012055 -0.038568001 0.026579 16777215
0.0078469999 0.026836 0.040502999 16777215
0.0052789999 0.045373999 0.013816 16777215
-0.014389 0.045375999 -0.0034 16777215
0.046167001 -0.016806001 0.0074590002 16777215
-0.01115 -0.010686 0.047425002 16777215
-0.001696 0.0097369999 -0.048909001 16777215
0.043437 0.018355999 0.015487 16777215
-0.040649001 -0.020311 0.019763 16777215
0.001651 -0.03201 0.036905002 16777215
0.013609 0.0055140001 0.047761001 16777215
-0.042872999 -0.019098001 0.016057 16777215
0.010616 0.024952 0.041200001 16777215
-0.044672001 0.007617 0.020979 16777215
-0.020610999 0.001641 0.045522001 16777215
-0.042851999 -0.0117 -0.022628 16777215
-0.024033999 -0.02757 0.032864999 16777215
0.030865001 0.031041 0.021902001 16777215
-0.028589001 0.038968999 0.000179 16777215
0.039053999 0.025807999 0.015386 16777215
-0.043861002 0.021398 -0.0082959998 16777215
0.0091220001 -0.0078670001 -0.048457999 16777215
1.1e-05 0.014009 0.047775999 16777215
-0.001932 0.047463998 0.000174 16777215
-0.043634001 0.010541 -0.021748001 16777215
-0.016042 -0.021097001 0.041827001 16777215
-0.022836 0.038561001 0.018191 16777215
-0.01537 0.045019999 -0.0042420002 16777215
0.036803 0.0030390001 0.033693999 16777215
0.016205 0.024397001 0.039723001 16777215
0.021108 -0.030049 -0.032464001 16777215
-0.049054001 -0.0084570004 0.003798 16777215
-0.044484001 -0.010959 -0.019699 16777215
-0.021757999 0.017677 0.040991999 16777215
0.048149999 0.010642 -0.007489 16777215
0.042587001 0.024873 0.00092399999 16777215
-0.0090619996 -0.035372 -0.032117002 16777215
-0.032791998 -0.031883001 0.017271999 16777215
-0.026763 0.039684001 -0.0062270002 16777215
-0.0044849999 -0.018382 0.045885 16777215
0.0079650003 -0.0020999999 0.049311999 16777215
-0.039724 -0.019954 0.021929 16777215
-0.012181 -0.032015 0.034869999 16777215
0.032938998 0.019551 0.031488001 16777215
0.047646999 0.001509 -0.015075 16777215
-0.015293 -0.043834999 0.011705 16777215
0.044208001 -0.021716001 -0.0048119999 16777215
-0.017914001 -0.032515999 -0.031741999 16777215
0.024145 0.040752999 0.0087639997 16777215
-0.0078800004 0.046838999 -0.002656 16777215
0.015044 -0.027406 -0.037966002 16777215
-0.038447998 -0.011379 0.029634999 16777215
-0.019701 -0.036247998 -0.025612 16777215
-0.0090680001 0.018723 -0.045047998 16777215
-0.033386 -0.030325999 0.01914 16777215
-0.001624 0.010263 -0.048792001 16777215
0.036440998 0.01204 0.031803001 16777215
-0.048392002 -0.0107 -0.0055979998 16777215
-0.022535 -0.029527999 0.032032002 16777215
-0.013371 -0.040853001 0.021724001 16777215
-0.0063530002 -0.033445999 -0.034929998 16777215
-0.035951 -0.024816001 0.022917001 16777215
-0.032930002 0.035711002 -0.001604 16777215
0.043081 0.0070910002 0.024255 16777215
-0.030192001 -0.036536001 -0.010457 16777215
0.048544001 0.0066209999 -0.0097420001 16777215
-0.027411001 0.037360001 0.014216 16777215
0.032899 -0.035767999 -0.00030399999 16777215
0.044902001 0.015202 -0.015091 16777215
-0.030149 -0.025602 -0.029407 16777215
-0.038841002 0.028539 -0.0094290003 16777215
0.033204999 -0.035124999 0.0055129998 16777215
0.006544 0.022956001 -0.043281 16777215
0.025052 -0.039136 0.01324 16777215
-0.043625999 -0.0083050001 -0.022810001 16777215
0.027075 0.037804 -0.013541 16777215
0.0034040001 0.017129 0.046512 16777215
-0.020583 -0.042489 -0.008715 16777215
-0.018185999 -0.015745999 -0.043526001 16777215
-0.00030000001 -0.045104999 -0.015673 16777215
-0.021163 -0.032012001 0.030276 16777215
0.020478001 0.035316002 -0.026433 16777215
0.024325 -0.011553 -0.041956998 16777215
0.019924 0.038871001 0.020709001 16777215
0.045175001 -0.020323999 -0.001234 16777215
0.022027999 -0.014744 0.042118002 16777215
0.020962 -0.038456 -0.020540999 16777215
0.035650998 -0.013766 0.031922001 16777215
0.0054759998 -0.046207 -0.010213 16777215
0.044934999 0.0080220001 -0.020236 16777215
-0.04843 0.010124 0.0063990001 16777215
-0.0086780004 -0.046732001 0.0022169999 16777215
0.029321 0.038088001 0.0057290001 16777215
-0.038984999 0.014806 -0.027153 16777215
