# .PCD v0.7 - Point Cloud Data file format
VERSION 0.7
FIELDS x y z rgba
SIZE 4 4 4 4
TYPE F F F U
COUNT 1 1 1 1
WIDTH 1113
HEIGHT 1
VIEWPOINT 0 0 0 1 0 0 0
POINTS 1113
DATA ascii
0.020756001 -0.028475 -0.034747999 16777215
-0.044801001 -0.018502999 -0.011357 16777215
0.028201001 0.035053 0.019971 16777215
-0.010729 -0.014912 -0.046353001 16777215
-0.017757 -0.0043350002 0.046526998 16777215
0.001229 -0.048353001 -0.0036849999 16777215
0.010846 0.047339998 0.00072000001 16777215
0.048167001 0.006323 0.011722 16777215
0.020400999 0.037719999 -0.023909001 16777215
-0.029415 0.02691 0.029413 16777215
0.018178999 0.044985 -0.0043339999 16777215
0.023957999 -0.008006 0.043102998 16777215
-0.035346001 -0.032938998 -0.0098759998 16777215
0.0058929999 -0.04056 0.026774 16777215
-0.040537 -0.025498001 -0.012874 16777215
-0.043260001 0.015233 -0.019544 16777215
-0.011837 -0.010504 -0.047357 16777215
0.036444001 0.022546001 0.025132 16777215
-0.032329999 0.014246 -0.035200998 16777215
-0.042174 0.016302001 0.020950999 16777215
0.022315999 0.037974 0.021664999 16777215
0.026186001 -0.010564 -0.041179001 16777215
0.031177999 0.022426 0.031518001 16777215
-0.016217999 -0.021024 -0.042038001 16777215
-0.030954 -0.035254002 -0.014864 16777215
0.020738 -0.029022999 0.034274001 16777215
-0.018293001 -0.033447001 0.031246999 16777215
-0.03737 0.018513 0.027187999 16777215
-0.040612999 0.028245 -0.001627 16777215
-0.045242 -0.011023 0.018000999 16777215
0.031562001 -0.028057 0.025830001 16777215
-0.030108999 -0.030424999 -0.02469 16777215
0.002695 -0.019206 0.045832999 16777215
0.027729001 -0.027601 0.030355001 16777215
0.034871999 -0.015074 -0.032287002 16777215
0.0091310004 0.029751999 -0.038417 16777215
-0.0033249999 -0.046491999 0.013843 16777215
0.016921001 0.017806999 -0.04332 16777215
-0.025304999 -0.003912 0.042934999 16777215
-0.004532 -0.046952002 0.011683 16777215
0.046367001 0.013017 0.013041 16777215
-0.048448 0.00071699999 0.01234 16777215
0.019626001 0.0048520002 0.045713998 16777215
0.023271 0.029486001 0.032161999 16777215
0.0043850001 -0.040268999 -0.027519999 16777215
-0.040817 0.022430001 -0.0173 16777215
-0.038465999 0.010097 -0.030200001 16777215
0.0083870003 -0.029261 0.038982999 16777215
-0.005165 0.0073609999 0.049150001 16777215
0.042227998 0.024235999 -0.0096190004 16777215
0.021155 0.026807999 -0.035898 16777215
-0.00477 0.041000001 -0.026280001 16777215
0.034304999 -0.0020620001 -0.036313001 16777215
0.048278 0.0070329998 0.010799 16777215
-0.022485999 0.037156999 0.022957999 16777215
-0.032839999 -0.0042739999 0.037445001 16777215
-0.037211001 0.020517999 0.025843 16777215
0.002269 -0.021903999 0.044553 16777215
-0.0033 -0.046015002 -0.015452 16777215
-0.019920999 -0.039531 -0.021031 16777215
-0.001072 0.048342001 -0.0038920001 16777215
-0.0024679999 0.0078349998 -0.049281001 16777215
0.042381998 -0.024242001 0.0088999998 16777215
0.0068399999 0.044232 0.019335 16777215
0.0056710001 -0.033397999 0.035810001 16777215
0.012696 0.039395999 0.026254 16777215
0.031424999 -0.036702 0.0089889998 16777215
-0.016379001 0.036858 -0.028069999 16777215
-0.0020709999 -0.026002999 -0.042156 16777215
0.037958998 0.030211 -0.0094360001 16777215
-0.0039149998 -0.034981001 -0.034410998 16777215
-0.036070999 -0.029262001 -0.016995 16777215
-0.014622 0.026590999 0.039175 16777215
0.033128001 0.016884999 0.033158999 16777215
-0.034224 0.033372998 -0.012044 16777215
-0.028146001 0.034853 0.020414 16777215
-0.030363999 0.028852999 0.026329 16777215
-0.003766 0.047192 0.0109 16777215
-0.0086460002 -0.028423 0.039581001 16777215
0.001993 -0.012084 0.048381999 16777215
0.0092989998 -0.017664 0.045628 16777215
-0.0027089999 0.012751 0.048165001 16777215
0.016434001 -0.0023769999 0.047157999 16777215
-0.017823 0.015029 -0.044071 16777215
0.02049 0.021081001 0.040098 16777215
0.012218 -0.028537 0.038539 16777215
-0.026169 0.0066849999 0.042043999 16777215
-0.047476999 0.0090100002 -0.012636 16777215
-0.038265999 -0.017291 0.026794 16777215
-0.016357001 0.033227999 -0.032542001 16777215
0.044670001 0.015764 0.015507 16777215
-0.021467 0.033461001 0.029141 16777215
-0.02413 -0.011337 0.042203002 16777215
0.030148 0.038150001 -0.0066550002 16777215
0.015016 -0.035224002 0.030918 16777215
0.044183999 0.022301 -0.0043799998 16777215
0.012662 -0.045903001 0.010012 16777215
-0.027342999 -0.024181001 0.033629 16777215
-0.023198999 0.026456 0.034898002 16777215
-0.0082480004 0.044411998 0.018321 16777215
0.049846999 -0.0037789999 0.000249 16777215
-0.026255 -0.037007999 -0.018842001 16777215
0.014034 -0.040812999 0.023080001 16777215
0.038656 -0.011576 -0.029381 16777215
0.007369 -0.037659999 -0.030632 16777215
-0.0038940001 0.048250001 0.0032480001 16777215
0.020424999 0.044059001 0.0044379998 16777215
-0.022235001 0.037758999 -0.022143999 16777215
0.0038749999 -0.010612 0.048634 16777215
0.010592 -0.044163998 -0.017744999 16777215
0.027639 0.032903999 -0.024195001 16777215
-0.027574001 0.0065970002 0.041150998 16777215
0.047664002 -0.013481 -0.0059199999 16777215
0.029633 0.024731999 0.031174 16777215
-0.011096 -0.046996001 0.0054370002 16777215
-0.033776999 0.025454 0.025895 16777215
0.034802999 0.026993999 0.022678999 16777215
-0.00078300002 0.028733 -0.040274002 16777215
-0.030835001 -0.032602999 -0.020481 16777215
0.0065139998 -0.016326999 -0.046629 16777215
0.049176 0.0087320004 0.00081599999 16777215
-0.014142 -0.040553 0.023498001 16777215
0.026024999 0.038396001 0.015995 16777215
0.03489 0.0097850002 0.034364 16777215
-0.027086999 -0.030503999 -0.027881 16777215
0.018693 0.031583 -0.033020999 16777215
0.036217 0.017974 -0.029069001 16777215
-0.0077860001 0.018796001 -0.045430001 16777215
-0.0067969998 -0.036690999 -0.031984001 16777215
-0.0029229999 -0.045465998 0.017159 16777215
0.026831999 0.040920999 -0.00052599999 16777215
0.0036319999 -0.021461001 0.044691 16777215
0.001336 0.047866002 -0.0079460004 16777215
0.026247 -0.021829 0.036118999 16777215
0.022791 0.0047650002 0.044232 16777215
0.016109001 -0.042493001 0.017928001 16777215
-0.018223001 -0.017247999 -0.043032002 16777215
0.047692999 -0.009997 0.010916 16777215
0.014218 -0.039979 -0.024478 16777215
0.042089 0.023814 -0.011215 16777215
-0.040279999 -0.0067420001 -0.028796 16777215
0.019843001 -0.015818 0.042899001 16777215
0.001161 0.047759999 0.0086200004 16777215
-0.047293998 0.0057709999 0.015094 16777215
0.023434 -0.022539999 0.037560999 16777215
-0.033879001 -0.033360999 -0.013011 16777215
-0.049364001 0.0072900001 0.0025839999 16777215
-0.010944 -0.024985 -0.041434001 16777215
0.021972001 0.010617 -0.043559 16777215
-0.026870999 0.026101001 -0.032462999 16777215
-0.047185998 0.000107 0.016535999 16777215
0.046137001 0.016326999 -0.0093860002 16777215
-0.034542002 -0.010745 -0.034412 16777215
0.0022410001 -0.040486 0.027439 16777215
0.017586 0.040224001 0.021706 16777215
-0.028743001 0.028871 0.028069999 16777215
-0.031943001 -0.032809999 0.018317999 16777215
0.002327 -0.0060410001 0.049555998 16777215
0.037948001 -0.031091001 0.0057080002 16777215
-0.020158 -0.042734001 0.012358 16777215
0.043554999 0.015743 0.018426999 16777215
-0.015065 0.035719 -0.030283 16777215
-0.00075800001 0.013087 -0.048138998 16777215
-0.024672 0.032274999 0.028003 16777215
-0.019486999 0.021415999 -0.040408 16777215
-0.022764999 0.041276999 0.013075 16777215
0.033328 0.0275 0.024197999 16777215
0.025712 0.027101999 0.032531001 16777215
0.022258 -0.034108002 0.027716 16777215
0.012335 -0.0056670001 0.048101 16777215
-0.031729002 0.026341001 -0.027493 16777215
0.018704001 0.044748999 0.0046839998 16777215
0.033659998 0.033186 0.014017 16777215
0.0072340001 -0.028586 0.039739002 16777215
-0.031163 0.028929001 -0.025286 16777215
0.046944998 0.0038050001 0.016757 16777215
0.035422001 0.0030100001 0.035151999 16777215
-0.040805999 0.020763 0.019407 16777215
0.020567 -0.030227 0.033256002 16777215
-0.012035 0.042936999 -0.019893 16777215
-0.038911998 0.029252 -0.0087440005 16777215
0.037443001 -0.029972 0.011969 16777215
-0.007952 0.035085 -0.033592999 16777215
0.012656 -0.02533 -0.040718 16777215
-0.030399 -0.034605999 0.017410999 16777215
0.037884999 -0.030603001 0.0083259996 16777215
0.015054 0.033454999 0.032922 16777215
-0.0062150001 -0.043403 0.021430001 16777215
-0.00709 0.033296999 0.035657 16777215
0.046016999 0.018166 0.0056340001 16777215
-0.042715002 0.019176001 -0.016871 16777215
0.025272001 0.029503999 0.030595999 16777215
0.0085279997 0.043421 0.020578999 16777215
0.037434001 0.029144 0.013998 16777215
-0.015603 0.030091999 0.035974 16777215
-0.032439999 -0.021344 -0.03104 16777215
-0.040440999 -0.015371 0.024767 16777215
-0.048128001 0.0098249996 -0.0090030003 16777215
-0.0232 0.026532 -0.034837 16777215
-0.0068569998 -0.047986999 0.002361 16777215
-0.026985001 -0.001866 -0.042048998 16777215
0.019083001 -0.032775 -0.03153 16777215
-0.029440001 -0.0048290002 0.040105999 16777215
-0.001599 0.042146999 -0.024688 16777215
0.015149 -0.041909002 -0.020095 16777215
-0.017521 -0.0052 -0.046521999 16777215
-0.025002999 0.001436 0.043274 16777215
-0.043559 -0.0093569998 0.022573 16777215
-0.045322999 -0.019586001 -0.006176 16777215
0.028307 -0.038943 -0.0093219997 16777215
0.039774001 -0.026963999 -0.012055 16777215
-0.0055229999 0.010968 0.048390999 16777215
0.029603001 -0.039016001 0.0024069999 16777215
0.045152999 -0.01032 0.018655 16777215
-0.029465999 0.011185 0.038713999 16777215
-0.014313 -0.028997 -0.037436001 16777215
0.043164998 0.014697 -0.02018 16777215
-0.024644 -0.041019998 -0.010214 16777215
0.016174 -0.034463 0.031242 16777215
0.00094900001 -0.032388002 0.037204999 16777215
0.036568999 -0.0078750001 -0.033117998 16777215
0.01008 0.043551002 -0.019559 16777215
0.010864 0.016178001 -0.045867 16777215
0.0087440005 -0.046503 0.011189 16777215
0.00070199999 0.024121 0.043372001 16777215
0.014224 0.0052069998 0.047633 16777215
-0.016728999 -0.043937001 -0.012979 16777215
-0.0082459999 0.005837 -0.048946999 16777215
0.010787 -0.0043850001 0.048613001 16777215
-0.0080159996 -0.047153998 0.0085199997 16777215
-0.031608999 0.000818 -0.038732 16777215
-0.040056001 0.025609 0.01409 16777215
0.015316 -0.038648002 0.026037 16777215
-0.025909999 0.013878 0.040298998 16777215
0.0096620005 0.022502 0.043226 16777215
0.0061349999 -0.02486 -0.042491 16777215
-0.0081470003 0.046112001 0.013182 16777215
-0.044050001 -0.0095170001 0.021524999 16777215
-0.016538 -0.012373 -0.045428999 16777215
0.015333 0.013116 -0.045630001 16777215
-0.034611002 0.026998 -0.022964999 16777215
0.040612999 -0.025779 0.012011 16777215
0.030114001 -0.01258 -0.037749 16777215
0.032219 0.0079920003 0.037337001 16777215
-0.019181 0.032839999 -0.031399 16777215
-0.026792999 -0.020671001 0.036442 16777215
0.040065002 -0.0021909999 -0.029828001 16777215
0.0034789999 -0.046163999 0.014931 16777215
0.046835002 -0.0067790002 -0.016052 16777215
-0.013676 -0.021415001 0.042727001 16777215
-0.011699 0.030053001 0.037459001 16777215
0.0037710001 0.017564001 0.046452999 16777215
0.03599 -0.0011549999 -0.034689002 16777215
-0.030032 0.038773999 0.000497 16777215
-0.0056039998 -0.046659999 -0.012436 16777215
-0.025991 0.023232 0.035367001 16777215
0.043138001 0.023124 0.0084149996 16777215
-0.022205999 0.017928001 -0.040808 16777215
-0.018099001 0.037094001 -0.026647 16777215
0.015952 -0.039255001 -0.024653001 16777215
0.016635001 0.044918001 0.0088839997 16777215
-0.002909 0.047346 -0.010445 16777215
-0.011546 0.032035999 -0.035719998 16777215
-0.0077419998 -0.041933 -0.0239 16777215
-0.047173999 -0.014026 0.0080949999 16777215
0.032157999 0.037105002 -0.001603 16777215
0.040006001 -0.019838 0.021937 16777215
-0.0069789998 0.017676 0.046034999 16777215
0.044181999 -0.022482 -0.0032840001 16777215
-0.018882999 0.0030189999 -0.046192002 16777215
-0.005101 -0.0032879999 -0.049623001 16777215
-0.040538002 0.017741 0.022849999 16777215
-0.016101001 -0.00074699998 -0.04733 16777215
-0.01367 0.036409002 -0.030069999 16777215
-0.019270999 0.0097289998 0.045033999 16777215
-0.032880001 0.036455002 0.0025480001 16777215
-0.049876999 -0.00095700001 -0.00336 16777215
-0.014566 0.0030390001 -0.047729 16777215
-0.0084380005 0.046347 0.012075 16777215
0.016859001 -0.045630001 -0.001692 16777215
-0.038051002 0.030189 0.0091390004 16777215
-0.021241 -0.016349001 0.042009 16777215
-0.033360999 -0.016934 -0.032898001 16777215
0.029421 0.025574001 0.030648001 16777215
0.022880999 -0.0050550001 -0.044151001 16777215
-0.030303 0.0055379998 -0.039359 16777215
-0.003242 -0.014829 0.047495 16777215
0.03272 -0.025498999 -0.027172999 16777215
0.019067001 0.017044 -0.042750999 16777215
-0.0070449999 -0.01308 0.047628999 16777215
0.028240999 0.015503 0.038040001 16777215
-0.04098 -0.023630001 -0.015073 16777215
0.039099999 -0.0076660002 -0.030145001 16777215
0.0064949999 -0.039643999 -0.028062001 16777215
-0.045878001 -0.0091249999 -0.017512999 16777215
-0.001472 -0.022822 0.044094 16777215
0.023435 0.010019 -0.042943999 16777215
0.046232 0.000948 -0.019017 16777215
-0.024634 -0.041480001 -0.0080319997 16777215
-0.018061001 -0.027229 -0.037225999 16777215
-0.004646 0.046305001 0.014127 16777215
0.02616 0.019258 -0.037703 16777215
-0.0046040001 0.0047149998 -0.049550001 16777215
-0.039351001 -0.0254 -0.016303999 16777215
0.0098479996 -0.026505999 -0.040697999 16777215
0.00081 0.048321001 0.0042119999 16777215
-0.021709999 -0.042070001 0.01215 16777215
-0.034026999 -0.025905 0.025079001 16777215
0.031468 -0.018794 -0.033679999 16777215
0.015623 0.012835 -0.045616001 16777215
-0.028483 0.032772001 0.023394 16777215
0.036398001 -0.001119 0.034260999 16777215
-0.020138999 0.033316001 0.030245 16777215
0.047339998 0.012993 -0.0089189997 16777215
0.042613 0.019042 0.017284 16777215
0.046842001 0.012296 0.012048 16777215
0.035262 0.018784 -0.029691 16777215
0.0027989999 -0.044425 -0.019866001 16777215
0.049683001 -0.0039980002 0.003823 16777215
0.0111 -0.047065001 -0.0047530001 16777215
-0.00667 0.015572 0.046881001 16777215
-0.036660999 0.0089720003 0.032717001 16777215
0.034947999 0.010926 0.033937 16777215
0.045189999 0.0039420002 -0.021008 16777215
-0.031330999 0.033567999 0.01791 16777215
0.044645999 -0.0065159998 0.021485999 16777215
0.013599 0.028093999 -0.038422 16777215
-0.025187001 0.037813999 0.018598 16777215
-0.017694 -0.005293 0.046445001 16777215
-0.0031280001 0.046174001 -0.014974 16777215
0.00063199998 0.031654999 -0.037875999 16777215
0.033380002 -0.018406 -0.032026999 16777215
0.029366 0.028301001 0.028042 16777215
-0.029841 0.038364001 -0.0067309998 16777215
-0.046041001 -0.013297 -0.013869 16777215
0.011588 0.022185 -0.042925999 16777215
0.0049510002 0.040731002 0.026688 16777215
0.040943 -0.016503001 -0.023112001 16777215
0.041131999 0.026224 -0.0087869996 16777215
-0.032382999 0.033330999 -0.016450999 16777215
-0.025421999 -0.039701998 0.013358 16777215
0.006637 -0.048036002 0.00189 16777215
-0.01012 0.033537 0.034673002 16777215
-0.033493001 0.036010999 2.9000001e-05 16777215
-0.039602999 -0.017674999 -0.024486 16777215
0.001691 -0.020214999 0.045418002 16777215
-0.024011999 0.023041001 -0.036867 16777215
-0.033636998 0.024970001 -0.026569 16777215
0.029503999 -0.028302001 0.027896 16777215
-0.031702999 0.037266999 -0.00434 16777215
-0.047791 0.013713 0.0040170001 16777215
0.032143999 0.0081019998 -0.037376001 16777215
-0.031892002 0.011612 -0.036601 16777215
-0.042158 0.014986 0.022001 16777215
-0.048675999 0.001884 -0.011265 16777215
-0.042569 -0.023605 0.0097820004 16777215
-0.005651 -0.04329 0.021825001 16777215
-0.041296002 -0.026517 0.006883 16777215
-0.040548999 0.002721 -0.029119 16777215
0.028418999 -0.033103 -0.022971001 16777215
-0.004336 -0.047855999 -0.0068689999 16777215
0.0064559998 0.00080099999 0.049575001 16777215
0.031732 -0.037416 -0.0022720001 16777215
0.039590999 0.024238 -0.017555 16777215
-0.028436 0.020978 0.034981001 16777215
0.045465 -0.01438 -0.014599 16777215
-0.01212 0.044686999 0.015191 16777215
0.031266 0.037197001 0.0072039999 16777215
-0.00055300002 -0.048349999 0.003884 16777215
0.023505 0.041932002 -0.0088740001 16777215
-0.030262001 -0.038578 0.0015679999 16777215
-0.030137001 -0.034575 -0.017922999 16777215
0.026157999 0.031215999 -0.027930001 16777215
-0.000183 0.014244 0.047795001 16777215
0.023483999 0.035665002 -0.024426 16777215
0.020571001 -0.037696 0.023804 16777215
0.026633 0.040835001 0.0042929999 16777215
-0.034131002 0.035016 0.0056469999 16777215
0.013496 -0.029739 -0.03712 16777215
0.0025140001 -0.04532 0.017628999 16777215
0.034504998 0.026651001 -0.023548 16777215
0.043159001 -0.021400001 -0.01227 16777215
-0.034832999 -0.032005999 0.014069 16777215
0.047849 -0.002807 0.014215 16777215
0.037246998 -0.025711 0.020251 16777215
0.017785 0.011683 0.045150999 16777215
-0.031647999 0.013962 0.035932999 16777215
0.019083999 0.035101 0.028744999 16777215
0.0092510004 0.038338002 0.029193999 16777215
0.020407001 0.043083999 0.01052 16777215
-0.047587 0.010111 -0.011261 16777215
0.001315 0.028512999 0.040424999 16777215
-0.023689 -0.036635999 0.022635 16777215
-0.024759 0.020570001 0.037912 16777215
-0.018304 -0.045070998 0.0024359999 16777215
0.014976 -0.026171001 -0.039342001 16777215
-0.0045540002 0.018030999 0.046192002 16777215
0.035399999 -0.016592 0.030890999 16777215
-0.001404 -0.023313999 -0.043822002 16777215
-0.0032599999 -0.010009 -0.048815001 16777215
0.038026001 0.013198 0.029477 16777215
0.029948 0.035027001 0.017295999 16777215
-0.034426 0.003877 -0.036040001 16777215
0.001526 0.043809999 0.021396 16777215
0.023311 -0.029818 0.031806 16777215
0.011378 -0.00088100001 0.04868 16777215
-0.037560001 -0.0026710001 -0.032889001 16777215
0.0097519998 0.023336001 0.042732999 16777215
-0.031319 -0.03362 -0.017828001 16777215
-0.030962 -0.026528999 -0.028166 16777215
-0.0034109999 -0.029369 -0.039643999 16777215
0.032908 0.0050110002 0.037287001 16777215
-0.033174001 -0.024716999 -0.027388999 16777215
-0.042812999 0.021819999 0.012688 16777215
-0.014659 0.017821001 0.044132002 16777215
0.038902 0.0045369999 -0.031060999 16777215
-0.027101001 0.022786001 0.034839001 16777215
0.041366 -0.001228 0.028058 16777215
-0.047138002 -0.0011390001 0.016632 16777215
0.011652 -0.016427999 0.045577999 16777215
0.011325 -0.041418001 0.02342 16777215
-0.030982999 -0.036162 0.012258 16777215
0.027384 -0.033702001 -0.023302 16777215
-0.007038 -0.047901001 0.0034419999 16777215
0.025482999 -0.018546 -0.038536999 16777215
0.006366 0.043444999 -0.021295 16777215
-0.022846 0.033576999 0.027925 16777215
-0.044961002 -0.018689999 -0.010357 16777215
0.027457001 0.039168999 -0.010747 16777215
0.015092 -0.02452 0.040413 16777215
0.0085890004 -0.0089710001 0.048381001 16777215
0.012431 0.039374001 0.026416 16777215
-0.0076199998 -0.030626999 -0.038013 16777215
0.047442 -0.013671 -0.0071129999 16777215
-0.013057 0.0040839999 -0.048080999 16777215
-0.038109001 0.025039 -0.019529 16777215
-0.032832999 -0.035363 -0.0096410001 16777215
0.043285001 0.023126001 -0.0076120002 16777215
-0.014416 0.046346001 -0.003053 16777215
-0.0079709999 -0.015293 0.046774998 16777215
0.013406 -0.040959001 -0.023179 16777215
-0.01712 -0.043529999 0.013892 16777215
0.032147001 -0.037085 -0.0022199999 16777215
0.043152001 -0.011546 0.022276999 16777215
-0.048728 0.0033839999 -0.010649 16777215
-0.02138 0.042877 -0.0094349999 16777215
0.023798 -0.042157002 0.006693 16777215
-0.028154001 0.0081129996 0.040465001 16777215
0.0062589999 -0.0047829999 -0.049361002 16777215
0.03131 0.002838 0.038872998 16777215
-0.026718 -0.024962001 -0.033525001 16777215
-0.026162 0.034600001 -0.023305999 16777215
-0.039577 0.0295 0.0029549999 16777215
-0.047772001 0.013176 0.0057760002 16777215
0.014129 -0.007282 -0.047371 16777215
-0.030261001 -0.035743002 -0.015049 16777215
0.013496 -0.010001 0.047026999 16777215
0.0088750003 -0.036787 -0.031351998 16777215
-0.046307001 0.0079450002 -0.016989 16777215
0.029734001 0.038562998 -0.0059509999 16777215
0.012872 -0.02121 0.043083999 16777215
0.0088489996 -0.047469001 0.0051779998 16777215
-0.045667 -0.013633 0.014729 16777215
-0.0080439998 -0.015429 -0.046714999 16777215
-0.026585 -0.034237999 -0.023396 16777215
0.04972 -0.0042940001 -0.0028919999 16777215
0.049247999 -0.0060749999 -0.0059469999 16777215
-0.044348001 0.022397 0.00038000001 16777215
-0.019865001 -0.042087998 -0.014922 16777215
0.026644999 -0.002665 -0.04222 16777215
-0.012273 -0.023023 0.042261001 16777215
0.033399999 -0.034821 0.0097869998 16777215
0.043310001 -0.021715 -0.011095 16777215
-0.035273999 0.017225999 0.030665999 16777215
-0.012173 0.02705 0.039675001 16777215
0.015553 -0.044966001 -0.010446 16777215
0.04473 -0.020035001 0.0085209999 16777215
-0.014276 -0.033482999 -0.033236999 16777215
-0.011179 0.034324002 0.033509001 16777215
-0.026852001 -0.017131001 -0.038302001 16777215
0.049651999 0.0055979998 -0.001161 16777215
0.0051119998 0.026574001 -0.041513 16777215
0.0074729999 -0.018875999 -0.045446999 16777215
0.001925 -0.011618 0.048505999 16777215
-0.028255999 0.026999 0.030445 16777215
-0.046691 -0.0097939996 0.014764 16777215
-0.044966001 0.0043850001 0.021392999 16777215
-0.042899001 -0.018665999 0.017012 16777215
-0.032184999 -0.02644 -0.026853999 16777215
-0.0096349996 -0.024166999 -0.042266 16777215
0.00065499998 -0.044468999 0.019948 16777215
0.020634999 0.043815002 0.0058169998 16777215
-0.048285 -0.012541 0.0012009999 16777215
-0.012615 0.045471001 0.011974 16777215
-0.013718 -0.046077002 -0.0074390001 16777215
0.048813 -0.005591 -0.0091709998 16777215
-0.0024079999 0.0080469996 0.049247999 16777215
0.044087999 -0.0081139999 0.022050999 16777215
-0.019401001 -0.033041999 -0.031036999 16777215
0.003276 0.033156 0.036343999 16777215
0.014768 0.029324001 0.036986001 16777215
0.017685 -0.0079979999 0.046034999 16777215
-0.0403 0.027624 -0.0080570001 16777215
-0.003694 -0.047263 -0.010596 16777215
0.01094 0.021260999 0.043588001 16777215
-0.037478 -0.031412002 0.0068370001 16777215
-0.037085 -0.019882999 0.026543001 16777215
0.047899999 -0.013841 0.001401 16777215
-0.049125999 -0.004377 0.0081399996 16777215
0.044581998 -0.021418 -0.0049939998 16777215
0.042676002 0.018205 0.018069999 16777215
-0.012534 0.0060279998 -0.048002999 16777215
0.017475 0.015659001 -0.043977 16777215
-0.030502999 0.038428999 0.00025400001 16777215
-0.031739999 0.0095929997 0.037347 16777215
0.049701001 -0.001956 0.0050690002 16777215
-0.0031620001 -0.045552 -0.016873 16777215
0.039480999 0.029426999 0.0045750001 16777215
-0.010158 -0.025957 0.040996999 16777215
0.018912001 -0.038511999 0.02379 16777215
0.0029770001 0.047346 0.010426 16777215
-0.045077998 0.014723 -0.015413 16777215
-0.010993 0.00211 0.048728 16777215
-0.025113 -0.016984999 0.039531 16777215
0.044282999 0.00447 -0.022754 16777215
0.036582999 0.010629 -0.032274 16777215
-0.032171 -0.015888 -0.034593999 16777215
0.025031 -0.018844999 0.038678002 16777215
-0.0074180001 0.023278 0.043233 16777215
-0.048298001 -0.012145 0.0032500001 16777215
-0.010092 -0.03283 -0.035393 16777215
0.033803999 -0.013699 0.034026999 16777215
-0.027629999 0.036975998 -0.016837999 16777215
0.042045001 0.018472999 -0.019223999 16777215
0.032531999 -0.036033001 0.0078560002 16777215
-0.049047001 0.00098999997 -0.0096629998 16777215
0.002964 -0.036835998 -0.032389 16777215
-0.024509 -0.040350001 0.012997 16777215
-0.0038139999 -0.016527001 -0.046852 16777215
0.0036929999 0.044567998 0.019373 16777215
-0.039836999 0.020759 0.021331999 16777215
0.029517001 -0.0030119999 -0.040238 16777215
-0.032579999 -0.031316001 0.019905999 16777215
-0.026629999 0.018696999 -0.037673999 16777215
0.033039998 0.025255 -0.027027 16777215
-0.027802 -0.027635001 0.030254999 16777215
0.021232 -0.020244 0.040169999 16777215
0.019200001 -0.043582998 -0.01061 16777215
-0.002044 0.015724 0.047254998 16777215
0.020471999 0.040011 -0.019478999 16777215
0.010573 0.043223001 0.020065 16777215
-0.049570002 -0.003241 -0.005626 16777215
-0.039184 0.026760999 0.014265 16777215
0.026526 0.022074001 0.035755999 16777215
-0.0074629998 0.012452 0.047743998 16777215
-0.048418999 -0.003887 -0.011813 16777215
0.049311001 -0.007952 -0.001091 16777215
-0.047993001 -0.0072240001 0.011883 16777215
-0.02734 0.040514 0.002844 16777215
0.024537999 -0.020864001 0.037884999 16777215
0.014847 0.046269 0.002073 16777215
0.018385001 -0.045086 -0.001273 16777215
-0.019859999 0.015149 0.043147001 16777215
-0.0057040001 0.041545998 -0.02516 16777215
0.011138 0.046324998 0.0097519998 16777215
-0.015968001 0.040695999 -0.022019001 16777215
-0.024257001 -0.0068100002 -0.043154001 16777215
-0.043848999 0.0065210001 0.023065999 16777215
0.018278001 -0.021695999 -0.040812001 16777215
0.041280001 -0.021496 0.017459 16777215
-0.017326999 -0.043938 -0.012164 16777215
-0.018672001 0.044948999 -0.0020039999 16777215
-0.020031 0.010667 0.044473 16777215
-0.0067389999 -0.043131001 -0.021850999 16777215
0.0063979998 0.0089809997 -0.048717 16777215
-0.027673 0.039499 0.0087209996 16777215
-0.04733 -0.0089699998 -0.013203 16777215
-0.0071760002 0.024812 -0.042358 16777215
-0.033787001 -0.024025001 -0.027295001 16777215
0.021826999 0.00293 0.044883002 16777215
-0.031817 0.033183999 -0.017814999 16777215
0.011198 -0.024781 0.041496001 16777215
-0.046273999 -0.018332001 0.001223 16777215
-0.022826999 0.001287 0.044466 16777215
-0.0071550002 0.041783001 -0.024357 16777215
0.002535 -0.046760999 -0.013026 16777215
-0.034517001 -0.012261 -0.033893999 16777215
-0.039577998 0.027843 -0.010472 16777215
-0.046542 0.0055430001 -0.017356001 16777215
-0.024863999 -0.039790001 0.014109 16777215
-0.033027999 0.036297001 -0.002993 16777215
0.012682 -0.043334998 0.018526999 16777215
-0.049841002 -0.003857 -0.00025099999 16777215
-0.004005 0.0094860001 0.048870999 16777215
-0.030710001 0.032837 -0.020271 16777215
0.019619999 -0.0086460002 0.045118 16777215
-0.0059859999 -0.0072110002 -0.049081001 16777215
0.027011 0.031861 -0.026296001 16777215
-0.027523 0.024304001 0.033388 16777215
-0.018812999 0.010307 -0.045090999 16777215
-0.046332002 0.004063 0.018325999 16777215
0.043722 0.023522999 0.00054600002 16777215
-0.017787 -0.041804999 0.018060001 16777215
-0.01137 0.018277001 -0.044897001 16777215
-0.015505 0.035016 -0.030927001 16777215
-0.028094999 0.0094130002 -0.040206 16777215
-0.031845 -0.021878 -0.031259999 16777215
-0.040077999 -0.0030730001 0.029727001 16777215
0.043494001 0.018936999 0.015072 16777215
-0.036362 0.018014001 0.028860999 16777215
-0.00030399999 -0.034480002 -0.035162002 16777215
0.004652 -0.032439001 -0.036878001 16777215
-0.0051699998 0.017639 -0.046287999 16777215
0.001923 0.032736 0.036842 16777215
0.035797 0.031975999 0.011485 16777215
0.003481 0.010553 -0.048678 16777215
0.024076 0.019807 -0.038773999 16777215
0.011784 0.004133 0.048404001 16777215
-0.020702001 -0.043079998 -0.0099470001 16777215
0.0085899998 0.031849999 0.036715999 16777215
0.028437 -0.026289999 -0.030931 16777215
0.0023099999 -0.047782 0.0082520004 16777215
-0.015484 0.044682998 -0.011758 16777215
0.025385 0.026967 0.032905001 16777215
0.045175999 -0.0034449999 0.021129999 16777215
0.021816 0.0017359999 -0.044953998 16777215
0.000321 0.039781999 0.028599 16777215
0.048854999 -0.0042019999 -0.009718 16777215
0.02619 -0.002596 0.042507999 16777215
0.0024969999 -0.022333 -0.044312999 16777215
0.040290002 0.00205 -0.029534999 16777215
-0.031550001 -0.027314 -0.026676999 16777215
0.030874001 -0.034745 0.016241999 16777215
-0.033833999 -0.031785 0.016778 16777215
-0.038759999 -0.021891 0.022098999 16777215
-0.019055 0.013857 0.043963999 16777215
-0.047805998 -0.002295 0.014457 16777215
-0.042791001 0.013859 0.021558 16777215
0.002473 -0.03475 0.034791999 16777215
-0.031222001 0.021754 0.031971999 16777215
0.018653 -0.044737998 -0.0049859998 16777215
0.042741999 0.022139 0.012335 16777215
-0.0088339997 -0.00081100001 0.049206 16777215
0.047843002 -0.0023709999 0.01432 16777215
-0.020345001 0.041572001 -0.015789 16777215
0.0065199998 0.016557001 -0.046542 16777215
-0.025807999 0.041439001 -0.0029869999 16777215
0.0093790004 0.045724999 0.013781 16777215
-0.019471999 0.043492001 -0.010511 16777215
0.048780002 -0.0023070001 0.010717 16777215
0.035386998 -0.018851001 -0.029496999 16777215
-0.027891999 -0.0093360003 -0.040366001 16777215
0.0066439998 0.017415 0.046190001 16777215
-0.008219 -0.046064001 -0.013316 16777215
-0.029088 0.031605002 -0.024336001 16777215
0.0072320001 0.044367 0.018858001 16777215
-0.037857998 0.011961 0.030245 16777215
-0.046431001 -0.0065239999 -0.01729 16777215
0.015409 -0.029544 0.036536001 16777215
0.032315999 0.029788001 0.022640999 16777215
0.001687 0.048266001 0.004611 16777215
0.003002 0.00029699999 0.049908999 16777215
0.03768 0.030712999 -0.0088160001 16777215
-0.041025002 0.011758 0.025885001 16777215
0.0053630001 -0.015209 0.047173999 16777215
-0.042194001 -0.01276 -0.02338 16777215
-0.0055249999 0.041269999 0.025676001 16777215
-0.013129 -0.0016740001 0.048215002 16777215
0.013167 -0.041021999 -0.023197999 16777215
0.010727 0.042546 0.021474 16777215
-0.045405 -0.010677 -0.017811 16777215
0.011808 -0.0044120001 -0.048372 16777215
0.027791999 -0.040309999 -0.00079899997 16777215
-0.0062640002 -0.047324002 -0.0089720003 16777215
-0.039492 -0.007332 0.029720001 16777215
0.031068999 0.021201 0.032511 16777215
0.048560999 -0.0069050002 -0.0095480001 16777215
-0.021059001 -0.030043 0.033124998 16777215
0.015105 -0.046213999 0.001402 16777215
-0.038538001 -0.028674999 0.01187 16777215
-0.0052769999 0.032528002 -0.036710002 16777215
0.047697999 0.014515 -0.001005 16777215
-0.022248 -0.037475001 -0.022637 16777215
0.0041359998 0.027593 0.040911 16777215
-0.0015970001 -0.011584 -0.048526999 16777215
0.02936 0.011849 -0.038585 16777215
0.037845001 -0.028813001 -0.013616 16777215
-0.045242999 -0.020431001 0.0030700001 16777215
0.014958 -0.016783001 -0.044461999 16777215
0.00376 -0.034150001 0.035305001 16777215
-0.046985999 0.016485 -0.001879 16777215
-0.036169998 -0.031787999 -0.010854 16777215
0.022152999 -0.035936002 -0.025233001 16777215
0.031256001 0.019286999 -0.033581 16777215
-0.002691 0.022657 -0.044126999 16777215
-0.035195999 -0.019882999 -0.029000999 16777215
-0.026906 -0.025394 -0.033025999 16777215
-0.043877002 -0.021566 0.0089750001 16777215
0.0093059996 0.035544999 0.03272 16777215
-0.021486999 0.043033 -0.0083769998 16777215
0.024504 0.0057040001 -0.043184999 16777215
0.0089699998 0.010515 0.047979001 16777215
-0.0074419999 0.02678 0.041017 16777215
0.030262001 -0.030317999 0.024643 16777215
-0.01015 -0.016497999 -0.045910001 16777215
0.022337999 0.040544 -0.015936 16777215
-0.0031590001 -0.029259 0.039751001 16777215
0.035261001 -0.030394999 0.016578 16777215
-0.0089309998 0.046969 -0.0086960001 16777215
-0.038987 -0.024235001 -0.018862 16777215
0.012618 -0.040399 0.024621001 16777215
0.043462999 0.023587 0.004439 16777215
0.034146 0.022066999 -0.028573999 16777215
0.041956998 -0.022833999 0.013618 16777215
-0.036804002 0.031550001 0.0093550002 16777215
0.015651001 -0.010795 0.046165001 16777215
0.036393002 -0.008343 0.033188999 16777215
0.039113998 -0.007274 -0.030230001 16777215
0.0042389999 0.025715999 0.042180002 16777215
-0.047706001 -0.0065319999 0.01337 16777215
0.012115 0.036332998 -0.030826 16777215
-0.038191002 -0.029572999 0.010582 16777215
-0.014034 0.039995998 0.024553001 16777215
0.040672 0.024653999 -0.014135 16777215
0.043830998 -0.0082679996 -0.022499001 16777215
-0.033199001 0.032715 0.016135 16777215
0.017495999 -0.034596 -0.030362001 16777215
-0.039042 -0.017829999 -0.025255 16777215
-0.003085 -0.039783999 -0.02843 16777215
0.042002998 -0.025219001 -0.007735 16777215
0.037512001 0.014969 -0.029235 16777215
-0.019058 0.039133001 0.022567 16777215
-0.036054 -0.021334 -0.026765 16777215
-0.049958002 -0.001642 -0.001163 16777215
0.0036609999 0.015052 -0.047389999 16777215
0.016261 -0.019849 -0.042624999 16777215
0.0038900001 -0.038686 -0.029904 16777215
-0.028933 -0.010728 0.039250001 16777215
-0.001159 0.020778 -0.045164 16777215
0.017511001 -0.045262001 -0.004001 16777215
-0.014865 -0.007828 0.047052 16777215
-0.020541999 -0.034903001 0.027987 16777215
-0.048944 0.0060220002 -0.0081230002 16777215
-0.031189 -0.025679 0.028748 16777215
-0.02586 -0.027802 -0.031776998 16777215
-0.0035280001 0.048271 -0.0033400001 16777215
0.0041789999 -0.044279002 -0.019969 16777215
0.034683999 -0.032143999 0.014102 16777215
0.028982 -0.036704 -0.015109 16777215
-0.049702998 -0.0030380001 -0.0044530001 16777215
0.016957 -0.023178 0.040514998 16777215
-0.013377 0.005868 0.047796 16777215
-0.048664 0.003153 -0.011012 16777215
-0.017366 0.013894 0.044645999 16777215
0.02313 -0.042998001 -8.6e-05 16777215
0.0046839998 0.040153001 0.027650001 16777215
0.0099020004 0.030617001 -0.037492 16777215
0.00102 0.048335999 0.003976 16777215
-0.019843001 -0.013938 0.043586001 16777215
0.001963 -0.047866002 -0.0078180004 16777215
0.021205001 0.043014999 0.0091549996 16777215
-0.02083 0.042443998 0.012308 16777215
0.020443 0.026513999 -0.036536001 16777215
0.032652002 -0.0048110001 -0.03754 16777215
-0.035158001 -0.017975001 0.030339999 16777215
-0.039962001 -0.010002 -0.028225999 16777215
-0.019801 0.044236999 -0.0053010001 16777215
0.007094 -0.048009001 0.000158 16777215
0.029379001 -0.00085499999 0.040449001 16777215
-0.047143999 -0.002051 -0.016520999 16777215
-0.031913999 -0.012461 0.036283001 16777215
0.02736 0.017176 0.037919998 16777215
0.0081780003 0.045118 -0.016422 16777215
-0.0081940005 -0.018338 0.045557 16777215
0.041232999 0.00081900001 0.028269 16777215
0.019648001 -0.041305002 -0.017340999 16777215
-0.046533 0.01013 0.01502 16777215
0.032623 -0.027714999 -0.024886999 16777215
-0.019969 -0.044447999 0.0012159999 16777215
-0.0044800001 -0.044255 0.019959001 16777215
-0.041152 0.017049 -0.022306999 16777215
0.030195 0.031541999 -0.023042001 16777215
-0.0083079999 -0.039886001 0.027206 16777215
0.017499 0.00135 0.046817001 16777215
-0.0047849999 0.025264001 0.042412002 16777215
0.0149 0.036738001 -0.029044 16777215
-0.010106 0.031302001 0.036830999 16777215
-0.023908 -0.040134002 -0.014715 16777215
-0.0022700001 0.047561001 0.0095269997 16777215
0.003492 -0.046294998 0.014492 16777215
0.021751 -0.023845 -0.037717 16777215
0.00073799997 -0.017480001 -0.046634 16777215
0.022368001 -0.030956 0.031325001 16777215
0.048152 0.0076029999 -0.01095 16777215
-0.029979 0.038738001 -0.0025170001 16777215
0.038371 0.029361 0.010557 16777215
0.037106998 0.016573999 -0.028829001 16777215
0.048990998 -0.0035659999 0.009292 16777215
-0.014399 -0.009385 -0.046893999 16777215
-0.003301 -0.029127 0.039841998 16777215
0.0063720001 0.021486999 -0.044369999 16777215
0.022313001 0.043400001 -0.00054199999 16777215
0.028673001 -0.032683 0.023295 16777215
-0.040633 -0.018797001 -0.02176 16777215
0.021465 0.037714999 0.022968 16777215
0.0015069999 0.034965999 0.034616001 16777215
0.012423 -0.036789 0.03012 16777215
-0.022342 0.003643 0.044573002 16777215
0.045453001 0.0086700004 -0.018820001 16777215
0.045570999 -0.019955 0.00015599999 16777215
-0.017402999 0.040927999 0.020415001 16777215
0.049066 0.0080970004 0.0047809999 16777215
0.026622999 0.013319 0.040033001 16777215
0.016404999 0.011116 -0.045821 16777215
-0.046408001 0.0021589999 0.018475 16777215
-0.010233 0.040367998 0.025754999 16777215
0.0088130003 0.043078002 0.021214999 16777215
-0.0088109998 0.046427 0.011469 16777215
-0.026355 -0.0054259999 -0.042119998 16777215
-0.013325 0.0097859995 -0.047123998 16777215
0.025423 -0.017393 0.039143 16777215
-0.044032 0.0091890004 -0.021712 16777215
0.031511001 0.0065199998 0.038235001 16777215
-0.016408 -0.027484 -0.037788 16777215
0.032219999 -0.015967 -0.034510002 16777215
0.04984 -0.003767 0.00093899999 16777215
-0.034371998 0.0079190005 -0.035381999 16777215
0.021931 0.043538 0.0020989999 16777215
0.046670999 0.0055900002 0.016988 16777215
0.040819999 0.0093320003 -0.027225001 16777215
-0.035900999 -0.033365998 0.0052840002 16777215
0.043540999 -0.022471 -0.0082170004 16777215
0.012011 0.022317 0.042736001 16777215
0.023518 0.013834 0.041754998 16777215
0.034019001 -0.032055002 -0.015833 16777215
0.034274001 0.018421 -0.031059001 16777215
0.027693 -0.023103001 -0.034143999 16777215
-0.037356999 -0.012708 0.030541999 16777215
0.0035329999 -0.0062830001 0.049453001 16777215
0.030510999 0.029421 -0.025478 16777215
-0.035006002 -0.022400999 -0.027225001 16777215
0.011466 -0.040305998 0.025335999 16777215
0.00064699998 0.046904001 -0.012704 16777215
0.025658 -0.017279999 0.039043002 16777215
0.042647 -0.017744999 0.018616 16777215
0.011519 0.014932 0.046154998 16777215
0.021043001 0.0037730001 -0.045189001 16777215
-0.030154999 -0.027842 0.027691999 16777215
-0.038058002 -0.019211 0.025676999 16777215
-0.028837999 -0.033032998 -0.022553001 16777215
0.018379999 -0.039113998 -0.023156 16777215
0.014351 -0.02891 0.037493002 16777215
0.023564 0.033567 -0.027334999 16777215
0.0094969999 -0.011463 0.047646001 16777215
-0.048273999 0.002016 0.012857 16777215
0.034279 -0.029727001 0.019641999 16777215
-0.0099630002 -0.0054299999 0.048675999 16777215
-0.040782001 0.013096 -0.025584999 16777215
-0.0089840004 0.0359 -0.032396 16777215
0.024289001 0.041855998 -0.0069320002 16777215
-0.041981999 0.016833 0.020888001 16777215
-0.042633001 -0.024879999 0.0049569998 16777215
-0.0039690002 -0.038954999 0.029519999 16777215
-0.041859999 0.0013520001 0.027309 16777215
0.043949999 0.013018 -0.019703999 16777215
-0.029255999 -0.039221 -0.0030370001 16777215
0.003483 0.035599001 -0.033778001 16777215
0.041480001 -0.026901999 -0.0031999999 16777215
0.041965999 0.025715001 -0.0060009998 16777215
-0.013649 0.042828999 -0.019083001 16777215
0.032138001 0.029871 -0.022778001 16777215
-0.041515999 -0.0094419997 0.026109001 16777215
0.021725001 -0.043682002 0.000244 16777215
0.049217999 -0.0035290001 -0.0080199996 16777215
0.0044419998 0.047642 -0.0082419999 16777215
-0.002296 -0.0087860003 0.049118999 16777215
0.040702 0.003123 -0.028860999 16777215
-0.045853 0.017424 0.0086500002 16777215
-0.039138999 -0.0068740002 -0.030298 16777215
0.016719 0.015229 0.044429999 16777215
-0.025889 0.002718 -0.042684 16777215
-0.033061001 -0.029354 -0.022162 16777215
-0.045230001 0.0065270001 0.020222999 16777215
0.012362 -0.043598998 -0.01808 16777215
0.022398001 0.012039 0.042945001 16777215
-0.009842 0.037595 -0.030015999 16777215
-0.046195999 0.0033859999 -0.018808 16777215
-0.038197 0.030160001 -0.008618 16777215
0.028627999 -0.0082710003 0.040096 16777215
-0.030100999 -0.020225 0.034047 16777215
-0.0088729998 0.0058519999 -0.048834998 16777215
-0.025009001 0.041818 0.0039929999 16777215
0.044342 -0.0078269998 -0.021648999 16777215
0.036329001 0.03328 -0.001749 16777215
-0.0078159999 -0.046900999 -0.010052 16777215
-0.0077570002 0.045418002 -0.015729999 16777215
0.038965002 -0.014733 0.027404999 16777215
0.014254 0.017564001 0.044372998 16777215
-0.044527002 -0.0021319999 0.022638001 16777215
-0.012333 -0.046916001 0.0029150001 16777215
0.026574001 -0.0051970002 -0.042013001 16777215
-0.021004001 -0.030491 -0.032722998 16777215
-0.047726002 0.014328 -0.002012 16777215
0.038621999 0.027141999 0.015011 16777215
-0.049027 -0.0072360002 -0.0063800002 16777215
0.016161 0.042029999 0.019007999 16777215
0.033619002 0.035239 0.007067 16777215
0.040863 0.026362 0.0095699998 16777215
0.019650999 0.037755001 0.024471 16777215
0.024196001 0.022528 0.037083 16777215
-0.011487 0.046806999 0.0062850001 16777215
-0.049513001 0.0067420001 -0.00039100001 16777215
0.020104 -0.028077001 0.035468001 16777215
-0.035695001 -0.018239999 -0.029534999 16777215
-0.036292002 -0.023669999 0.024235999 16777215
-0.03703 -0.027243 0.018438 16777215
-0.020362001 -0.043944001 -0.0057410002 16777215
-0.028368 0.033893 -0.021779999 16777215
0.041882999 0.01235 0.02416 16777215
-0.035687 0.02397 0.024816001 16777215
-0.045722999 0.019122999 -0.004551 16777215
-0.044985 -0.0035969999 -0.021508001 16777215
0.023747999 -0.010733 -0.042585999 16777215
0.047465 0.0039679999 0.015177 16777215
-0.01608 0.043058001 0.016462 16777215
-0.018615 0.012153 -0.044682 16777215
0.047125999 -0.012896 -0.010116 16777215
0.031426001 0.035190001 0.01401 16777215
-0.039111 0.024420001 0.018345 16777215
-0.049649 -0.0038429999 0.0043950002 16777215
0.018404 -0.0034020001 0.046356998 16777215
0.014026 -0.046161 -0.0062150001 16777215
0.046744999 0.017208001 -0.00047500001 16777215
-0.039705001 0.020625001 0.021712 16777215
0.0073580001 -0.032607 -0.036274999 16777215
0.028906999 0.039565999 0.00074500003 16777215
0.024359001 -0.042321 0.001742 16777215
0.015930999 0.022236999 -0.041480999 16777215
0.039999999 0.013699 -0.026467999 16777215
0.019447001 0.0089819999 0.045123 16777215
0.024847999 0.026366999 -0.033817999 16777215
-0.044383999 -0.021314999 0.0068649999 16777215
-0.024207 0.038408 -0.018607 16777215
0.027508 -0.010571 0.040305998 16777215
-0.026040999 -0.028582999 0.03088 16777215
0.048613001 0.0047399998 -0.010627 16777215
0.0034139999 0.019947 0.045446999 16777215
0.034049999 0.017679 0.031755999 16777215
-0.040206999 -0.024493 -0.015678 16777215
-0.031307001 -0.027362 -0.026911 16777215
0.025083 0.033764999 0.025674 16777215
0.0097040003 -0.001098 -0.049036 16777215
0.017571 -0.045364998 -0.001991 16777215
-0.003701 -0.0086369999 0.049061 16777215
-0.032740999 0.00065200002 0.037783001 16777215
-0.038741998 0.029244 0.0094940001 16777215
-0.046487998 0.015726 0.0087179998 16777215
-0.014797 0.044273 -0.014065 16777215
0.027548 -0.038224999 0.013719 16777215
-0.0162 -0.045882002 -0.000444 16777215
0.0030769999 0.002998 0.049809001 16777215
0.026760001 -0.033921 -0.023685999 16777215
0.029092999 -0.014754 -0.037712999 16777215
-0.016287999 0.037981998 0.026485 16777215
-0.020414 0.043738 -0.0070790001 16777215
0.048783001 0.001548 -0.010848 16777215
-0.01528 -0.016410001 -0.044500999 16777215
-0.011593 -0.042202 0.021741999 16777215
0.034107 0.035459001 0.00066700001 16777215
-0.049490999 -0.0027409999 -0.0065290001 16777215
0.022597 -0.040984999 -0.014287 16777215
0.003664 0.039402001 -0.028922999 16777215
-0.010151 -0.046546999 -0.0097049996 16777215
0.014404 -0.042828999 0.018519999 16777215
0.011983 -0.044810999 0.014908 16777215
-0.046992 0.014692 0.0078980001 16777215
0.026089 -0.019091001 -0.037842002 16777215
0.011642 -0.013802 0.046496999 16777215
-0.049965002 3.1e-05 0.001874 16777215
-0.036747999 -0.032875001 -0.00095399999 16777215
0.01244 0.040684 -0.02421 16777215
0.0061750002 -0.048076 0.0023169999 16777215
-0.0026750001 0.027419999 -0.041154999 16777215
0.022743 -0.016461 -0.041168001 16777215
-0.036433 -0.0046640001 0.033904999 16777215
-0.002115 -0.040282 0.027767001 16777215
0.035891999 0.0032889999 -0.034644999 16777215
0.02994 -0.024176 0.031342998 16777215
0.021919999 0.0093480004 -0.043894 16777215
-0.020039 -0.0083799995 -0.044987001 16777215
0.030480999 0.036897 -0.011137 16777215
-0.025323 0.0083229998 -0.042250998 16777215
0.0088160001 -0.014649 -0.046843 16777215
0.045037001 -0.017239001 0.012482 16777215
0.032938998 -0.029713999 -0.021832 16777215
0.031397 -0.0039659999 0.038697999 16777215
0.048431002 -0.0060749999 -0.010735 16777215
-0.024573 0.004739 0.043269999 16777215
-0.029624 -0.027307 -0.028808 16777215
0.029002 -0.016775001 -0.036876 16777215
-0.0071939998 -0.042505 -0.022980999 16777215
-0.011266 0.047226001 0.001651 16777215
0.042268999 -0.014267 -0.022293 16777215
-0.027274 0.038821001 -0.012427 16777215
0.036433 -0.024676999 -0.022922 16777215
-0.022101 0.043359999 0.0036589999 16777215
0.014722 0.037372001 -0.028263999 16777215
-0.025804 0.038373001 -0.016407 16777215
-0.036277 0.0093379999 -0.033034999 16777215
-0.042991001 0.010484 0.023128999 16777215
0.019213 0.041661002 -0.016918 16777215
-0.0076100002 -0.035372 -0.033351 16777215
-0.02375 -0.042142998 -0.0069550001 16777215
-0.031776 -0.020315999 -0.032428 16777215
0.046062 0.018865 -7.5000004e-05 16777215
-0.001791 0.021787001 0.044635002 16777215
-0.014665 -0.045058999 -0.011275 16777215
-0.041249 0.015103 -0.023582 16777215
0.044364002 0.0084619997 0.021348 16777215
-0.026175 -0.020473 0.037005 16777215
0.007485 0.041724999 0.024366001 16777215
-0.049090002 -0.00139 -0.009389 16777215
-0.026616 0.007253 -0.041661002 16777215
0.0079589998 0.034646999 -0.034070998 16777215
0.032483 0.035631999 -0.0097709997 16777215
0.013538 0.032203 0.034850001 16777215
-0.023073999 0.038651001 -0.01949 16777215
0.040045001 0.015272 0.025466001 16777215
0.033782002 -0.034862999 -0.0081850002 16777215
-0.049734998 -0.0038640001 0.0032560001 16777215
-0.0078260005 0.032721002 0.036067002 16777215
0.036676001 -0.017607 -0.028729999 16777215
-0.012554 0.017273 0.045003001 16777215
0.014977 0.01538 0.044992 16777215
0.015586 -0.032416001 0.033767998 16777215
-0.022573 0.042089999 -0.010375 16777215
0.0060709999 0.048121002 -0.001449 16777215
0.014854 -0.045981999 0.0056730001 16777215
-0.02575 0.036609001 0.020312 16777215
-0.036901999 0.029619001 -0.014349 16777215
0.0040580002 -0.047416002 -0.0096969996 16777215
0.020163 -0.030561 -0.033178002 16777215
-0.03822 0.014915 -0.028333999 16777215
0.001956 -0.031152001 -0.038272001 16777215
0.019613 0.037939999 -0.024196999 16777215
0.0067790002 0.025497001 0.041990001 16777215
0.047555 -0.0085990001 0.012646 16777215
0.033969 0.035537999 0.001945 16777215
-0.033799 -0.01384 0.033971999 16777215
0.0081479996 0.012216 -0.047697 16777215
-0.018102 -0.038578998 -0.0243 16777215
0.049681999 0.0032929999 0.004495 16777215
0.014247 -0.015181 -0.045299999 16777215
-0.029708 -0.037523001 0.011001 16777215
0.0052880002 -0.046592999 0.012837 16777215
0.041434001 -0.020329 0.018547 16777215
-0.036299001 -0.023771999 0.024119001 16777215
-0.046603002 0.017562 0.00056999997 16777215
-0.033553001 0.035029002 -0.0083699999 16777215
-0.017325001 -0.036311001 -0.028258 16777215
0.029228 -0.039182998 0.0037450001 16777215
0.037404001 -0.025594 -0.020117 16777215
-0.0086660003 -0.034611002 0.033937 16777215
-0.023622001 0.033475 0.027404999 16777215
0.047936 0.0090859998 -0.010695 16777215
-0.031748999 -0.036134001 -0.010215 16777215
-0.004346 0.048285998 0.001764 16777215
-0.012245 -0.013481 0.046441998 16777215
0.021672999 0.021012999 0.039508998 16777215
-0.013976 -0.043901999 0.016008001 16777215
-0.013244 0.042757001 -0.019535 16777215
-0.041289002 0.023951 -0.01362 16777215
0.040374 0.013404 0.026056999 16777215
0.019032 0.024729 -0.038571998 16777215
0.0085410001 -0.045127001 -0.016207 16777215
-0.043124001 -0.014592 0.020346999 16777215
-0.034216002 0.013622 0.033645999 16777215
0.00056900003 0.015182 -0.047483999 16777215
-0.031587001 0.036568999 0.0089980001 16777215
-0.00060299999 -0.021927999 0.044594001 16777215
0.022074001 -0.040851999 -0.015461 16777215
-0.04067 -0.027465001 -0.0066530001 16777215
-0.044755999 0.012188 -0.018413 16777215
0.019230001 0.026929 0.036871001 16777215
-0.026172999 -0.01506 0.039673001 16777215
0.044002999 0.011777 0.020404 16777215
0.031134 0.034724999 0.015783999 16777215
-0.021952 0.032088999 -0.030393001 16777215
-0.0087000001 0.046760999 -0.010019 16777215
-0.025077 -0.041294999 -0.0076660002 16777215
0.040460002 0.023707001 0.0163 16777215
0.034508999 -0.022213999 -0.028012 16777215
0.003272 0.031923998 0.037498999 16777215
-0.045157999 -0.0079429997 -0.019842001 16777215
0.010187 -0.047130998 0.0059480001 16777215
0.013282 0.0078490004 0.047518998 16777215
-0.046843 -0.011684 -0.012676 16777215
-0.032701001 0.033245999 0.015996 16777215
-0.048245002 -0.0055650002 0.011813 16777215
0.001044 0.036219001 0.033236001 16777215
0.020467 -0.041099999 0.016906001 16777215
0.019559 0.040375002 0.019619999 16777215
-0.044776 0.020889999 0.0055979998 16777215
0.044817001 -0.0025309999 -0.022015 16777215
-0.0062529999 -8.7e-05 -0.049607001 16777215
0.019789999 0.044233002 0.005376 16777215
0.02606 0.03373 0.024731999 16777215
-0.033991002 -0.034171999 -0.010176 16777215
0.043639001 -0.013345 0.020158 16777215
-0.00043099999 0.023530001 -0.043719001 16777215
0.017487001 -0.043556001 -0.01334 16777215
-0.0062199999 0.029207001 -0.03943 16777215
-0.029812999 -0.025567999 -0.030272 16777215
