# .PCD v0.7 - Point Cloud Data file format
VERSION 0.7
FIELDS x y z rgba
SIZE 4 4 4 4
TYPE F F F U
COUNT 1 1 1 1
WIDTH 1117
HEIGHT 1
VIEWPOINT 0 0 0 1 0 0 0
POINTS 1117
DATA ascii
0.013677 -0.041030001 -0.025088999 16777215
-0.0097369999 0.003152 0.048941001 16777215
-0.049534 -0.0062179998 -0.0027709999 16777215
0.021291999 0.042063002 -0.016654 16777215
-0.023453999 -0.03765 -0.023073999 16777215
-0.0062750001 -0.013055 -0.047855999 16777215
-0.005624 0.048317999 -0.011565 16777215
-0.016671 0.0033480001 0.047019999 16777215
-0.013335 -0.0034090001 -0.048067998 16777215
0.0099179996 -0.047993001 -0.0099160001 16777215
0.020256 -0.020566 0.040826 16777215
0.0080859996 0.016364001 0.046549 16777215
-0.045743998 0.015504 0.012927 16777215
0.049392998 0.0075619998 0.001768 16777215
-0.024024 -0.035673998 0.025498999 16777215
0.00899 -0.049052998 -0.003608 16777215
0.020440999 -0.038307998 0.024792001 16777215
0.016163999 0.047175001 -0.0036319999 16777215
-0.030553 0.014627 -0.036777001 16777215
-0.028142 -0.039459001 0.012289 16777215
-0.038203999 -0.027752001 0.016439 16777215
-0.036474999 0.010672 -0.032490999 16777215
0.017517 0.010684 -0.045596 16777215
-0.035259999 0.03517 -0.0044490001 16777215
0.029075 0.040288001 0.0056130001 16777215
0.016790001 -0.046169002 -0.0093010003 16777215
-0.011151 0.046861 0.013407 16777215
0.00067899999 -0.020879 -0.045426998 16777215
0.00056700001 -0.035161 -0.035544001 16777215
-0.034972999 0.029421 0.020281 16777215
0.026117999 0.041575 0.0094550001 16777215
-0.024700999 0.015375 0.040663 16777215
-0.016608 0.002786 -0.047079001 16777215
-0.016650001 0.040343001 -0.024398001 16777215
0.010312 -0.046999998 0.01359 16777215
-0.043841001 0.0069809998 0.023006 16777215
-0.014504 -0.034727 0.032919001 16777215
-0.021783 -0.012005 0.043375 16777215
-0.032634001 0.013743 0.035301 16777215
0.012064 -0.048455998 0.002539 16777215
0.046478 0.0097749997 0.015629999 16777215
0.013421 0.035394002 -0.032667 16777215
0.040121 -0.018976999 -0.023025 16777215
-0.026509 0.022554999 0.035897002 16777215
0.047981001 0.0062819999 -0.012585 16777215
-0.010997 0.0039639999 0.048613999 16777215
-0.034711 -0.004644 -0.035687 16777215
-0.027212 0.023492999 0.03475 16777215
0.048765998 -0.0063060001 -0.0090640001 16777215
-0.049219999 -0.007218 0.0050249998 16777215
0.047690999 -0.0082259998 -0.012566 16777215
0.020664999 -0.024371 -0.038458001 16777215
0.012629 0.030252 0.037753001 16777215
-0.037158001 -0.033367001 0.0024329999 16777215
-0.0068160002 0.021524999 -0.044612002 16777215
-0.028903 -0.030037001 0.027612001 16777215
0.038109999 0.031099999 -0.0089659998 16777215
0.041733999 0.016642001 -0.02194 16777215
0.028085001 -0.018904001 0.036795001 16777215
-0.042456001 0.0088609997 0.024878999 16777215
0.046369001 -0.017848 -0.0056039998 16777215
0.020989001 -0.024749 -0.038038999 16777215
0.045609999 0.0096549997 0.018069001 16777215
-0.01231 0.0070409998 0.047947001 16777215
0.014811 -0.042644002 -0.021497 16777215
-0.016806999 -0.046229001 0.0089670001 16777215
0.0049950001 0.029966 0.039712999 16777215
0.0093369996 0.025744 0.041834 16777215
-0.040313002 0.013311 -0.026412999 16777215
0.0075389999 -0.0093940003 0.048526999 16777215
0.0040079998 0.015595 0.047336999 16777215
-0.021461001 0.026527001 0.036548 16777215
-0.012247 0.020547999 0.043907002 16777215
0.023599001 0.010366 0.042844001 16777215
-0.0059119998 0.042293001 0.026006 16777215
-0.010777 0.023809999 0.042626001 16777215
0.025738999 -0.0090049999 0.04191 16777215
-0.010475 -0.000199 0.048889998 16777215
-0.009203 0.048765 -0.0061079999 16777215
-0.022814 -0.010427 -0.043253001 16777215
-0.045598 0.014289 0.014718 16777215
-0.017873 0.026892999 0.038175002 16777215
0.030367 0.034215 0.020178 16777215
0.018781001 -0.042950999 0.017392 16777215
0.040568002 -0.0029819999 0.029075 16777215
0.0091899997 -0.039926 0.028662 16777215
0.01455 -0.047201 0.0077709998 16777215
-0.015547 0.024013 0.041007999 16777215
0.029374 -0.029679 0.027501 16777215
0.038291 0.01012 0.030518999 16777215
-0.033245999 -0.031587999 0.019920999 16777215
-0.017697001 0.036633998 -0.029065 16777215
0.040392 0.026594 0.012698 16777215
-0.045832999 0.01867 0.0071259998 16777215
0.017168 0.010234 0.045830999 16777215
-0.046693001 0.0056639998 0.016961001 16777215
0.022397 0.020780999 0.039579 16777215
-0.010488 0.038532 -0.030088 16777215
-0.00131 -0.046581 0.018124999 16777215
0.021290001 0.043736 0.011572 16777215
0.028415 0.007251 0.040497001 16777215
-0.021112001 -0.045198001 -0.0033789999 16777215
0.00077400001 -0.032242 -0.038208 16777215
-0.020231999 -0.044925001 -0.0085089998 16777215
0.0073159998 -0.0024240001 -0.049401999 16777215
-0.016646 0.0026149999 -0.047075 16777215
0.019951999 0.032196 0.032639999 16777215
-0.024706 0.042358998 0.0097639998 16777215
-0.0055999998 0.003208 0.049582001 16777215
0.032104 0.03822 -0.0029269999 16777215
0.040667001 0.028548 -0.0055849999 16777215
-0.031845 0.03339 0.019261001 16777215
-0.017704999 0.035494 -0.030441999 16777215
-0.0030680001 -0.021832 0.044877 16777215
-0.029203 0.040557001 0.0015069999 16777215
0.011969 0.003513 0.048418999 16777215
-0.034974001 0.030483 -0.018643999 16777215
0.043972999 -0.0088250004 -0.022102 16777215
0.023185 -0.030103 -0.032501001 16777215
-0.046895999 -0.0057930001 -0.016347 16777215
-0.048774 0.0065680002 0.0088290004 16777215
-0.030937999 0.019987 -0.033814002 16777215
-0.0098270001 0.042613 -0.024239 16777215
-0.031810999 -0.038426999 -0.0033819999 16777215
0.044780001 0.017495001 0.013735 16777215
0.041699 -0.024676999 -0.012339 16777215
-0.022544 0.011306 -0.043173 16777215
0.034386002 0.035778999 -0.0061240001 16777215
0.049123 -0.0069519999 -0.0062159998 16777215
-0.049492002 0.0071040001 -0.000248 16777215
0.027682999 0.022976 0.034724001 16777215
0.023329001 0.034809001 -0.027278 16777215
-0.035342999 -0.027331 0.022446999 16777215
-0.037475999 0.022647001 0.024138 16777215
0.018205 0.029246001 0.036238998 16777215
-0.039974 0.010126 -0.028277 16777215
0.036961999 -0.032372002 0.009269 16777215
-0.043917 0.015589 0.018118 16777215
-0.01239 0.014553 0.046202999 16777215
-0.027322 0.017394001 -0.038091 16777215
0.018575 -0.021754 0.041009001 16777215
-0.010378 0.022397 0.043481998 16777215
0.026443999 -0.0092350002 -0.041418001 16777215
-0.049766 0.0029569999 -0.003827 16777215
0.0059969998 0.049391001 0.0049589998 16777215
0.001793 -0.016403999 -0.047198001 16777215
0.036866002 0.028201001 -0.018591 16777215
0.025940999 0.042397998 -0.0054299999 16777215
0.0041120001 0.012729 -0.048177 16777215
-0.047384001 -0.012514 0.0099069998 16777215
0.001458 -0.032708 0.03779 16777215
0.01002 0.013894 0.046974 16777215
-0.023972999 -0.011206 0.042422999 16777215
0.035537999 0.035138998 0.001508 16777215
-0.038477 0.026969999 -0.017092001 16777215
-0.020656999 0.043660998 -0.012924 16777215
0.036617 -0.018296 0.028713999 16777215
0.032928001 0.018245 0.032906 16777215
-0.0063470001 0.031819999 0.038042001 16777215
-0.001302 -0.018666999 -0.046367001 16777215
0.0066760001 -0.028909 -0.040245 16777215
0.011056 -0.048563 0.004404 16777215
-0.00106 -0.008835 0.049201999 16777215
-0.033831 -0.030061999 -0.021255 16777215
0.019556999 -0.034008 -0.030999999 16777215
0.00066399999 -0.0075190002 -0.049426999 16777215
-0.024422999 0.011113 0.04219 16777215
0.036001001 -0.016414 -0.030569 16777215
-0.034412999 -0.029627999 -0.020927001 16777215
-0.024166999 -0.0032329999 -0.043652002 16777215
-0.0077340002 0.034821 -0.035038002 16777215
0.025129 0.013826 -0.040956002 16777215
-0.00284 -0.024099 0.043717001 16777215
0.039501999 0.015614 -0.026379 16777215
-0.046944998 0.00094300002 0.017184 16777215
-0.028720001 -0.037544999 -0.016297 16777215
-0.032407999 0.006393 -0.037535001 16777215
0.00055300002 0.045295 0.021167999 16777215
0.044590998 -0.012102 -0.01911 16777215
0.006606 -0.040036 0.029214 16777215
0.049970001 0.00109 -0.001362 16777215
0.049731001 0.0028629999 -0.0043179998 16777215
-0.030554 0.029004 0.026929 16777215
0.0286 0.015742 0.037870999 16777215
0.020649999 0.020292999 -0.040764999 16777215
0.023006 0.021943999 -0.038589999 16777215
0.040647 0.028294001 -0.0068760002 16777215
-0.033353999 0.029898001 -0.022217 16777215
0.013321 0.032907002 -0.035209 16777215
-0.049279001 0.0083039999 0.00161 16777215
-0.037276 -0.023164 -0.023956999 16777215
0.023574 0.032577999 -0.029713999 16777215
-0.0032840001 0.022488 -0.044537 16777215
-0.041784 0.027152 -0.0041089999 16777215
-0.0054919999 -0.049139999 -0.0074229999 16777215
0.0085610002 -0.002325 0.049206998 16777215
-0.022655001 0.044558 -0.001143 16777215
-0.024991 0.041917998 0.01088 16777215
-0.044434 0.0084469998 -0.021313 16777215
-0.0059019998 0.020453 0.045242 16777215
-0.010739 0.031486001 -0.037326999 16777215
-0.023538001 -0.040716998 0.016973 16777215
0.035765 -0.013576 -0.032196 16777215
-0.019989001 -0.045758002 -0.0025770001 16777215
-0.033767 0.029459 -0.022181001 16777215
0.008467 -0.036307 0.033319 16777215
0.0020250001 0.038934 -0.031305 16777215
0.020504 -0.039393 0.022973999 16777215
0.043182001 0.020288 0.014957 16777215
-0.0081569999 -0.035677999 -0.034065999 16777215
-0.041834999 -0.024924001 -0.011342 16777215
0.025866 -0.035436001 -0.023985 16777215
0.0018729999 -0.039669 0.030378999 16777215
0.025658 -0.021090001 0.037374999 16777215
-0.035803001 -0.01661 0.030696001 16777215
-0.043609999 0.022833999 -0.0087599996 16777215
0.045976002 0.01778 -0.0083680004 16777215
-0.049261998 0.0082099997 0.0024240001 16777215
0.033399001 -0.036690999 -0.0061869998 16777215
-0.016111 -0.035877999 0.030874001 16777215
0.033677999 -0.027868001 0.024273001 16777215
-0.017477 0.017774001 0.043343 16777215
-0.0098999999 0.035751 0.033523999 16777215
-0.012764 0.043768 0.02053 16777215
-0.049669001 0.004894 0.0030129999 16777215
0.034086999 0.0091220001 0.035425 16777215
0.039726 0.0064210002 0.029674999 16777215
0.047162998 -0.015784999 0.0051440001 16777215
0.0066260002 -0.044690002 -0.021423001 16777215
0.033898 0.036453001 -0.0047070002 16777215
-0.049885001 -0.00284 -0.001863 16777215
0.0082759997 0.010764 0.048121002 16777215
0.048494 0.0028009999 -0.011852 16777215
-0.041954 0.024622999 -0.011557 16777215
0.024846001 -0.0089499997 -0.042456999 16777215
-0.032710001 -0.032251 -0.019747 16777215
0.025296001 0.017008999 0.039632998 16777215
0.0074820002 0.018146999 0.045986 16777215
0.034830999 -0.022102 0.028254 16777215
0.014617 -0.026216 0.039988 16777215
-0.012211 -0.048282001 -0.0044430001 16777215
-0.0093489997 0.031316001 0.037840001 16777215
-0.024125 -0.041641001 0.013566 16777215
-0.019362001 0.042107999 -0.018763 16777215
-0.033410002 -0.004224 -0.036959 16777215
-0.017905001 -0.028919 0.036648002 16777215
-0.010079 0.048512001 0.0067090001 16777215
-0.030159 -0.014384 -0.037195999 16777215
0.018228 0.021298001 -0.041402001 16777215
-0.00134 0.048632 -0.01154 16777215
-0.0058889999 0.043885 0.023225 16777215
0.014325 0.019401999 -0.043799002 16777215
-0.014782 -0.047269002 0.0068629999 16777215
-0.016322 0.046930999 -0.0055780001 16777215
-0.045157999 -0.021466 -4.3e-05 16777215
0.040472001 -0.005353 0.028867999 16777215
-0.043003 -0.024775 -0.0060769999 16777215
0.040008001 0.028718 -0.0086420001 16777215
0.028651999 0.028702 -0.029245 16777215
0.001869 0.018743999 -0.046316002 16777215
0.025189999 0.039689999 -0.017035 16777215
-0.039200999 -0.011595 0.028790001 16777215
0.030758001 -0.027564 0.028181 16777215
-0.0074160001 -0.049399 0.0021810001 16777215
-0.049903002 -0.001294 0.0028359999 16777215
0.049681999 -0.001696 -0.0053679999 16777215
-0.0062930002 0.045818999 0.018998999 16777215
-0.031736001 -0.032139 0.021445001 16777215
-0.0082350001 -0.0089950003 0.048489999 16777215
-0.026518 0.039902002 0.014304 16777215
-0.015288 0.030114001 0.036869999 16777215
-0.047169 0.013664 0.0094039999 16777215
0.022588 -0.0087479996 -0.043740999 16777215
0.039742999 0.016480001 -0.025473 16777215
0.031314 -0.034215 0.018674999 16777215
-0.044769 -0.0027050001 -0.022101 16777215
-0.026614999 0.01338 0.040158 16777215
0.03084 -0.004491 -0.039099 16777215
0.025653001 -0.033877999 -0.026348 16777215
0.010571 -0.033948001 -0.035154 16777215
0.043402001 -0.021048 -0.01316 16777215
0.01314 -0.045279998 0.016646 16777215
0.046592999 0.0078440001 -0.016357999 16777215
0.0085389996 -0.011408 0.047926001 16777215
-0.047118999 0.015418 -0.0064849998 16777215
-0.044744 -0.001258 -0.022279 16777215
0.048071999 0.0076270001 -0.01144 16777215
-0.010756 0.01052 0.047683001 16777215
-0.036385 -0.03427 0.001303 16777215
-0.043019 -0.002236 0.025384 16777215
-0.045552 -0.016977999 0.011694 16777215
-0.005357 -0.047378998 -0.01505 16777215
-0.028911 0.019138001 0.036026001 16777215
0.041168999 0.02177 -0.018198 16777215
-0.047031999 -0.015538 0.006825 16777215
0.011673 -0.011366 0.047270998 16777215
0.026238 0.016861999 0.039080001 16777215
0.017433001 0.044698998 0.014075 16777215
0.040178999 0.020469001 -0.021601999 16777215
-0.01083 0.047471002 -0.011369 16777215
0.016542001 -0.042743001 -0.019986 16777215
-0.02816 0.035636 0.020907 16777215
-0.030928999 0.039058998 0.00422 16777215
0.021841999 0.036463 -0.026332 16777215
0.040391002 0.027804 -0.0097740004 16777215
-0.023204001 -0.043628 0.0076250001 16777215
-0.024279 -0.042079002 -0.011828 16777215
0.037657999 -0.0090049999 -0.031635001 16777215
0.031644002 0.032721002 0.020687999 16777215
-0.034676999 0.005936 0.035528 16777215
0.016711 -0.016293 0.044218998 16777215
-0.023864999 0.0083269998 0.043141 16777215
0.00098899996 0.041023001 -0.028568 16777215
-0.016313 0.047242001 -0.001424 16777215
-0.006019 0.037021998 -0.033062998 16777215
2.2e-05 -0.0037839999 0.049857002 16777215
0.0058490001 0.025467001 0.042629 16777215
-0.02059 0.029967001 -0.034322999 16777215
0.0093139997 -0.0060700001 -0.048748001 16777215
-0.041453999 0.015033 -0.023569999 16777215
0.014263 0.0035920001 -0.047788002 16777215
-0.015366 -0.047513001 -0.0025289999 16777215
0.014938 0.045049001 -0.015729001 16777215
-0.015227 -0.0021639999 -0.047575999 16777215
0.017166 -0.027431 -0.038116001 16777215
-0.031447999 0.025074 0.029704001 16777215
0.0074209999 0.041535001 -0.026829001 16777215
0.040162001 0.029708 -0.002114 16777215
0.010401 -0.045368999 0.018262999 16777215
-0.001692 -0.037983999 0.032469999 16777215
-0.005936 -0.0087839998 -0.048863001 16777215
-0.026791999 0.018501 0.037946001 16777215
0.025797 -0.042631 0.0041350001 16777215
-0.03207 -0.01464 0.035457 16777215
-0.027669 0.0050809998 0.041336 16777215
0.0067360001 -0.012808 0.04786 16777215
0.028517 0.029681999 -0.028386001 16777215
0.014141 -0.017235 0.044755001 16777215
-0.039863002 0.027435999 -0.012578 16777215
-0.022933999 -0.010435 0.043187998 16777215
0.033675998 0.018061001 0.032244999 16777215
-0.019121001 -0.037811 -0.026547 16777215
-0.036497999 0.017154999 0.029557999 16777215
-0.0040540001 -0.038210001 -0.031993002 16777215
-0.043935001 0.016603 0.017147999 16777215
-0.024178 -0.039641 0.018549001 16777215
-0.043979 0.004404 0.023375999 16777215
0.038323 -0.0048199999 -0.031750999 16777215
0.021738 -0.035602 0.027566999 16777215
0.013583 -0.037661999 -0.02995 16777215
-0.029069999 0.013743 0.038288999 16777215
-0.025141001 -0.042530999 -0.0076819998 16777215
0.04981 0.001706 0.0040020002 16777215
-0.025638999 -0.01685 0.039480999 16777215
-0.0026400001 0.026070001 -0.042583998 16777215
0.035805002 0.0051469998 -0.034518 16777215
0.04053 0.025272001 -0.014787 16777215
0.0088229999 -0.040725999 0.027632 16777215
-0.04219 0.01545 0.021937 16777215
-0.047076002 -0.016759999 -0.001717 16777215
0.013005 0.046877 -0.011552 16777215
0.001427 -0.049538001 0.0066300002 16777215
0.023845 -0.023166999 0.037346002 16777215
-0.023089999 0.032341 0.030347001 16777215
0.043985002 -0.017075 0.016545 16777215
0.013411 -0.012826 0.046429001 16777215
-0.036506999 0.031374 0.013523 16777215
-0.017426999 -0.030587001 -0.035507001 16777215
-0.000287 -0.0085399998 0.049263999 16777215
0.022313001 0.044431001 0.005295 16777215
-0.02344 0.039652001 -0.01945 16777215
-0.047205001 -0.0088139996 -0.013927 16777215
0.012803 0.046372999 0.013625 16777215
0.031860001 -0.029255999 0.025080999 16777215
0.034262002 0.031755 -0.017826 16777215
-0.02258 -0.0045360001 0.044380002 16777215
0.0060820002 0.039685 -0.029801 16777215
-0.0060149999 0.046962999 -0.016070999 16777215
0.00477 0.045076001 -0.021105001 16777215
-0.033720002 0.036835998 0.002475 16777215
-0.013484 -0.035599001 0.032416999 16777215
0.026651001 -0.039829001 0.014263 16777215
-0.043117002 -0.024186 0.0074789999 16777215
-0.033771999 -0.028635999 0.023225 16777215
-0.0043890001 -0.048510998 -0.011288 16777215
0.028568 -0.01408 -0.038543999 16777215
0.046406999 -0.016827 0.007956 16777215
0.036490999 -0.023068 0.025225 16777215
0.027024999 0.040041 -0.012898 16777215
-0.030997001 -0.031647999 -0.023186 16777215
-0.016729999 0.016806001 0.044018999 16777215
-0.0073509999 -0.033525001 -0.036359999 16777215
0.038345002 -0.030706 0.0093149999 16777215
-0.048482001 -0.012213 0.00060600002 16777215
0.020276001 -0.025703 -0.037792001 16777215
0.010435 0.029510999 0.038989998 16777215
0.018825 -0.046225999 0.002968 16777215
-0.043117002 -0.015062 0.020349 16777215
-0.037978999 -0.032366 0.0031699999 16777215
0.049116001 0.002328 0.0090669999 16777215
-0.0080019999 0.046836 0.015569 16777215
0.039588999 -0.003181 -0.030374 16777215
0.002083 0.047054 0.01678 16777215
-0.028239001 0.039717 0.011185 16777215
0.025855999 -0.028681001 -0.031762999 16777215
0.048121002 0.010267 0.0088860001 16777215
-0.024937 -0.017988 -0.039427999 16777215
-0.013673 0.045582999 -0.015337 16777215
-0.047155 0.012078 0.011427 16777215
-0.049260002 -0.0067719999 0.0052479999 16777215
0.017199 -0.010813 -0.045687001 16777215
0.038284998 -0.020927999 0.024419 16777215
-0.018828999 0.042381 -0.018691 16777215
0.033973999 0.029186999 0.022222999 16777215
0.015601 0.047492001 0.001072 16777215
0.021036001 -0.045184001 0.0039840001 16777215
-0.031947002 0.037106998 -0.010121 16777215
0.028769 0.031863999 0.025633 16777215
0.015066 0.025071001 0.040552001 16777215
0.031720001 -0.010594 0.03717 16777215
0.028960999 -0.025741 -0.031601999 16777215
0.024870001 -0.043368001 -0.000849 16777215
-0.018254001 0.033716999 -0.032093 16777215
-0.0040569999 0.049803998 0.001774 16777215
-0.040713001 0.025320999 0.014188 16777215
0.011136 0.034274001 0.03466 16777215
-0.0048369998 0.006637 -0.049321 16777215
0.014934 0.026172001 -0.039900001 16777215
-0.014297 -0.042702999 0.021725999 16777215
0.026048999 0.037245002 0.020839 16777215
-0.023352001 0.041930001 0.014019 16777215
-0.012589 0.011968 0.046886001 16777215
0.030781999 0.034180999 0.019599 16777215
0.011864 -0.039037 -0.028903 16777215
-0.0096749999 -0.005043 -0.048795 16777215
0.049949002 -0.0022519999 0.000264 16777215
0.023938 -0.028589999 0.033310998 16777215
0.032728001 0.008374 0.036862001 16777215
0.018781001 0.042296 -0.018928999 16777215
-0.046262 0.016735001 -0.0089330003 16777215
-0.041164 -0.024398001 -0.014501 16777215
-0.043823998 0.010877 0.021475 16777215
-0.037629001 -0.029139999 -0.015326 16777215
0.040514998 0.015034 0.025149999 16777215
0.017864 -0.006079 -0.046303 16777215
0.008781 0.028868999 0.039868001 16777215
0.035326999 -0.030920001 0.017204 16777215
0.043202002 0.024408 -0.006147 16777215
0.015659001 -0.010326 0.046348002 16777215
-0.0022229999 0.013672 -0.048043001 16777215
0.02836 0.034182999 0.022962 16777215
0.0073589999 0.013152 0.047674999 16777215
0.038945999 0.017814999 -0.025803 16777215
0.019877 -0.044725999 0.010222 16777215
0.031723998 0.034219999 -0.017960001 16777215
0.043933 -0.014567 -0.018913001 16777215
0.014319 0.039645001 0.026892999 16777215
0.029720001 0.033891998 0.021633999 16777215
-0.031153001 -0.0089800004 -0.038063001 16777215
0.042139001 -0.0059000002 0.026257999 16777215
-0.024150999 0.021961 -0.037873998 16777215
-0.044549 0.01143 -0.019615 16777215
-0.02114 -0.036876 -0.026329 16777215
-0.024079001 -0.023057999 -0.037262999 16777215
-0.0057120002 -0.010214 0.048611 16777215
0.017445 -0.0043720002 0.046654001 16777215
-0.029007999 0.014721 0.037971001 16777215
0.01644 -0.034903999 -0.031803001 16777215
0.023024 -0.02575 -0.036150001 16777215
-0.043551002 -0.013692 0.020393001 16777215
0.036931001 0.004704 -0.033376001 16777215
-0.0025849999 -0.021513 -0.045061 16777215
-0.033877999 -0.020773999 -0.030343 16777215
0.040862001 -0.017279999 -0.023058999 16777215
-0.013401 -0.045779001 -0.014989 16777215
0.012486 -0.048324 0.0029730001 16777215
-0.033452 0.035163999 -0.01202 16777215
-0.0093630003 -0.034368001 -0.035089001 16777215
-0.020492001 -0.025895 0.037544001 16777215
0.036428001 0.0057609999 0.033762001 16777215
0.037301 0.031096 0.011904 16777215
-0.0062509999 -0.046976998 -0.015941 16777215
-0.015074 -0.00376 0.047525 16777215
0.014266 0.047339 -0.0074490001 16777215
0.036285002 -0.033263002 0.0087750005 16777215
0.049582001 -0.0053289998 -0.003637 16777215
0.0079150004 -0.047114 -0.014751 16777215
0.035806999 -0.032200001 -0.013455 16777215
-0.021942999 -0.030348999 0.033128001 16777215
-0.029168 0.018968999 0.035907999 16777215
-0.0022839999 -0.048280001 -0.012799 16777215
-0.043175001 -0.023925999 -0.0079690004 16777215
-0.010262 -0.029154999 0.039301999 16777215
0.0084370002 -0.035990998 0.033666998 16777215
0.043877002 0.018834 -0.014835 16777215
-0.016137 0.020393999 -0.042704999 16777215
0.010404 -0.0035689999 -0.048774999 16777215
-0.030165 0.030314 -0.025907001 16777215
0.014799 -0.024062 -0.041255999 16777215
0.044454001 -0.0099689998 -0.020602001 16777215
-0.045058001 -0.0038320001 0.021333 16777215
-0.014461 -0.041685 -0.023521001 16777215
-0.0024929999 0.049828 -0.0033130001 16777215
-0.043334 0.017185999 -0.018077999 16777215
0.00038700001 -0.041611999 -0.027718 16777215
-0.014691 -0.014609 0.045506001 16777215
0.047421001 0.00085499999 0.015828 16777215
-0.039189 -0.023093 0.020757999 16777215
0.034435999 0.0056830002 -0.035804 16777215
-0.016452 -0.047205999 0.00096400001 16777215
0.045782 0.0080070002 0.018435 16777215
0.034828998 -0.015243 0.032474 16777215
-0.0078530004 -0.040684 0.027984001 16777215
0.033132002 0.0011399999 0.03743 16777215
-0.0093940003 0.023344001 -0.043207001 16777215
-0.014651 0.047798 -0.00081699999 16777215
-0.047428999 0.01545 -0.0034330001 16777215
-0.0087759998 0.001656 -0.049196001 16777215
-0.045988999 0.015349 0.012226 16777215
-0.030064 -0.029238001 -0.027226999 16777215
-0.01509 0.021171 0.042709 16777215
-0.046856001 0.0091300001 0.014871 16777215
-0.039505001 -0.025072001 -0.017628999 16777215
-0.033307999 0.036637001 0.0069479998 16777215
0.014345 0.047357 -0.0071769999 16777215
0.030611999 0.0319 0.023352001 16777215
0.039147001 -0.030780001 0.0044840002 16777215
0.046647999 -0.016423 0.007367 16777215
-0.023455 -0.039035998 -0.020640999 16777215
0.045290999 0.0079089999 -0.019649999 16777215
0.0087169996 0.040684 0.027728001 16777215
-0.004313 0.00070899999 0.049809001 16777215
-0.032708999 0.032407999 -0.01949 16777215
-0.013361 -0.025558 0.040844001 16777215
0.028142 0.001523 0.041301001 16777215
-0.022678999 -0.039182998 -0.021221001 16777215
0.045435999 -0.019174 -0.0082430001 16777215
-0.047031999 0.016147001 -0.005223 16777215
-0.025645001 0.038617 0.018736999 16777215
-0.018696001 0.045855999 0.0069030002 16777215
0.030058 -0.0093210004 0.038853999 16777215
0.012116 0.04693 -0.012279 16777215
0.001937 0.007979 0.049321 16777215
0.011741 -0.026391 -0.040812999 16777215
0.023360001 -0.027143 -0.034894001 16777215
-0.044059999 -0.013022 -0.019727999 16777215
-0.003945 0.044668 0.022117 16777215
0.021965001 -0.042518999 -0.014479 16777215
0.026356 0.041085999 -0.010831 16777215
0.047545001 -0.0086209998 0.012852 16777215
-0.0035389999 0.044737 -0.022046 16777215
0.020362001 0.028464001 0.03571 16777215
0.029579001 0.021895999 -0.033847 16777215
0.024711 0.042330999 0.0098689999 16777215
0.016286001 -0.017438 -0.04394 16777215
0.031925 -0.0043859999 0.038229998 16777215
-0.046020001 0.0025770001 0.019378001 16777215
0.033895001 -0.011776 -0.034820002 16777215
0.024041001 0.042123001 -0.012152 16777215
0.047141001 -0.010385 -0.013032 16777215
-0.049603999 0.005961 -0.0019759999 16777215
-0.0019789999 0.046445999 -0.018407 16777215
0.030639 0.031991001 -0.023190999 16777215
0.026128 -0.024187 0.035103999 16777215
0.031355999 -0.037101001 0.011848 16777215
-0.0094630001 -0.0037760001 -0.048951 16777215
-0.019872 0.009238 -0.044941999 16777215
0.020886 -0.003456 -0.045297001 16777215
-0.019151 0.040578 0.022059999 16777215
-0.037827998 -0.0097749997 -0.031200999 16777215
-0.00092600001 -0.021876 -0.044950999 16777215
-0.047648001 -0.012074 -0.0091599999 16777215
-0.020195 0.0091270003 -0.044819999 16777215
0.021356 -0.040316999 -0.020457 16777215
0.017981 -0.010678 -0.045417 16777215
-0.048656002 0.010153 0.0054310001 16777215
-0.045274001 -0.0078299996 -0.019721 16777215
0.024493 0.036867999 -0.023257 16777215
-0.049591001 0.0057080002 -0.0028629999 16777215
-0.041556001 -0.002629 0.02768 16777215
0.044753 -0.016486 -0.015012 16777215
0.011882 -0.0042790002 -0.048379 16777215
-0.0065100002 0.0093080001 -0.048693001 16777215
-0.0124 -0.042126 0.023909001 16777215
-0.047327001 0.0087050004 0.01358 16777215
0.00054500002 0.048611999 0.011688 16777215
-0.011732 -0.0053909998 0.048303999 16777215
-0.039356999 0.030836999 -0.00032799999 16777215
0.042466 -0.002502 0.026275 16777215
-0.034031 0.027481999 0.024220999 16777215
0.044709999 -0.0078800004 0.020950001 16777215
0.023127001 -0.044181999 0.0036200001 16777215
-0.025354 0.002715 0.04301 16777215
-0.015341 -0.012137 0.046015002 16777215
0.041577999 0.025067 0.011956 16777215
0.0064900001 -0.021888999 -0.044482999 16777215
0.014565 -0.042374 -0.022187 16777215
-0.016515 0.035794999 -0.030757001 16777215
-0.007547 -0.031762999 0.037870999 16777215
0.0094389999 0.0047380002 0.048872001 16777215
-0.028653 0.038862001 0.012991 16777215
-0.042675 0.007342 0.024999 16777215
0.035895001 0.022938 -0.026179999 16777215
-0.047010001 -0.015083 0.0079070004 16777215
-0.015014 0.035314001 -0.032054 16777215
-0.045228999 0.016837999 0.013069 16777215
0.024747999 -0.043166999 -0.0049129999 16777215
-0.014133 -0.017858 -0.044512 16777215
-0.022373 -0.042580001 0.013653 16777215
0.022572 -0.024731001 0.037133001 16777215
0.015939999 0.032237001 -0.034738 16777215
0.0044049998 -0.042571999 0.025849 16777215
0.044989999 0.021613 0.002968 16777215
0.034897 -0.0039519998 0.03559 16777215
0.034051001 0.001282 -0.036591001 16777215
-0.0068160002 0.041173 -0.027536999 16777215
-0.043102998 -0.024537001 0.0063319998 16777215
0.0080089998 -0.049348999 0.00073299999 16777215
-0.033615999 -0.013293 -0.034543 16777215
0.046347 0.0075369999 0.01718 16777215
0.0027600001 -0.040886998 0.028646 16777215
0.0041689998 0.042741001 0.02561 16777215
0.0044200001 -0.047897998 0.013646 16777215
-0.018045999 0.022948001 0.040592998 16777215
0.001509 0.021788999 0.044978 16777215
-0.024427 -0.042924002 -0.007803 16777215
-0.033543002 -0.001125 -0.037062 16777215
0.044477999 0.02132 -0.0081949998 16777215
-0.033588 -0.023675 -0.028485 16777215
-0.042461 -0.011735 0.02365 16777215
0.037627 -0.017974 -0.027589001 16777215
-0.033227 0.036582001 -0.0076009999 16777215
-0.015556 0.039395999 0.02657 16777215
0.0099320002 0.041926999 -0.025366999 16777215
0.022367001 0.022120999 -0.038864002 16777215
-0.006205 0.004001 0.049451999 16777215
-0.0054799998 -0.033631999 0.036589999 16777215
-0.0081900004 0.048815999 0.0070639998 16777215
-0.001702 0.030703999 -0.039425999 16777215
-0.028948 -0.011738 0.039042 16777215
0.011656 -0.046202 0.015151 16777215
-0.028969999 0.031977002 -0.025263 16777215
-0.021579999 0.037101999 -0.025645999 16777215
-0.044904001 -0.017774999 -0.012949 16777215
-0.02458 0.021955 -0.037601002 16777215
-0.048622001 0.005142 0.010463 16777215
0.02131 0.025528001 0.037338998 16777215
0.0034340001 0.025371 0.042948 16777215
0.021023 -0.044937 0.0062179998 16777215
-0.029792 0.038387999 -0.011781 16777215
-0.047014002 0.014984 0.0080739995 16777215
-0.046762001 0.014747 0.0097920001 16777215
-0.0095610004 0.046105001 0.016819 16777215
-0.0047849999 0.034327999 0.036038 16777215
0.0083879996 -0.0044169999 0.049093001 16777215
-0.029519999 0.019618999 0.035266001 16777215
0.012617 -0.046801001 -0.012269 16777215
0.036235001 0.032287002 0.012023 16777215
0.015255 -0.042199999 -0.022056 16777215
0.034442998 -0.03036 -0.019797999 16777215
0.041843001 0.027329 -0.001511 16777215
0.044911999 -0.0082780002 -0.020355999 16777215
-0.046955001 -0.016821999 -0.0034980001 16777215
-0.043241002 -0.0049140002 -0.024618 16777215
0.020881999 -0.028639 -0.035266999 16777215
0.000802 -0.027259 0.041908 16777215
-0.0081099998 -0.049298 -0.001983 16777215
-0.0098890001 0.0042039999 -0.048831999 16777215
0.033218 -0.035126999 0.012754 16777215
0.036894999 0.00036400001 -0.033744 16777215
0.0069010002 0.049065001 0.0067059998 16777215
0.0054870001 -0.012821 -0.048016001 16777215
-0.01778 -0.045522001 0.010565 16777215
0.034086 -0.0093860002 0.035356 16777215
-0.039829999 0.0039049999 0.029972 16777215
-0.017438 0.046301 -0.007222 16777215
-0.012937 -0.032827001 -0.035425998 16777215
-0.0084319999 -0.025056999 0.042438999 16777215
0.023635 0.015830001 0.04112 16777215
-0.038067002 0.032124002 0.0043569999 16777215
-0.032892 0.037544999 0.00291 16777215
0.031097 0.011256 -0.037500001 16777215
-0.038084 0.013723 -0.029347001 16777215
-0.024512 0.033222001 -0.028204 16777215
0.048243999 0.013019 -0.001729 16777215
0.010732 0.015109 0.046438999 16777215
-0.020444 0.026355 -0.037248001 16777215
0.033682 0.030874999 -0.020304 16777215
-0.042943999 -0.015369 0.020485001 16777215
-0.013521 0.047359001 0.008622 16777215
0.014555 0.041028999 0.024591999 16777215
-0.029312 0.040275998 0.0043190001 16777215
-0.028112 -0.0033440001 -0.041212998 16777215
0.016218999 0.041953001 -0.021837 16777215
-0.0089560002 -0.014329 0.047058001 16777215
0.029073 0.035006002 0.020721 16777215
-0.011304 0.048641 -0.00251 16777215
0.042996 -0.015957 0.019917 16777215
0.044171002 0.022876 0.0050619999 16777215
-0.044714998 0.01974 0.010532 16777215
0.009881 0.041836001 0.025536999 16777215
-0.00041400001 -0.041487001 0.027904 16777215
0.018627999 0.02746 -0.037402999 16777215
-0.0078659998 0.023999 -0.043152999 16777215
-0.0087160002 0.035902001 -0.033691 16777215
-0.014972 -0.022857999 -0.041873001 16777215
-0.020063 -0.045600001 0.0042619999 16777215
-0.049779002 0.0037849999 0.002785 16777215
0.026256001 0.033294 -0.026497001 16777215
-0.036750998 0.016346 0.029701 16777215
0.038812999 -0.016731 0.026714001 16777215
-0.024572 0.017368 -0.039932001 16777215
0.031043001 0.037547 0.011251 16777215
0.031207999 0.003484 -0.038908999 16777215
0.020036999 -0.037950002 -0.025658 16777215
-0.041551001 0.025924999 -0.010069 16777215
0.017131999 -0.021591 -0.041717 16777215
0.001891 0.0098029999 0.048992999 16777215
-0.045492999 0.018480999 0.0094250003 16777215
0.014066 0.030073 -0.037386 16777215
0.016480001 -0.046952002 -0.0048949998 16777215
0.040955 -0.027997 0.0062330002 16777215
0.032428 0.011356 -0.036325 16777215
0.042394001 0.026306 -0.0032820001 16777215
-0.032425001 -0.00063099997 0.038056001 16777215
0.034536 -0.0045349998 -0.035870999 16777215
-0.0030749999 0.026524 0.042273 16777215
0.042964999 0.013253 0.021872001 16777215
0.033295002 -0.029828999 -0.022399001 16777215
0.0092590004 0.002779 0.049056999 16777215
0.0082360003 -0.047757 -0.012307 16777215
-0.017697001 -0.030001 -0.035872001 16777215
-0.00141 -0.025289999 -0.043109 16777215
-0.0019799999 -0.014576 -0.047786999 16777215
-0.034230001 0.022547999 0.028634001 16777215
0.018138999 -0.042867001 -0.01826 16777215
-0.01087 0.046519 0.014757 16777215
0.045984998 0.0045659998 -0.019091999 16777215
0.0099560004 0.046666 0.01494 16777215
-0.023596 0.041673999 0.014369 16777215
0.034970999 -0.031902 -0.016104 16777215
-0.028475 -0.015139 0.038208999 16777215
0.012315 0.00095100002 -0.048450001 16777215
0.027280999 -0.00065499998 0.041896001 16777215
0.038084 0.026109001 -0.019182 16777215
-0.023653001 -0.028523 -0.033569999 16777215
0.029332001 0.003914 -0.040302999 16777215
0.033852 -0.0097949998 0.035470001 16777215
-0.031808 0.0095340004 -0.037381999 16777215
0.042955998 -0.018866999 -0.017286001 16777215
-0.038768999 0.030831 0.0068120002 16777215
0.042571001 0.00152 -0.026180999 16777215
0.028593 -0.032751001 -0.024693999 16777215
0.0090030003 0.041632 -0.026186001 16777215
-0.003611 -0.0068549998 0.049396001 16777215
-0.014218 0.032056998 0.035640001 16777215
-0.018522 -0.011633 -0.044962998 16777215
-0.022073001 0.039264001 0.021705 16777215
-0.043478999 0.015587 -0.019146999 16777215
0.0062739998 0.034805998 -0.035344001 16777215
-0.044555999 -0.001217 -0.022655001 16777215
-0.047463 -0.013201 0.0085439999 16777215
-0.031256001 0.036136001 -0.01474 16777215
-0.018633001 0.0060899998 -0.045997001 16777215
0.004094 0.043680999 -0.023983 16777215
0.036490001 -0.017205 0.029538 16777215
0.028456001 0.011756 0.039395999 16777215
-0.020144001 0.032832 -0.031879 16777215
-0.044307999 0.016829999 -0.015924999 16777215
0.016942 -0.040529002 0.023882 16777215
0.005194 -0.046131998 0.01857 16777215
-0.010666 -0.025936 0.041395001 16777215
-0.0055820001 0.0078339996 -0.049066 16777215
-0.045743 0.01905 -0.0066840001 16777215
0.033449002 -0.02238 0.02967 16777215
-0.042160999 0.021059999 -0.0167 16777215
-0.007464 -0.0061599999 -0.049054999 16777215
0.029437 0.016609 -0.036846001 16777215
0.027739 0.036364 0.020205 16777215
0.028805001 -0.027953001 0.029813999 16777215
0.0059090001 -0.031091999 0.038709 16777215
0.001174 0.045109998 -0.021535 16777215
-0.0094459997 -0.011556 -0.04772 16777215
0.015558 -0.018979 0.043563001 16777215
-0.0083109997 0.045813002 -0.018222 16777215
0.019292001 0.025322 0.038555998 16777215
0.034883998 -0.033387002 0.012978 16777215
-0.019086 0.0044840002 0.045995999 16777215
-0.032914001 0.014565 -0.034706 16777215
0.034885999 -0.01764 0.031173 16777215
-0.046870999 -0.0086209998 0.015127 16777215
0.017159 -0.0050860001 -0.046686999 16777215
-0.01193 -0.042149998 0.024104999 16777215
-0.025904 -0.040660001 -0.013259 16777215
-0.039239999 0.030556999 -0.0051460001 16777215
0.034398999 -0.03115 -0.018611001 16777215
-0.026486 0.04101 -0.010801 16777215
-0.028321 0.013767 0.038837999 16777215
0.030383 0.039310001 0.00562 16777215
-0.0077240001 0.027891999 -0.040771998 16777215
-0.041000001 -0.017733 0.022461001 16777215
0.019734001 0.014325 -0.043651 16777215
0.047623999 -0.014318 -0.0051910002 16777215
0.028856 -0.029858001 0.027853999 16777215
-0.038786002 -0.031536002 -0.001045 16777215
-0.020328 0.039234001 0.023398001 16777215
-0.028276 0.039870001 -0.01053 16777215
0.021592 0.042015001 0.016388001 16777215
-0.046597 0.017797001 -0.00346 16777215
0.019378001 0.044016998 0.013673 16777215
0.044194002 -0.018378999 -0.014461 16777215
-0.047022998 0.0052100001 0.016177 16777215
-0.043120999 -0.025025999 0.0037829999 16777215
0.041657001 0.026037 0.0093130004 16777215
0.004592 0.017143 -0.046744 16777215
0.001087 0.000204 0.049988002 16777215
-0.038609002 0.029332999 0.012203 16777215
0.0053650001 -0.046535 -0.017485 16777215
0.037870001 -0.031932998 0.0067960001 16777215
-0.022906 0.026196999 -0.035902999 16777215
0.032701999 0.036488 0.0099579999 16777215
0.018037001 -0.039267 -0.025155 16777215
0.038203999 0.0067690001 0.031537998 16777215
-0.0096979998 0.034364 0.035000999 16777215
0.039347 -0.0085300002 0.029648 16777215
0.022668 0.024900001 0.036961 16777215
0.033009999 0.025431 0.027634 16777215
-0.029860999 -0.040084999 -0.0012450001 16777215
-0.028596001 0.036556002 -0.0186 16777215
-0.018107001 0.0076230001 0.045977999 16777215
0.027902 0.02235 -0.034956999 16777215
0.047525 0.015526 0.00056499999 16777215
-0.040872 -0.028024999 -0.006641 16777215
-0.0021269999 -0.018802 0.046280999 16777215
0.032540001 0.014267 0.035179999 16777215
-0.041873999 -0.014579 -0.023109 16777215
-0.0097829998 0.048726 0.0054870001 16777215
0.042491 0.023523999 0.011882 16777215
-0.0086340001 -0.047010001 -0.014679 16777215
-0.0095889997 -0.044344001 0.021016 16777215
-0.037427999 -0.027876001 0.017947 16777215
-0.035115 -0.010512 0.034006 16777215
0.033403002 0.0048389998 -0.036889002 16777215
0.000825 0.021602999 -0.045085002 16777215
-0.016793 -0.017322 0.043793999 16777215
-0.02702 -0.011686 0.040415 16777215
-0.041356001 0.017847 0.021706 16777215
0.0097540002 -0.048473999 -0.0074260002 16777215
0.013583 0.047245 -0.0091340002 16777215
-0.028977999 0.005442 -0.040380999 16777215
0.023131 0.042560998 -0.012388 16777215
0.018735001 -0.017888 -0.042766999 16777215
0.042783 -0.0037499999 -0.025604 16777215
0.027139001 0.039239999 -0.014957 16777215
0.039604001 0.025296001 -0.017077999 16777215
0.012993 -0.046769001 0.011992 16777215
-0.026463 0.0049700001 -0.042130999 16777215
-0.048680998 -0.010223 0.0050630001 16777215
0.0019960001 -0.038674999 -0.031628001 16777215
0.016030001 0.017820001 0.043880001 16777215
-0.02244 -0.028023001 -0.034802001 16777215
-0.001219 0.038210999 0.032225002 16777215
-0.022776 -0.034862999 -0.027674001 16777215
0.0062449998 -0.033957999 0.036164001 16777215
-0.039786998 -0.013894 0.026907001 16777215
0.0094600003 -0.033594001 -0.035804 16777215
0.015788 0.029479999 0.037170999 16777215
0.0046270001 -0.0076589999 -0.049192999 16777215
0.021188 0.042461 -0.015752001 16777215
0.047164001 0.012747 0.010632 16777215
0.026877999 0.035891 0.022123 16777215
0.040789999 0.011866 -0.02637 16777215
-0.036533002 0.033275999 0.007619 16777215
0.021048 0.022818999 -0.039195001 16777215
-0.027097 0.040289 -0.011941 16777215
0.0087209996 -0.049233001 0.000283 16777215
-0.0048440001 0.01435 -0.047651 16777215
0.020129001 -0.043591 -0.013953 16777215
0.046450999 -0.014164 0.011904 16777215
0.006904 0.014347 0.047396999 16777215
0.047807001 -0.014019 -0.0042369999 16777215
0.043761 -0.019938 0.013693 16777215
0.027448 0.014209 -0.039301999 16777215
-0.014539 -0.04778 -0.002382 16777215
0.034035999 -0.0053280001 0.036238 16777215
-0.016239 0.03104 0.035677001 16777215
0.035829999 -0.0070639998 0.034152001 16777215
0.001038 0.016416 -0.047217 16777215
0.022601999 0.044573002 0.001535 16777215
-0.026505999 0.010637 0.04104 16777215
0.013967 0.001508 -0.047986001 16777215
-0.048393 -0.0040770001 -0.011894 16777215
0.040798999 0.023530999 0.016785 16777215
-0.037643 -0.032257002 0.0065199998 16777215
-0.038527001 -0.0099560004 -0.030274 16777215
0.011816 0.044826999 0.018734001 16777215
-0.00042299999 -0.017107001 -0.046980001 16777215
-0.0025450001 0.039964002 0.02994 16777215
-0.016989 0.031643 -0.034786001 16777215
0.0075940001 0.037253998 0.032473002 16777215
0.031814002 -0.000451 -0.038570002 16777215
-0.045014001 0.000352 0.021764001 16777215
-0.034839001 -0.001362 -0.035838999 16777215
0.020143 -0.045713998 0.002105 16777215
0.030410999 0.039579 -0.00294 16777215
-0.0086869998 -0.049187001 -0.0022760001 16777215
-0.02086 -0.043804001 0.012086 16777215
-0.036408 -0.034095999 0.003453 16777215
0.001481 -0.025799001 0.042803999 16777215
-0.031266 0.027434001 -0.027744999 16777215
-0.025985001 0.04236 0.0055189999 16777215
-0.027627001 0.025297999 0.033117998 16777215
-0.0091030002 -0.010741 0.047977 16777215
0.005872 -0.045564 0.019734001 16777215
0.041487001 0.01321 0.024582 16777215
-0.01552 -0.046243001 0.010987 16777215
0.027455 0.041584998 -0.0041109999 16777215
0.034520999 0.015504 0.032678999 16777215
0.030679001 0.022854 0.032194 16777215
-0.032136999 0.012178 0.036316 16777215
-0.042564999 0.0030650001 0.026054 16777215
0.012994 0.036804002 -0.031250998 16777215
-0.0055940002 -0.031021999 -0.038810998 16777215
0.027017999 -0.027153 0.032136001 16777215
0.002381 -0.04707 0.016697001 16777215
-0.003516 0.027401 0.041676 16777215
-0.047756001 -0.00076299999 -0.014792 16777215
0.021709999 -0.036874998 0.025864 16777215
0.046427999 -0.018316999 -0.0029889999 16777215
-0.022624001 -0.0066030002 -0.044096999 16777215
-0.02943 -0.033332001 0.022864999 16777215
-0.042006999 0.026373001 -0.0063140001 16777215
0.00063600001 -0.036093999 0.034595001 16777215
0.028659999 0.03142 0.026294 16777215
-0.018833 -0.039443001 0.024281999 16777215
-0.022817999 0.041887 -0.014994 16777215
0.0026779999 0.042537998 -0.026141001 16777215
0.022226 -0.043262001 -0.011593 16777215
0.030142 -0.029750001 0.026578 16777215
-0.015519 -0.041418001 -0.023317 16777215
0.001709 -0.012556 0.048367999 16777215
-0.031417001 0.038894001 -0.00049300003 16777215
0.029354 0.0045469999 0.04022 16777215
-0.0044470001 0.015237 -0.047414001 16777215
0.046323001 0.017921999 0.0057399999 16777215
-0.034961998 0.032908998 0.013952 16777215
0.00091399997 0.011189 -0.048723001 16777215
-0.012282 -0.015345 0.045975 16777215
-0.0097399997 0.0056389999 0.048717 16777215
0.016938999 0.022228001 -0.04146 16777215
-0.017867999 0.046457998 -0.0047289999 16777215
-0.036207002 -0.028055999 0.020047 16777215
-0.0092270002 0.036837999 0.032524001 16777215
-0.00084400002 0.012238 0.048471998 16777215
0.011259 0.0021919999 0.048666 16777215
0.021243 -0.0045770002 0.045031 16777215
-0.040662002 0.028719001 0.0046649999 16777215
-0.016364999 0.047242001 -0.000596 16777215
-0.000394 0.048579998 0.011825 16777215
0.023372 0.012012 0.042537998 16777215
0.047674999 0.014013 0.0055399998 16777215
0.022127001 -0.043264002 -0.011774 16777215
0.027767001 -0.038447 -0.015836 16777215
-0.0025160001 -0.0020109999 -0.049896002 16777215
0.044096 0.019865001 -0.012684 16777215
0.010434 0.044860002 0.019461 16777215
-0.047148999 0.016016999 0.0045139999 16777215
0.010895 0.048776999 -0.001456 16777215
0.037266001 -0.0112 -0.031397998 16777215
0.040093001 0.026431 -0.013927 16777215
-0.022233 -0.0066439998 -0.044289 16777215
-0.031536002 0.038515002 0.0046930001 16777215
-0.038483001 -0.031771999 -0.003088 16777215
0.022864999 0.037726 -0.023537001 16777215
0.047076002 0.0038459999 -0.016402001 16777215
-0.036765002 0.0089469999 0.032685 16777215
-0.046395998 -0.011647 -0.014552 16777215
-0.027818 -0.018141 0.037377 16777215
-0.018053001 0.039469998 -0.024824001 16777215
0.041257001 0.024628 -0.013831 16777215
0.031026 0.024747999 -0.030412 16777215
0.018555 0.035803001 -0.029562 16777215
-0.043389998 -0.024762001 -0.0020369999 16777215
-0.005111 -0.046077002 0.018728999 16777215
0.032292001 0.026039001 0.027914001 16777215
-0.001764 -0.011324 0.048668999 16777215
0.038105998 -0.010254 0.030703999 16777215
-0.038135 -0.012588 -0.029787 16777215
0.021709999 -0.0060029998 -0.044638999 16777215
0.042013999 0.02073 0.017465999 16777215
0.030692 0.0026169999 0.039384998 16777215
0.020372 0.037406001 -0.026187999 16777215
-0.016251 0.036651 0.029877 16777215
0.047903001 0.013876 -0.003571 16777215
-0.041044001 0.017812001 -0.022318 16777215
0.025016 -0.0033519999 -0.043161999 16777215
0.047350999 0.011413 -0.011299 16777215
-0.014041 -0.041196 -0.024611 16777215
-0.017037001 0.037244 -0.028681999 16777215
-0.000119 -0.049958002 -0.002043 16777215
-0.001192 -0.049809001 0.0042019999 16777215
-0.011572 0.037813999 0.030598 16777215
-0.0036770001 0.035208002 -0.035310999 16777215
-0.017563 0.016132999 -0.043946002 16777215
-0.015624 -0.046564002 0.0093660001 16777215
-0.014045 -0.034076001 -0.033787001 16777215
-0.018647 0.042784002 -0.017938999 16777215
0.047786999 -0.012196 -0.0082240002 16777215
-0.0047559999 -0.048877001 0.0094020003 16777215
-0.025220999 -0.037282001 -0.021769 16777215
0.02314 -0.038991999 -0.021074999 16777215
0.046603002 0.002508 -0.01794 16777215
0.017480001 0.01397 -0.044713002 16777215
0.01426 -0.018521 0.044199999 16777215
-0.024974 0.036745001 -0.022937 16777215
-0.048485 0.010852 -0.0056110001 16777215
-0.0026829999 0.020374 -0.045582 16777215
-0.049964 -0.00083700003 0.0017040001 16777215
0.018634001 -0.043848999 0.015168 16777215
0.031394001 -0.037174001 -0.011513 16777215
-0.0074009998 0.027564 0.041055001 16777215
0.049621001 -0.0042849998 -0.0044069998 16777215
-0.045062002 0.00032799999 0.021664999 16777215
0.001088 0.028015999 0.0414 16777215
-0.002167 -0.042737 0.025862001 16777215
-0.040516999 0.00088499999 -0.029285001 16777215
-0.033955 -0.031230999 0.019277999 16777215
-0.028004 0.012217 -0.039579 16777215
0.032166999 0.027868001 -0.026241999 16777215
-0.003763 0.039677002 0.030192999 16777215
-0.032806002 -0.035241 -0.013486 16777215
0.034271002 0.007733 -0.035576999 16777215
-0.0080380002 0.002388 0.049291998 16777215
0.0097390004 0.044695001 -0.020188 16777215
-0.002296 0.04916 0.008831 16777215
-0.043294001 0.0092679998 0.023233 16777215
-0.013908 -0.026332 -0.040164001 16777215
-0.012537 -0.040837001 -0.025983 16777215
-0.010148 -0.048447002 -0.007063 16777215
0.029897001 0.032800999 -0.023027999 16777215
0.024009001 -0.016267 0.04073 16777215
-0.018448001 -0.045357998 -0.010114 16777215
0.028401 0.035889 0.020133 16777215
0.012674 -0.013047 0.046574 16777215
0.02231 -0.022159999 0.038874999 16777215
0.039988 0.001912 0.029956 16777215
-0.045262001 0.019985 -0.0072039999 16777215
-0.0065959999 0.022258 -0.044284001 16777215
-0.028337 -0.018428 0.036843002 16777215
0.026593 -0.035971001 0.022336001 16777215
0.041689999 0.018452 -0.020529 16777215
0.021016 -0.00063000002 -0.045364 16777215
0.045430999 0.015541 0.013946 16777215
-0.029577 -0.0063169999 0.039816 16777215
-0.018753 0.046349999 0.000178 16777215
0.029155999 0.024155 -0.032655999 16777215
0.011828 0.047098 0.01191 16777215
-0.025815001 -0.013679 0.040576998 16777215
0.020744 0.034456 -0.029705999 16777215
0.022430999 -0.00079000002 0.044679001 16777215
0.035874002 0.030944999 0.015983 16777215
-0.043524999 -0.019328 -0.015233 16777215
-0.002909 0.039282002 -0.030796999 16777215
0.001361 -0.025831999 -0.042789001 16777215
0.011811 0.046207 0.015014 16777215
-0.0063029998 0.047026001 0.015776001 16777215
-0.027973 0.024784001 0.033215001 16777215
-0.0035079999 -0.049821001 0.002351 16777215
-0.019499 -0.033769 0.031296 16777215
-0.039423998 -0.024821 0.018155999 16777215
0.026715999 0.0095530003 -0.041170001 16777215
-0.024301 -0.013079 0.041694999 16777215
0.015868001 0.046190999 0.010705 16777215
-0.017139001 -0.015888 0.044202 16777215
0.035916999 -0.032584 0.012175 16777215
-0.015524 0.021304 -0.042486999 16777215
0.025289999 0.036370002 0.023186 16777215
-0.031757001 0.005289 0.038256001 16777215
-0.027442999 0.040814001 0.0090070004 16777215
0.011364 0.039115001 -0.028998001 16777215
0.01339 0.0040460001 0.048004001 16777215
-0.005444 0.012054 -0.048218999 16777215
-0.016913 -0.044675 0.014769 16777215
-0.012639 0.033202998 0.035183001 16777215
-0.035955999 -0.028760999 -0.019493001 16777215
0.015652001 0.040996999 0.023964001 16777215
0.043861002 0.015825 0.018049 16777215
0.030594001 -0.028054001 0.027874 16777215
-0.013406 0.035243999 -0.032836001 16777215
-0.010971 0.01024 0.047695 16777215
-0.0069109998 0.00025499999 -0.049518999 16777215
-0.032189 -0.0086740004 0.037264001 16777215
-0.0040540001 0.043175001 0.024889 16777215
-0.02259 -0.003855 0.044438999 16777215
0.038380999 -0.030613 0.009474 16777215
0.035154998 0.031909 0.015683001 16777215
0.044132002 -0.023432 -0.001825 16777215
0.040387001 -0.028847 0.0060609998 16777215
-0.023497 0.031612001 -0.030799 16777215
-0.021186 -0.043691002 0.011928 16777215
-0.00095800002 -0.047720999 -0.014894 16777215
-0.0097580003 0.047517002 -0.012122 16777215
0.023655999 -0.041441001 -0.014933 16777215
0.030262001 0.008014 0.038987 16777215
-0.045496002 0.020613 -0.0022760001 16777215
-0.0043330002 0.019247999 0.045942999 16777215
-0.0064360001 0.020047 0.045350999 16777215
0.028929999 0.016813001 0.037154 16777215
0.040630002 0.02431 -0.016070999 16777215
0.023965999 -0.012523 0.042057 16777215
0.049743999 -0.00033499999 0.005047 16777215
0.013653 0.047145002 -0.0095389998 16777215
0.026511 -0.034534 -0.024587 16777215
0.038970999 0.001871 0.031268999 16777215
-0.012681 -0.042631999 0.022841999 16777215
0.020936999 0.035886001 -0.027818 16777215
-0.031057 0.0060620001 -0.038713001 16777215
