# .PCD v0.7 - Point Cloud Data file format
VERSION 0.7
FIELDS x y z rgba
SIZE 4 4 4 4
TYPE F F F U
COUNT 1 1 1 1
WIDTH 1120
HEIGHT 1
VIEWPOINT 0 0 0 1 0 0 0
POINTS 1120
DATA ascii
0.001122 -0.036596999 -0.010847 16777215
0.0036510001 0.029782999 0.030161999 16777215
0.043499999 -0.018174 -0.004532 16777215
0.021926001 -0.032644998 -0.011163 16777215
0.045233998 0.006116 0.019681999 16777215
0.047743998 -0.010788 -0.0036909999 16777215
0.006025 0.0319 0.025586 16777215
0.0079020001 0.037021 0.001003 16777215
0.0056500002 0.029222 0.030823 16777215
0.034949999 -0.003208 0.035500001 16777215
0.0034010001 -0.037374999 -0.002261 16777215
-0.026746999 0.031649001 0.001961 16777215
-0.044705998 -0.0049800002 0.021384999 16777215
0.0096169999 -0.036392 -0.007282 16777215
0.043443002 -0.004007 -0.024169 16777215
0.049929999 0.00133 0.0019700001 16777215
-0.02197 -0.018998001 -0.037090998 16777215
0.035014 0.025365001 -0.011409 16777215
-0.046732001 0.010192 -0.011467 16777215
0.032389 0.028568 0.00024600001 16777215
0.048992999 -0.002757 -0.0092829997 16777215
-0.047713999 -0.0062250001 -0.012427 16777215
0.044574 0.014826 0.011063 16777215
-0.037418 -0.016655 -0.024631999 16777215
-0.00272 0.02368 0.038674001 16777215
0.036104001 -0.0021609999 0.034469999 16777215
-0.024411 0.028178999 -0.022190999 16777215
0.026962001 -0.0059850002 -0.041345 16777215
0.0084199999 0.02806 0.032083999 16777215
0.016453 -0.0088320002 0.045724001 16777215
0.049915001 0.00067500002 0.0027709999 16777215
0.0091479998 -0.012313 -0.046333998 16777215
-0.021327 -0.0090509998 -0.043582998 16777215
-0.035592001 -0.02094 -0.021300999 16777215
0.013574 0.036072001 0.0015679999 16777215
-0.019265 0.015053 -0.041545 16777215
-0.019768 -0.022282001 -0.035023 16777215
-0.022962 -0.013837 0.040403001 16777215
-0.028262001 0.003517 0.040979002 16777215
-0.038392 -0.015975 0.023923 16777215
-0.046597 -0.01105 -0.010567 16777215
0.047357 -0.010806 -0.0070509999 16777215
-0.018784 0.03101 -0.020920999 16777215
0.0041649998 -0.035792001 0.014324 16777215
0.011072 -0.0037070001 -0.048508 16777215
-0.049410999 -0.0043879999 0.0049330001 16777215
-0.024391999 0.012754 0.040197 16777215
0.033805002 0.027536999 0.003028 16777215
0.041733 0.017275 0.015092 16777215
0.020510999 -0.021806 -0.035126999 16777215
-0.011764 0.026606999 0.033211999 16777215
0.001834 -0.026838999 0.034871999 16777215
-0.020291001 0.014645 0.041315999 16777215
0.039416999 -0.012926 0.02548 16777215
-0.015594 -0.018898999 0.040272001 16777215
-0.0042119999 -0.000749 0.049812 16777215
-0.049945001 0.001379 -0.001452 16777215
0.006511 -0.025220999 -0.036424998 16777215
0.013869 0.029596999 0.027393 16777215
-0.010547 0.027481001 -0.032343999 16777215
-0.01016 -0.019676 -0.041333999 16777215
-0.048186999 -0.0028530001 -0.012787 16777215
0.021178 -0.033967 0.00061400002 16777215
-0.040212002 0.00090099999 -0.029691 16777215
-0.044015002 0.007057 -0.021774 16777215
-0.034093 0.015706001 -0.029984999 16777215
0.03373 -0.015052 0.030975999 16777215
0.019454001 -0.0063129999 -0.045285001 16777215
0.039544001 0.0084499996 -0.028449001 16777215
-0.010825 -0.035378002 0.012557 16777215
0.012593 -0.0089459997 -0.046895001 16777215
-0.008467 -0.034818001 0.016526001 16777215
-0.042319998 0.019617001 -0.0049859998 16777215
0.001573 0.013769 -0.046480998 16777215
-0.023704 0.031950999 -0.011101 16777215
-0.016760999 -0.011704 0.044447001 16777215
0.045286 -0.00072100002 0.021171 16777215
-0.023372 -0.022926999 -0.031925999 16777215
-0.036230002 0.019943001 0.021917 16777215
-0.0036220001 -0.033537 0.022076 16777215
-0.02919 0.00033899999 0.040592 16777215
-0.013657 -0.027783001 0.030679001 16777215
-0.049063999 -0.0040879999 0.0079349997 16777215
-0.0045250002 0.036371998 0.011299 16777215
0.037916999 0.024002001 -0.0061750002 16777215
0.023252999 -0.031739999 0.012974 16777215
0.019464999 -0.00343 -0.045828 16777215
0.049075 -0.0071009998 0.0014149999 16777215
-0.045529 0.0098449998 0.015964 16777215
-0.039464001 -0.011904 -0.026280999 16777215
-0.017008999 0.033298999 -0.015473 16777215
-0.035721 -0.014878 0.028818 16777215
-0.014983 0.0064599998 0.046918001 16777215
0.028721999 -0.012399 0.037439 16777215
-0.044776998 0.0085899998 -0.019076001 16777215
-0.022519 -0.0052160001 0.044096999 16777215
-0.048718002 -0.0019039999 -0.010957 16777215
-0.044909999 -0.01166 -0.015537 16777215
-0.0040589999 0.037372999 0.00061500003 16777215
-0.027432 -0.018989 0.033263002 16777215
0.022220001 0.033365998 0.0052 16777215
0.0067289998 0.002203 0.049458001 16777215
-0.0049399999 0.035946999 -0.013357 16777215
0.026404999 0.031436998 0.0067719999 16777215
0.03029 0.01911 -0.030549999 16777215
0.027496999 0.0026140001 -0.041614 16777215
-0.04597 -0.014459 0.003884 16777215
-0.010685 0.033675998 0.019228 16777215
0.023584001 -0.0062250001 -0.043299999 16777215
0.011845 -0.012542 -0.045607999 16777215
0.028438 -0.015798001 -0.035321001 16777215
0.0054799998 0.027798001 0.03311 16777215
-0.046948999 -0.0081129996 -0.013372 16777215
-0.01233 -0.034637 -0.014669 16777215
-0.0036919999 0.037379999 -0.001519 16777215
-0.034292001 -0.0060370001 -0.035486002 16777215
0.030285001 -0.029438 0.0064909998 16777215
-0.0031910001 -0.026781 0.034853 16777215
0.043028001 -0.000718 -0.025449 16777215
-0.0036510001 -0.0082480004 -0.048638999 16777215
0.043659002 -8.2999999e-05 -0.02437 16777215
0.036231998 0.023105999 0.015433 16777215
0.011247 0.014641 -0.044636 16777215
0.041032001 -0.0084520001 -0.026257001 16777215
-0.022653 -0.024630001 0.030138999 16777215
0.0038950001 0.037354998 -0.0020300001 16777215
-0.041131999 0.0098289996 0.025227999 16777215
0.027876001 0.023124 -0.027790001 16777215
0.046817999 0.01204 -0.0070989998 16777215
0.019750001 0.033856999 0.008494 16777215
-0.01973 0.001061 -0.045921002 16777215
-0.036237001 0.0063479999 0.033395 16777215
0.046608001 0.012412 0.0073389998 16777215
0.025490999 -0.029908 -0.016125999 16777215
-0.022167001 0.012841 0.041418001 16777215
0.010128 0.032637 0.022445001 16777215
-0.046966001 -0.012298 -0.0050289999 16777215
0.041706 -0.0078490004 0.025517 16777215
0.034653999 0.0088900002 -0.034038 16777215
0.0038680001 0.001761 0.049795002 16777215
-0.043956 0.0049629998 0.022893 16777215
0.013575 0.024253 0.035636999 16777215
-0.048806001 -0.0079600001 -0.0023040001 16777215
-6.1999999e-05 -0.021631001 0.040842999 16777215
-0.026636001 -0.031677 0.002569 16777215
-0.0058329999 -0.0098759998 -0.047881 16777215
0.031877998 0.027488001 -0.011853 16777215
-0.038722001 0.01623 0.023073001 16777215
0.0065509998 -0.023791 0.038089 16777215
-0.012793 0.024184 0.036008 16777215
0.022700001 -0.023241 -0.032005999 16777215
0.032795999 0.016733 0.030440999 16777215
0.026101001 -0.029736999 0.015706001 16777215
-0.046585001 0.0058459998 0.016402001 16777215
0.0053389999 -0.027685 -0.033300001 16777215
-0.037517998 -0.0082430001 -0.031169999 16777215
0.031785 -0.028597999 0.0059779999 16777215
0.047343001 0.011104 0.0062839999 16777215
-0.016479 -0.0076339999 0.046096001 16777215
0.0075480002 -0.034019999 0.019633999 16777215
0.00076099997 -0.037232999 0.0059059998 16777215
0.003517 0.032575 -0.024519 16777215
-0.047295 0.00053600001 0.016208 16777215
-0.044266 -0.014821 -0.012249 16777215
-0.00997 -0.019166 0.041804001 16777215
-0.019749001 0.0031079999 -0.045747001 16777215
0.044667002 0.016195999 -0.006205 16777215
-0.0071530002 -0.019543 0.042070001 16777215
-0.044231001 -0.010435 -0.018709 16777215
-0.026932999 -0.030316999 -0.011858 16777215
-0.048661999 -0.0049549998 -0.0093999999 16777215
-0.003638 0.037351001 -0.002574 16777215
0.03782 -0.0061619999 -0.031656001 16777215
0.035849001 0.020581 0.021491 16777215
-0.023127999 0.02758 0.024754001 16777215
-0.032816 -0.020804999 0.025566 16777215
0.003816 0.036628 -0.01002 16777215
-0.033217002 0.0023739999 -0.037237 16777215
-0.030409001 -0.029725 -0.0021220001 16777215
0.04163 -0.0073609999 0.025896 16777215
0.0035870001 0.037053999 0.0067980001 16777215
0.046362001 -0.0044900002 0.017741 16777215
-0.043111999 -0.010957 0.020685 16777215
-0.005812 0.035108 -0.016581001 16777215
0.0069329999 -0.013482 -0.046139002 16777215
-3.8999999e-05 0.012469 -0.047155 16777215
0.033881001 0.02434 -0.017286999 16777215
-0.04524 0.0099269999 0.016677 16777215
0.040304001 0.001304 -0.02954 16777215
-0.023243999 -0.032818001 -0.0067070001 16777215
-0.0066769999 -0.022694999 0.039239999 16777215
-0.019517999 0.026110999 -0.030117 16777215
-0.038410999 0.018687 0.020094 16777215
-0.0084109996 -0.035996001 -0.011217 16777215
-0.04778 -0.005196 -0.013004 16777215
0.042222001 0.015425 0.017154999 16777215
-0.022781 0.032756001 -0.0085749999 16777215
0.031753 -0.013276 -0.034327 16777215
0.025378 -0.031454001 0.0098569999 16777215
0.049826 0.003115 -0.00039900001 16777215
0.045157 -0.016098 -0.00036199999 16777215
0.026951 -0.016264001 0.036102999 16777215
-0.027803 0.030893 0.0055069998 16777215
0.027239 0.031215001 -0.0050840001 16777215
0.026084 0.0032279999 -0.042440001 16777215
0.0057890001 -0.0081639998 0.048455998 16777215
-0.013478 -0.03607 0.00233 16777215
0.035225999 -0.025029 0.012059 16777215
-0.030443 0.025877001 0.019566 16777215
-0.0040409998 0.0024860001 0.049725998 16777215
0.044755999 -0.001179 0.022236001 16777215
-0.001394 0.029904 0.030138001 16777215
-0.043717001 0.0049149999 0.023365 16777215
-0.026294 0.016202001 0.036633 16777215
-0.022109 -0.017335 0.038431 16777215
0.048549 0.00096999999 0.011888 16777215
0.014072 0.033073001 -0.018905999 16777215
-0.021148 0.016372999 0.039701 16777215
-0.00053199998 0.0054859999 0.049458999 16777215
0.0036220001 -0.025644001 -0.036302 16777215
-0.046911001 0.011494 -0.0080300001 16777215
0.00087500003 -0.016019 -0.045200001 16777215
0.0079420004 -0.0029730001 -0.049206 16777215
0.03066 0.011502 -0.036396999 16777215
0.015225 -0.000329 0.047623001 16777215
0.010072 0.015417 -0.044452 16777215
-0.044744998 0.010796 0.017049 16777215
0.0040589999 0.022522001 0.039771002 16777215
-0.037450001 0.019843999 -0.019936999 16777215
-0.020532001 0.031244 -0.018521 16777215
-0.019478999 0.033073001 0.013267 16777215
0.005595 0.026527001 0.034894999 16777215
-0.046108 -0.014327 -0.003026 16777215
-0.042197 0.012812 -0.020678001 16777215
-0.034616999 -0.0056960001 -0.035270002 16777215
0.010438 -0.035133 -0.014025 16777215
0.041692998 0.00752 0.025712 16777215
0.045573 0.01237 0.012292 16777215
0.028569 0.02478 0.024335001 16777215
0.010448 0.014278 0.045038 16777215
-0.0088919997 -0.035399999 -0.013895 16777215
0.0065390002 0.0097359996 -0.047841001 16777215
-0.026087999 0.025899 -0.025039 16777215
0.026815001 0.015543 0.036761999 16777215
-0.015819 -0.030335 0.024774 16777215
0.01539 -0.0010470001 -0.047552001 16777215
0.010793 0.036596999 -0.001576 16777215
0.019022999 0.034205001 -0.0076230001 16777215
0.00142 0.037485 0.000191 16777215
0.022479 0.032444 -0.011106 16777215
0.029408 0.029697999 0.0082029998 16777215
0.024745001 0.032384999 0.0048099998 16777215
0.011159 -0.036506999 -0.0024639999 16777215
0.010957 0.010603 0.046691 16777215
0.0042639999 -0.0044410001 0.049465001 16777215
0.024924001 0.02396 0.029294999 16777215
-0.040445 -0.020067001 -0.012178 16777215
-0.020366 0.032368999 0.01492 16777215
0.036327001 0.024661999 0.0099560004 16777215
-0.011 0.0077260002 -0.047674999 16777215
0.034297999 -0.027148999 -0.0036470001 16777215
0.029971 0.010079 -0.037698001 16777215
-0.032627001 0.027896 -0.0072150002 16777215
0.03593 0.012099 -0.030802 16777215
0.040963002 -0.014031 0.021726999 16777215
-0.0093569998 -0.033893 -0.019241 16777215
0.0045929998 -0.02286 -0.039368 16777215
0.0056030001 0.027896 0.032942001 16777215
0.0070219999 -0.036251001 -0.010698 16777215
-0.0084809996 -0.017194999 0.043616999 16777215
0.031357002 -0.027752999 0.012143 16777215
0.013726 -0.0089769997 -0.046565998 16777215
-0.00254 0.036448002 0.011482 16777215
-0.027829001 0.013081 0.037701 16777215
-0.04628 -0.010232 0.013118 16777215
-0.034568001 0.013733 -0.031141 16777215
0.016179999 2.3000001e-05 0.047309998 16777215
0.030281 0.029577 -0.0052760001 16777215
0.030482 -0.012206 -0.036138002 16777215
-0.045719001 0.001008 0.020197 16777215
-0.017321 0.021979 -0.036621999 16777215
0.047102001 -0.00056999997 0.016757 16777215
-0.013232 -0.030324001 -0.02627 16777215
-0.0055820001 0.007675 0.048622001 16777215
-0.0074359998 0.030711001 -0.027712001 16777215
0.048611999 0.0041939998 -0.010278 16777215
0.036867999 0.014851 0.027361 16777215
0.010745 -0.025699001 0.034791999 16777215
0.028802 -0.025736 -0.022203 16777215
0.030711999 -0.009149 0.037523001 16777215
0.027837001 -0.030844999 -0.0058050002 16777215
0.042691998 -0.019098001 0.0053790002 16777215
-0.032054 -0.015068 -0.032694001 16777215
0.016478 0.034391001 -0.011219 16777215
-0.020442 -0.019486001 -0.037510999 16777215
0.041299999 -0.013154 0.022061 16777215
-0.002968 0.005531 0.049364001 16777215
-0.024375999 0.031169999 -0.013365 16777215
-0.033656001 -0.010908 -0.033996001 16777215
-0.021397 -0.032246999 0.013908 16777215
0.0089250002 -0.030091001 0.028471 16777215
0.030159 -0.029774999 0.003792 16777215
0.016942 0.010963 -0.044714 16777215
0.002054 0.021311 -0.04109 16777215
0.0085319998 -0.026265001 0.034651998 16777215
-0.015718 0.027282 -0.030492 16777215
-0.01087 0.001527 -0.048762001 16777215
0.047681 -0.0062589999 -0.012525 16777215
-0.0066169999 0.005138 0.049084 16777215
-0.019684 -0.031537 -0.018557999 16777215
0.0071820002 0.030136 -0.028876999 16777215
0.024936 -0.031129001 0.012468 16777215
0.003156 0.001806 0.049842 16777215
0.023734 0.021942999 -0.032875001 16777215
-0.020406 0.014961 -0.041057002 16777215
-0.027817 0.016633 -0.035133999 16777215
-0.003027 0.036687002 -0.0099020004 16777215
0.043591999 0.016139001 0.011691 16777215
-0.027607 0.0043319999 0.041285001 16777215
-0.001043 0.031796001 0.026489001 16777215
0.012178 -0.026044 -0.033849999 16777215
0.005601 -0.028410999 0.032148998 16777215
0.035914999 0.025607999 0.0066590002 16777215
-0.020819001 0.033601001 0.0077089998 16777215
0.018433001 0.0092049995 -0.044828001 16777215
0.048446 0.0036200001 0.011387 16777215
0.046611998 0.0058300002 0.016337 16777215
-0.010093 0.026221 0.034290999 16777215
0.025665 0.031197 -0.010542 16777215
0.038290001 0.013996 -0.026184 16777215
0.049035002 -0.0053190002 -0.0067309998 16777215
0.026870999 0.012067 0.038975 16777215
0.011754 -0.029263999 -0.028972 16777215
-0.030497 0.001685 0.039558999 16777215
0.00229 0.019081 0.042982001 16777215
-0.025137 0.011031 -0.040642001 16777215
0.046817001 0.0091439998 0.012632 16777215
0.030618001 0.023961 0.023278 16777215
0.034132998 0.024708999 0.015796 16777215
-0.023221999 -0.0027010001 -0.044133998 16777215
0.037523001 0.023561001 -0.010256 16777215
-0.012336 -0.019308999 -0.041049 16777215
0.013209 0.013767 0.044594001 16777215
-0.021980001 0.0021619999 0.044817001 16777215
-0.001915 -0.019695999 0.042505 16777215
-0.047396999 -0.0067579998 -0.013126 16777215
-0.0053079999 -0.017263999 -0.044068001 16777215
0.027201001 0.030095 0.012246 16777215
-0.042699002 0.00095800002 0.025984 16777215
-0.011631 -0.016178001 0.043582 16777215
0.033333998 0.022995999 -0.021183001 16777215
-0.0080350004 0.028798999 0.030999999 16777215
-0.025772 0.015586 -0.037469 16777215
-0.019347999 -0.033861 -0.0093419999 16777215
0.0090309996 -0.023905 0.037450001 16777215
0.03695 -0.020082001 0.020438001 16777215
-0.0049709999 0.028868999 0.031523 16777215
0.029422 0.030169999 0.0040239999 16777215
-0.00075299997 -0.031544 -0.027028 16777215
0.0049859998 0.025715999 0.036047999 16777215
0.0054819998 -0.022399001 0.039724 16777215
-0.0093149999 -0.0081259999 -0.047915 16777215
0.039069001 -0.020497 0.015057 16777215
-0.014446 -0.021207999 -0.038623001 16777215
0.012307 0.025784999 -0.034155 16777215
-0.030278999 -0.029829999 -0.001128 16777215
-0.036986999 0.017601 0.024108 16777215
-0.00076899998 0.035271 0.016965 16777215
0.028529 0.030645 0.0040719998 16777215
-0.000485 0.0069840001 -0.049123 16777215
-0.036148999 0.022094 0.018041 16777215
-0.032981001 0.0075449999 0.036208 16777215
0.038695 -0.023488 0.0046760002 16777215
-0.045733001 -0.014854 0.0040270002 16777215
0.026846999 -0.014417 -0.037546001 16777215
-0.032836001 0.026730999 0.012311 16777215
0.045302 0.015601 0.003877 16777215
-0.034736998 0.019898999 -0.024276 16777215
0.021249 0.033944 -0.000348 16777215
-0.042945001 -0.014805 0.016311999 16777215
-0.003541 -0.029074 0.031380001 16777215
-0.01075 0.036621999 -0.00031100001 16777215
-0.027631 -0.015575 -0.036127999 16777215
0.00092399999 0.019646 -0.042578999 16777215
0.0042190002 -0.036311999 -0.011753 16777215
0.00145 -0.01541 -0.045559999 16777215
-0.014882 0.020059999 -0.039537001 16777215
0.030846 -0.0072280001 -0.038153 16777215
0.030584 -0.011308 0.036568999 16777215
0.048512001 0.0089800004 -0.0017960001 16777215
0.030889001 0.0099999998 -0.036988001 16777215
-0.047463 -0.004247 -0.014668 16777215
0.048617002 -0.0060510002 0.008444 16777215
0.011312 -0.034644999 -0.015433 16777215
-0.02978 0.000355 0.040160999 16777215
0.001697 -0.011417 0.047596 16777215
0.035928 0.014033 0.029310999 16777215
-0.037248999 0.022722 0.013953 16777215
0.031507 0.014656 0.033548001 16777215
-0.020718999 0.0081080003 0.044202 16777215
0.010701 -0.035039 0.014241 16777215
-0.013692 0.034350999 0.014654 16777215
0.021467 0.022696 0.033516999 16777215
-0.019529 -0.021803999 -0.035686001 16777215
0.037351999 0.024532 0.005905 16777215
0.0097420001 -0.032991 -0.021683 16777215
-0.01347 0.025072999 0.034655001 16777215
-0.023257 -0.019331001 -0.035983 16777215
0.033498999 0.010191 -0.034542002 16777215
0.020731 0.027461 -0.027009999 16777215
-0.046372999 -0.01379 -0.0033819999 16777215
-0.049268998 -0.0062139998 -0.0019690001 16777215
0.037496001 -0.018134 0.022570999 16777215
0.038166001 -0.0016890001 0.032221999 16777215
-0.003576 -0.019041 -0.042925999 16777215
0.010315 0.035994001 0.0095100002 16777215
-0.022016 0.012435 0.041717999 16777215
0.026543999 0.023593999 0.028387001 16777215
-0.0059389998 -0.013337 0.046351999 16777215
0.016582999 0.0023670001 0.047063999 16777215
-0.033734001 -0.023530001 -0.019436 16777215
0.003216 0.033980999 0.0209 16777215
0.04761 0.0099210003 0.0076330001 16777215
-0.049695998 -0.0036810001 -0.0024929999 16777215
-0.046895999 -0.01048 -0.010272 16777215
-0.0095690005 0.018828999 -0.042167999 16777215
-0.043037999 -0.0066780001 -0.023841999 16777215
0.035280999 0.01032 -0.032648999 16777215
-0.02217 -0.031590998 0.015306 16777215
-0.002166 -0.036476001 -0.011401 16777215
0.0021240001 -0.0089069996 0.048523001 16777215
0.024285 -0.025532 -0.027410001 16777215
0.049470998 0.0043500001 -0.0043580001 16777215
-0.017346 0.008134 -0.045623001 16777215
0.027239 0.022024 0.029928001 16777215
0.042601999 -0.019130001 0.0058670002 16777215
-0.0034680001 -0.037117001 -0.0062239999 16777215
-0.0029190001 0.031656999 -0.026644001 16777215
0.0017040001 0.018325999 -0.043589 16777215
0.026729999 0.031008 0.0087289996 16777215
0.023621 -0.011281 0.041423 16777215
0.011605 0.035673 0.010151 16777215
0.00028099999 -0.0028220001 0.049857002 16777215
0.045536 0.013086 0.011048 16777215
-0.023965999 0.021633999 0.033069 16777215
0.040274002 0.010443 -0.026155001 16777215
0.024142999 0.027074 0.024778999 16777215
-0.006023 0.02688 0.034340002 16777215
-0.021326 -0.021128001 0.035379 16777215
-0.0028639999 -0.013234 0.046695001 16777215
0.034623999 -0.014748 0.030241 16777215
0.049710002 0.0036470001 0.0023000001 16777215
-0.023986001 0.014138 0.039613999 16777215
-0.033920001 0.022096001 -0.021942999 16777215
-0.008715 0.017804001 0.043134 16777215
-0.022057001 -0.033604998 0.002418 16777215
-0.025312999 0.031424999 -0.01018 16777215
0.001589 -0.036812 0.0093999999 16777215
-0.042952999 -0.0095760003 0.022182001 16777215
0.024145 -0.0068359999 0.042824998 16777215
0.010749 -0.035514001 -0.011929 16777215
-0.019362001 -0.011726 -0.043366998 16777215
-0.011715 -0.017674999 0.042513002 16777215
-0.035246 -0.025935 0.0078710001 16777215
-0.0077940002 0.02272 0.039007001 16777215
0.0035870001 0.00015199999 0.049871001 16777215
-0.037845999 -0.0070489999 0.031293999 16777215
0.034586001 -0.024681 -0.014862 16777215
0.017074 0.026842 -0.030456999 16777215
0.016233001 -0.034983002 0.0078019998 16777215
0.015233 -0.011652 0.045017 16777215
0.036001999 -0.000505 -0.03469 16777215
0.0082740001 -9.5000003e-05 -0.049309999 16777215
-0.000172 -0.036908999 -0.0088379998 16777215
0.049733002 -0.0038459999 0.00061300001 16777215
0.02791 -0.0043520001 0.041076999 16777215
-0.006999 -0.034658 0.017766001 16777215
0.014542 0.0032190001 -0.047646001 16777215
0.045069002 -0.0091350004 -0.017901 16777215
0.032019999 0.0066300002 0.037370998 16777215
0.043953001 -0.0033120001 -0.023422999 16777215
-0.029895 -0.024861 -0.022526 16777215
-0.031819999 0.016426001 0.031746 16777215
0.012003 0.036327001 -0.0031330001 16777215
0.045623001 -0.0066769999 -0.018418999 16777215
0.034929 0.0096340002 -0.033390999 16777215
-0.029412 -0.026047001 -0.020709001 16777215
0.034405999 0.027207 -0.000466 16777215
0.037565 -0.023088001 -0.011882 16777215
-0.041157998 0.00875 0.025882 16777215
0.027690999 -0.0041419999 0.041264001 16777215
-0.009381 -0.023458 -0.037864 16777215
-0.023476001 -0.013945 -0.040040001 16777215
0.013917 0.013403 -0.044574998 16777215
0.022209 0.0098860003 0.042814001 16777215
0.015484 0.014896 -0.043195002 16777215
-0.011773 0.003521 0.048367001 16777215
0.027551999 0.0028260001 0.041553002 16777215
0.047433 -0.010961 0.0060410001 16777215
-0.0083999997 -0.034281999 0.018443 16777215
-0.045646001 0.0153 -0.000581 16777215
-0.040449999 -0.021777 -0.0045469999 16777215
0.02046 -0.025257001 0.030778 16777215
0.015135 -0.031622 -0.022209 16777215
-0.016132999 -0.020059999 0.039043002 16777215
-0.034552 0.024421999 -0.015679 16777215
0.024588 0.02104 -0.033293001 16777215
0.001089 0.002081 -0.049911 16777215
-0.025257999 0.017963 0.035893999 16777215
-0.00053100003 0.031571001 0.026977001 16777215
0.0022150001 0.034933001 -0.018046999 16777215
0.022841999 -0.032184999 0.011692 16777215
-0.031895999 0.026717 -0.014616 16777215
-0.038614001 -0.023426 -0.005775 16777215
-0.019482 -0.0016580001 0.045995001 16777215
-0.00501 -0.011149 -0.047474999 16777215
-0.013969 0.024098 -0.035672002 16777215
0.046177 -0.014048 0.0041069998 16777215
0.049302001 -0.0054569999 -0.0040440001 16777215
0.025359999 -0.015966 0.037466001 16777215
0.01795 -0.025124 -0.03249 16777215
0.044073001 -0.015205 -0.012105 16777215
-0.019421 0.032972999 0.013783 16777215
-0.041719999 -0.016976999 -0.015718 16777215
0.021733999 -0.004003 0.044712 16777215
-0.017623 -0.030199001 0.023836 16777215
-0.037059002 0.00058499997 0.033555999 16777215
0.012433 -0.017251 0.042619001 16777215
0.030966001 0.029439 0.000596 16777215
0.00716 -0.028895 -0.031056 16777215
0.040814999 -0.020794 -0.0080930004 16777215
0.024968 -0.027295999 0.023495 16777215
-0.049927 0.0017190001 0.0014449999 16777215
-0.02214 0.028956 -0.022786999 16777215
-0.0085880002 -0.029417999 0.029795 16777215
0.00109 -0.0088090003 -0.048588999 16777215
-0.020993 0.034030002 0.00073999999 16777215
-0.048025001 -0.0051799999 -0.012078 16777215
-0.019146999 -0.022159001 0.035503 16777215
0.023048 0.033273999 0.00069299998 16777215
-0.010603 -0.018575 0.042121001 16777215
-0.012141 -0.000195 -0.048503 16777215
0.0094990004 -0.0044840002 -0.048723999 16777215
0.043837 0.0083179995 -0.021338001 16777215
-0.034880001 -0.003758 -0.035473 16777215
-0.012099 0.033555999 0.018757001 16777215
0.026551001 0.030453 0.012098 16777215
-0.040107999 -0.019384 0.014946 16777215
-0.042727999 -0.0048600002 -0.025147 16777215
-0.016557001 0.021988001 0.036963999 16777215
-0.0493 -0.0036840001 0.0067329998 16777215
-0.015914001 -0.022569001 0.036623001 16777215
0.028031999 0.001359 0.041363001 16777215
0.037014 -0.024684999 -0.0068310001 16777215
-0.025347 -0.003119 -0.042897999 16777215
0.018315 -0.019636 -0.038458999 16777215
-0.013069 0.026086001 0.033459 16777215
-0.026706999 0.013181 -0.038442999 16777215
0.029552 -0.026392 -0.019707 16777215
-0.036513999 -0.018007999 -0.024294 16777215
0.027093999 0.025491999 0.024711 16777215
-0.012853 0.036237001 -0.00061300001 16777215
0.023321999 -0.032492999 -0.0088950004 16777215
-0.035838999 -0.0022189999 -0.034738999 16777215
-0.046271998 0.0087200003 -0.014958 16777215
0.006294 0.033590999 0.021318 16777215
0.019857001 0.010865 -0.043540999 16777215
0.013459 0.011874 0.045476999 16777215
-0.029014001 -0.0062509999 0.039859001 16777215
-0.018474 0.031507 -0.019849 16777215
0.006025 -0.0088889999 0.0482 16777215
-0.041204002 -0.014354 0.020880001 16777215
0.02314 -0.0019960001 -0.044243 16777215
0.033114001 0.024801999 -0.017602 16777215
-0.0029569999 -0.035317 0.016547 16777215
0.028539 -0.013447 0.036934 16777215
-0.013701 -0.033675 0.017213 16777215
0.012138 0.0073119998 -0.047515001 16777215
0.020765999 -0.022245999 0.034481 16777215
-0.0094919996 -0.026342001 -0.034297999 16777215
-0.014418 0.035463002 -0.0075050001 16777215
-0.0016740001 0.035409 0.016378 16777215
-0.032772999 -0.026069 0.014757 16777215
-0.039314002 -0.023099 0.002417 16777215
0.018585 0.021782 0.036208998 16777215
-0.013765 -0.011804 0.045418002 16777215
0.030305 -0.001096 0.039742999 16777215
-0.015453 -0.013153 -0.044199999 16777215
-0.0078210002 -0.0052760001 0.048881002 16777215
-0.01891 0.034712002 -0.00057400001 16777215
-0.010179 0.032767002 -0.022081999 16777215
-0.048864 -0.0035590001 -0.0094729997 16777215
-0.023094 -0.033259999 0.00029500001 16777215
0.038566999 -0.021992 -0.012359 16777215
-0.045584001 -0.0065469998 0.018596999 16777215
-0.043924998 -0.014767 -0.013526 16777215
0.0054700002 0.033101 0.022852 16777215
-0.021986 -0.02361 -0.032026 16777215
0.032481 0.027584 -0.0096079996 16777215
-0.045627002 0.0063280002 0.018626999 16777215
-0.029501 0.028709 -0.012821 16777215
0.0057589998 0.011932 -0.047049999 16777215
-0.024929 -0.020267 0.033886999 16777215
0.014457 0.034689002 0.01232 16777215
0.047013 0.00059399998 -0.017004 16777215
0.018990001 -0.020919001 -0.036897998 16777215
0.045393001 -0.0062239999 -0.019251 16777215
0.030263999 0.029720999 -0.0037070001 16777215
0.024208 -0.031909999 -0.010189 16777215
0.018973 0.033275001 0.013103 16777215
0.039760001 -0.015325 0.022396 16777215
-0.010922 -0.030623 -0.026712 16777215
0.017213 -0.016504001 -0.041467 16777215
-0.01788 -0.023867 0.034170002 16777215
0.0079910001 -0.014851 0.045210999 16777215
-0.022493999 -0.033261999 0.0052109999 16777215
0.026083 0.011497 0.039808001 16777215
-0.027299 0.026887 -0.021670001 16777215
0.000432 -0.036777999 0.0097549995 16777215
-0.037733998 0.006602 -0.031601999 16777215
-0.025418 0.024888 0.027437 16777215
0.0036220001 0.017045001 -0.044388998 16777215
-0.039448999 -0.01884 -0.017684 16777215
0.018203 0.024777999 -0.032820001 16777215
-0.018107001 -0.030208999 -0.023448 16777215
-0.021922 0.032821 -0.010215 16777215
-0.043368001 0.010091 0.020933 16777215
0.01478 -0.021059999 0.03864 16777215
0.047286 0.0059219999 0.014201 16777215
0.028441999 0.023119999 0.027217001 16777215
0.012638 -0.023460999 0.036901999 16777215
-0.0066780001 0.026823999 0.034297001 16777215
-0.016294001 -0.027078001 0.030512 16777215
-0.037275001 0.015623 -0.026013 16777215
-0.044551 0.001905 0.022554999 16777215
-0.0055820001 -0.022872999 -0.039227001 16777215
0.042615 0.017587001 -0.011578 16777215
-0.021322001 -0.031762 0.015872 16777215
0.023701999 -0.029623 -0.019446 16777215
0.029332001 -0.027058 -0.018385001 16777215
-0.00046499999 -0.018631 0.043389998 16777215
-0.020864001 0.032552999 0.013448 16777215
0.0046140002 0.0094130002 -0.048179001 16777215
-0.028937001 0.011811 -0.037611999 16777215
0.045993 0.0058499998 0.017996 16777215
-0.022407001 -0.010323 -0.042525999 16777215
-0.043246001 0.002422 0.024888 16777215
0.039484002 -0.022746 0.0046009999 16777215
0.013211 -0.025839999 0.033739999 16777215
0.0034070001 0.035204999 -0.016882 16777215
-0.022868 0.0059139999 0.043759 16777215
-0.049791999 0.0019759999 -0.0037209999 16777215
0.037556 -0.018983001 -0.021187 16777215
0.023448 -0.018913001 0.036253002 16777215
-0.045035999 -0.010281 -0.016847 16777215
0.015817 0.015156 -0.042911999 16777215
-0.00061400002 -0.033332001 0.022902001 16777215
0.0096969996 0.000166 -0.04905 16777215
0.00096099998 0.037349001 -0.004375 16777215
0.011636 -0.016238 -0.043542001 16777215
0.024351001 0.020041 -0.034540001 16777215
-0.017715 0.022499001 -0.035863999 16777215
-0.031780001 -0.022304 0.024608999 16777215
-0.030687001 0.026287001 0.018161001 16777215
-0.0055180001 -0.0054219998 -0.049166001 16777215
0.0075329999 -0.028375 0.031810001 16777215
0.034277 0.0010329999 -0.036375001 16777215
-0.006935 0.035062999 -0.016318001 16777215
0.046824999 0.00049000001 0.017519999 16777215
-0.012162 0.011392 0.046057999 16777215
0.002787 -0.03734 -0.003673 16777215
-0.031842999 0.018262999 -0.029883999 16777215
-0.038417 -0.004406 0.031459 16777215
0.032680999 -0.027168 -0.010943 16777215
-0.041593 0.020089 -0.0072479998 16777215
0.01722 0.031762 0.020249 16777215
-0.043726001 -0.013893 -0.01565 16777215
0.0043179998 -0.034203999 0.020039 16777215
0.044094 -0.017361 -0.0044590002 16777215
0.007241 -0.0102 0.047566999 16777215
-0.013422 -0.016567999 0.042800002 16777215
0.014386 -0.022815 0.036982 16777215
0.003064 -0.036782999 0.0092369998 16777215
-0.022226 0.032954998 -0.0086770002 16777215
0.0069909999 -0.026489999 -0.034694001 16777215
0.033066001 -0.026695 0.011821 16777215
-0.024796 -0.027834 -0.022535 16777215
-0.033642001 -0.013172 0.032554999 16777215
-0.0066999998 -0.036621999 0.0084140003 16777215
0.042282 0.019127 0.0078680003 16777215
0.024742 0.01518 0.038447 16777215
-0.049070001 0.0070460001 -0.001963 16777215
0.017552 -0.0073779998 0.045773 16777215
0.037765998 0.0078099999 -0.031068999 16777215
0.0053639999 0.033553001 -0.021676 16777215
-0.0090760002 -0.022116 -0.039345998 16777215
-0.042110998 0.017511001 -0.013472 16777215
-0.041503999 0.017514 0.015235 16777215
-0.04253 0.019709 0.000802 16777215
0.038274001 -0.015567 0.024581 16777215
0.033922002 0.017227 0.028665001 16777215
-0.038361002 -0.0046290001 0.031468999 16777215
0.0093459999 0.011225 0.046783 16777215
-0.0061570001 -0.010049 -0.047775999 16777215
-0.002991 -0.034982 0.017762 16777215
0.030235 -0.029777 0.0030789999 16777215
-0.042179 0.010614 0.022818999 16777215
-0.028441999 0.0060700001 -0.040318001 16777215
-0.049984999 -0.00091399997 -0.000204 16777215
-0.0057390002 0.036649 -0.0088980002 16777215
0.031495001 -0.023274001 -0.023347 16777215
-0.025713 -0.020785 0.032722998 16777215
-0.046156 -0.013091 -0.0080599999 16777215
0.012569 -0.023996999 0.036309 16777215
-0.0040989998 0.012226 -0.047090001 16777215
0.0058050002 0.036504999 0.0098569999 16777215
-0.011793 -0.032529999 -0.021901 16777215
0.036555 -0.00136 -0.034065001 16777215
0.00048799999 -0.018968999 0.043127999 16777215
0.016012 0.015857 -0.042385999 16777215
-0.027286001 -0.011458 0.039014 16777215
0.049029 -0.0054319999 -0.0066120001 16777215
-0.029263999 0.023519 -0.025695 16777215
0.030654 -0.026250999 0.018310999 16777215
-0.01303 -0.034926001 0.012714 16777215
0.037909001 0.019125 -0.020314001 16777215
0.039730001 0.017072 0.020086 16777215
0.047827002 0.0058800001 0.012294 16777215
0.012847 -0.025246 0.034667999 16777215
0.012834 -0.033188999 0.019419 16777215
-0.023076 0.006637 0.043465 16777215
-0.032573 -0.020285999 0.026597001 16777215
-0.0032569999 0.032170001 0.025486 16777215
-0.035884 -0.0061420002 -0.033842001 16777215
0.039377999 0.0040799999 -0.030328 16777215
-0.018719001 0.032793 -0.015421 16777215
-0.036281999 -0.00015599999 0.034403 16777215
0.0060919998 0.035705999 0.014011 16777215
0.034775998 -0.024049001 0.016201001 16777215
0.025708999 -0.0085199997 -0.041352 16777215
-0.023445999 0.01297 0.040635001 16777215
0.010144 -0.014306 -0.045090999 16777215
0.043540001 0.010719 -0.020001 16777215
0.032586001 0.027332 0.010493 16777215
0.040676001 -0.0024610001 -0.028891999 16777215
-0.03167 0.019614 0.028515 16777215
0.048985001 -0.0074669998 0.001173 16777215
0.034832001 0.023004999 0.018595999 16777215
-0.003644 -0.027513999 -0.033778001 16777215
-0.045021001 0.0019950001 -0.021588 16777215
0.0047630002 0.036837 -0.0080549996 16777215
-0.047982 -0.001214 0.013969 16777215
-0.039214998 0.013125 -0.025612 16777215
0.025531 -0.030801 0.012714 16777215
-0.029821999 0.029409001 0.0085509997 16777215
0.011874 -0.028832 0.029685 16777215
-0.0073009999 -0.022666 0.039159 16777215
0.041196 -0.0099879997 0.025010001 16777215
-0.039765999 -0.0083849998 0.028171999 16777215
0.020245001 0.030456999 0.021002 16777215
-0.001774 0.032515999 -0.024845 16777215
0.047706999 -0.0047249999 -0.013578 16777215
-0.012645 -0.017585 0.042312998 16777215
-0.041602999 -0.0087869996 0.025138 16777215
-0.026904 0.025429999 -0.025031 16777215
-0.020788001 -0.032396998 0.014211 16777215
-0.048448 0.0092420001 -0.00096400001 16777215
0.02973 0.029017 0.010921 16777215
0.039861999 0.017841 -0.018579001 16777215
0.028658001 -0.025525 0.022814 16777215
0.032898001 0.023940001 -0.01997 16777215
0.010479 0.036026001 -0.009106 16777215
0.034201998 -0.027063999 0.0052979998 16777215
0.021367 -0.018448999 -0.037926 16777215
0.035225999 5.0999999e-05 -0.035484001 16777215
-0.034398999 -0.0024619999 0.036138002 16777215
-0.019394999 -0.010504 -0.043906 16777215
-0.028457999 -0.017388999 -0.033950001 16777215
-0.029300001 0.021184999 0.029046001 16777215
0.0084239999 0.036901999 0.0028629999 16777215
-0.047695 0.010572 0.0051509999 16777215
-0.01111 -0.036238 0.00648 16777215
-0.04874 0.0083189998 -0.001179 16777215
-0.001627 0.026896 0.034802999 16777215
0.011958 0.0034479999 -0.048331 16777215
-0.04518 0.014146 -0.010148 16777215
0.022155 0.00089800003 -0.044808 16777215
0.047754999 0.010742 -0.003788 16777215
-0.00459 0.015264 0.045439001 16777215
-0.034428 -0.026755 0.0064909998 16777215
0.032637998 -0.026403001 -0.01398 16777215
0.030812999 -0.0068910001 -0.038290001 16777215
-0.02713 0.0050829998 -0.041448999 16777215
-0.014859 -0.026689 -0.031824999 16777215
0.039721999 0.003582 0.029989 16777215
-0.00050899998 -0.035863999 -0.014598 16777215
0.0198 -0.022932 -0.034249999 16777215
0.020166 -0.030726001 0.020369999 16777215
-0.026000001 0.011088 -0.040068001 16777215
-0.042033002 -0.0090800002 0.024220999 16777215
0.013971 0.034157 -0.01519 16777215
-0.0087010004 -0.025385 -0.035758 16777215
-0.030482 -0.029722 -0.00062599999 16777215
0.038453002 -0.014834 0.025103001 16777215
0.024526 -0.016109001 0.037909999 16777215
0.040798999 0.0047129998 0.028213 16777215
0.045761 0.013778 -0.0082740001 16777215
0.0059639998 0.014574 -0.045682002 16777215
-0.033236999 -0.027999001 0.001249 16777215
-0.048629001 0.0072960001 -0.0063720001 16777215
-0.047440998 0.010817 -0.0064289998 16777215
-0.02011 0.028480999 -0.025564 16777215
-0.0098700002 0.024460001 0.036591001 16777215
0.026936 -0.013245 -0.038242999 16777215
0.030723 -0.019803001 0.029307 16777215
0.031127 -0.022386 -0.025302 16777215
0.014005 -0.028086999 0.030024 16777215
0.01087 -0.027620999 0.032023001 16777215
-0.035565 -0.005136 0.034471001 16777215
-0.023429999 0.031908002 0.011875 16777215
-0.047242999 -0.0090150004 -0.011119 16777215
-0.014505 -0.0058889999 -0.047201 16777215
-0.044613998 -0.013445 0.013717 16777215
-0.023463 -0.012169 -0.041064002 16777215
0.023032 -0.032822002 0.0073719998 16777215
-0.048202999 -1.9999999e-05 0.013283 16777215
-0.034867 0.019721 0.024349 16777215
-0.021934999 -0.024108 0.031394001 16777215
0.003125 -0.031874001 0.026156001 16777215
-0.0070239999 0.0044410001 -0.049148999 16777215
-0.033144999 -0.017510001 0.029262999 16777215
-0.020087 0.013708 0.041981999 16777215
-0.018895 0.027617 0.028054001 16777215
-0.02582 0.0088109998 0.041173998 16777215
-0.00041099999 -0.010649 0.047940001 16777215
0.034189999 0.023784 0.018038001 16777215
0.008657 -0.035379998 0.014133 16777215
0.032940999 -0.0086519998 0.035801999 16777215
-0.0030970001 -0.036699999 -0.0097930003 16777215
0.02981 -0.011001 -0.037365999 16777215
-0.040442999 0.021149 -0.0083149998 16777215
-0.016303999 0.015165 -0.042723998 16777215
-0.025417 0.0039280001 -0.042738002 16777215
0.0018720001 -0.025873 -0.036144 16777215
0.048757002 -0.0082170004 0.001639 16777215
-0.030576 -0.026802 -0.016971 16777215
-0.020039 0.026249999 0.029554 16777215
0.0071760002 0.036981001 -0.0041439999 16777215
-0.028483 -0.030161999 0.0084509999 16777215
-0.042096 0.00185 -0.026867 16777215
0.003397 -0.036118001 -0.013015 16777215
0.017402001 0.033576 0.013894 16777215
0.01257 0.02282 0.037633002 16777215
0.048971001 0.0073589999 0.002352 16777215
-0.016607 0.01833 0.040335 16777215
-0.048023999 0.001747 0.013723 16777215
0.020288 -0.032184999 -0.015713001 16777215
-0.0057100002 0.036940999 0.0064340001 16777215
-0.036123 0.025729001 0.0042829998 16777215
-0.046709001 0.00064899999 -0.017819 16777215
-0.029893 0.03005 0.001021 16777215
-0.024258999 -0.015985999 0.038173001 16777215
0.000657 -0.023766 0.038671002 16777215
-0.012853 -0.035805002 0.0074649998 16777215
-0.043563001 0.013847 0.016166 16777215
-0.006517 -0.002208 -0.049486 16777215
0.028879 0.0064110002 0.039912 16777215
0.038167 -0.010849 0.028879 16777215
-0.020118 -0.013186 -0.042263001 16777215
-0.044580001 0.0044129998 -0.021864001 16777215
0.00176 -0.033890001 0.021333 16777215
0.019952999 -0.0087519996 -0.044335999 16777215
0.00034500001 -0.035789002 -0.014926 16777215
0.022186 0.033606 0.00029699999 16777215
0.022679999 -0.015116 0.039742 16777215
0.018172 -0.034666002 0.005779 16777215
0.001824 -0.0059540002 0.049332 16777215
-0.047123998 0.012534 0.00029 16777215
-0.021186 -0.023794999 0.032319002 16777215
0.010775 0.03348 -0.019778 16777215
-0.017007001 -0.018305 0.040188 16777215
-0.017323 -0.017162999 0.040941998 16777215
0.020793 0.029739 -0.022258 16777215
-0.02124 0.028168 0.025265001 16777215
-0.023706 -0.025784999 -0.027496001 16777215
-0.021523001 -0.033266 0.0083349999 16777215
0.035296001 0.026055001 -0.0068799998 16777215
0.011917 -0.022305001 -0.038385998 16777215
0.048165001 0.0080859996 0.0079950001 16777215
0.038637999 -0.018949 0.019203 16777215
-0.030782999 -0.0032220001 -0.039166 16777215
-0.007733 -0.018594 0.042727001 16777215
0.020684 0.034017 0.0038709999 16777215
0.021071 0.029271999 0.023081999 16777215
-0.031808998 0.021024 0.026503 16777215
0.0090920003 -0.024243001 0.037046999 16777215
-0.021515001 0.032791998 -0.011201 16777215
0.012383 0.025813 -0.034088999 16777215
0.001676 -0.03554 0.015865 16777215
-0.036493 -0.023304 0.014242 16777215
0.04239 -0.011901 -0.021244001 16777215
-0.001269 0.0041120001 -0.049681999 16777215
0.033397 0.01449 0.031801999 16777215
0.024398999 -0.032616001 0.0036800001 16777215
-0.048611 0.00875 -0.000925 16777215
-0.001745 0.037220001 0.005841 16777215
0.018906999 0.033277001 -0.013188 16777215
-0.0058519999 -0.036557 -0.009482 16777215
0.043822002 -0.006972 0.022208 16777215
0.026261 -0.0090279998 0.04081 16777215
-0.031498998 0.019063 0.029355999 16777215
0.037850998 0.019898999 -0.019060999 16777215
0.011692 -0.024518 -0.035980001 16777215
0.035955999 -0.025223 -0.0087270001 16777215
0.045990001 -0.013403 -0.0080979997 16777215
0.0274 0.026240001 -0.022917001 16777215
-0.00034900001 0.035604998 -0.015690999 16777215
0.042598002 0.006424 0.024738999 16777215
0.022611 -0.018957 -0.036740001 16777215
0.017565999 -0.024867 0.033047002 16777215
-0.033783998 -0.015222 -0.030769 16777215
-0.048735 -0.0083339997 -0.001187 16777215
0.014046 0.028894 -0.02861 16777215
0.01202 -0.036171999 0.0054319999 16777215
0.028689001 -0.030616 -0.0032560001 16777215
-0.038309999 -0.0081209997 -0.030251 16777215
0.022855001 -0.004125 -0.044128999 16777215
-0.012087 -0.029865 -0.027718 16777215
0.0030650001 0.030431001 -0.029056 16777215
-0.027365999 -0.0053110002 -0.041243002 16777215
-0.037432 -0.0036239999 -0.032795001 16777215
-0.035725001 -0.026062001 -0.0040270002 16777215
-0.029836001 -0.029309001 -0.0090910001 16777215
0.0043649999 -0.00071400002 0.049800001 16777215
-0.024727 -0.030196 0.016359 16777215
-0.019179 0.023407999 0.034031 16777215
0.039730001 -0.010485 0.026945001 16777215
0.037307002 -0.012492 0.028822999 16777215
0.045104001 0.0022460001 -0.021369999 16777215
0.020035001 -0.0055689998 0.045205001 16777215
-0.0067710001 0.01811 0.043256 16777215
-0.043076001 0.016697001 -0.012199 16777215
-0.030241 0.010455 -0.037299 16777215
0.045166999 0.0090969997 0.017688001 16777215
0.035964001 0.021546001 -0.019526999 16777215
-0.015088 -0.017581001 -0.041506998 16777215
0.041668002 -0.0033420001 -0.027275 16777215
-0.014269 -0.0078819999 0.046753999 16777215
-0.032621 0.027991001 -0.0065509998 16777215
0.023602 -0.024558 0.029510001 16777215
-0.001068 -0.016485 -0.044897001 16777215
0.038034 -0.022404 -0.012692 16777215
0.031654999 -0.025188999 -0.019235 16777215
0.026598999 -0.003736 -0.042043999 16777215
-0.017818 0.019995 0.038364001 16777215
-0.037670001 -0.0138 -0.027248001 16777215
-0.012672 -0.031028001 -0.025057999 16777215
-0.031927001 0.026004 -0.016690999 16777215
-0.032995999 0.02416 0.019328 16777215
0.039044999 0.020241 -0.015721001 16777215
0.015334 0.021645 0.037842002 16777215
0.028303999 0.025803 0.022698 16777215
-0.047449 -0.001599 0.015621 16777215
-0.027296999 -0.0055610002 -0.041230001 16777215
0.0074999998 0.0054589999 0.048896 16777215
0.0071660001 0.036539 0.0086709997 16777215
0.030541001 -0.015119 -0.034072001 16777215
0.042886 -0.001825 0.025590001 16777215
0.029236 -0.0052049998 -0.039964002 16777215
0.0098740002 -0.036688 0.0031020001 16777215
0.01627 0.017514 0.041108999 16777215
0.012644 0.035843998 0.0074840002 16777215
-0.012584 0.001278 0.048360001 16777215
0.019605 -0.026807999 -0.028949 16777215
0.045807 0.013793 0.0079690004 16777215
0.048723001 0.007638 -0.0047289999 16777215
-0.0076799998 -0.036596999 0.0077399998 16777215
0.022759 0.006484 0.043673001 16777215
-0.023002001 0.029774001 0.019872 16777215
-0.026051 0.025648 -0.025532 16777215
0.044062998 0.011607 0.017858 16777215
-0.047164001 0.01112 -0.007466 16777215
-0.013336 -0.010624 -0.04606 16777215
-0.031109 -0.001057 0.039117999 16777215
0.018294999 -0.026295001 -0.030595999 16777215
0.042916998 0.015141 0.015829001 16777215
0.036463998 -0.017565999 0.024937 16777215
-0.00080699997 -0.028325001 0.032758001 16777215
-0.0011690001 -0.027869999 0.033433001 16777215
0.010303 0.026338 -0.034068 16777215
-0.00092100003 -0.015025 -0.045802001 16777215
0.00096799998 0.030429 0.029206 16777215
0.044096999 0.010358 -0.019098001 16777215
-0.015286 -0.015783999 -0.042702001 16777215
-0.028574999 0.023754001 -0.026082 16777215
-0.032473002 0.025204999 -0.017779 16777215
0.00016900001 0.02296 -0.039531998 16777215
-0.038438 0.011411 0.028125999 16777215
0.020291001 -0.012758 -0.042413 16777215
0.019091999 0.020328 -0.037427999 16777215
-0.034288999 0.022673 -0.020258 16777215
-0.028865 -0.017724 0.033291001 16777215
0.034616001 0.026299 -0.0084969997 16777215
0.030872 -0.0089490004 0.037477002 16777215
0.019324001 0.033782002 -0.0098869996 16777215
0.026095999 0.016933 0.036183 16777215
0.02822 0.013841 0.036919001 16777215
0.0084290002 -0.035633001 0.013105 16777215
-0.034132 0.0042280001 -0.0361 16777215
0.003884 0.037384 0.00063999998 16777215
-0.0077780001 -0.033387002 -0.021398 16777215
0.046386 -0.0011380001 0.018602001 16777215
0.010788 0.019621 0.041221999 16777215
-0.026690001 -0.012895 -0.038626999 16777215
0.034288999 0.001128 0.036359999 16777215
0.040635999 0.019176999 -0.013963 16777215
0.049013 0.0068370001 0.003827 16777215
0.015729999 0.026037 0.032364 16777215
0.013748 -0.0264 -0.032740999 16777215
0.0023439999 0.025838999 -0.03616 16777215
-0.047265001 -0.00067199999 0.016286001 16777215
-0.006761 0.032586999 -0.023801001 16777215
-0.023455 0.014186 0.039901 16777215
-0.013277 -0.035224002 -0.010863 16777215
0.028608 -0.013974 0.036529999 16777215
0.039556 0.020834999 0.012788 16777215
-0.034235999 -0.027317001 0.001126 16777215
0.035289999 -0.016829001 -0.027406 16777215
0.0051970002 0.00054099999 -0.049724001 16777215
0.040109999 0.00057099998 0.029843001 16777215
0.039873999 -0.022549 0.002477 16777215
-0.034012001 -0.0097730001 0.034255002 16777215
-0.0086620003 -0.034832001 -0.01637 16777215
0.022234 -0.031939 0.013863 16777215
-0.0088780001 -0.010064 0.047339998 16777215
0.012631 0.001477 0.048338 16777215
0.017734 -0.027241001 -0.029433001 16777215
-8.3999999e-05 -0.018200999 0.043715999 16777215
-0.02857 -0.012421 0.037542999 16777215
0.033672001 -0.01499 0.031093 16777215
-0.0047920002 0.030703001 -0.028305 16777215
-0.035188999 -0.0038340001 0.035151001 16777215
0.018431 -0.034809001 0.0024890001 16777215
-0.039907001 -0.022017 -0.006761 16777215
-0.048074 -0.0080030002 0.0086620003 16777215
-0.031001 -0.000409 -0.039225999 16777215
0.041522998 0.020424001 -0.0058490001 16777215
0.019647 -0.033581 0.010452 16777215
0.026272001 -0.027907999 0.020617999 16777215
0.028956 0.026164999 -0.021082001 16777215
0.023568001 0.0097019998 -0.042157002 16777215
0.017397 0.027794 0.028705001 16777215
0.033479001 0.01321 -0.032694001 16777215
-0.036136001 0.022521 -0.017103 16777215
-0.0059870002 0.036648002 0.0087449998 16777215
-0.022523999 -0.018617 -0.037101999 16777215
0.039028998 0.0082660001 0.029245 16777215
0.012624 0.030664001 -0.025865 16777215
0.034304999 0.0029 0.036169998 16777215
0.0028639999 0.002604 -0.049796999 16777215
0.032357998 0.027674001 -0.0095610004 16777215
-0.013118 -0.014491 0.044211 16777215
-0.045354001 0.011751 -0.014055 16777215
-0.024421001 0.018003 0.036433998 16777215
0.043354001 0.016075 -0.012689 16777215
-0.046048999 0.0061840001 -0.017649001 16777215
-0.011339 -0.030052001 -0.027674999 16777215
-0.03534 -0.021228001 0.021213001 16777215
-0.040146999 0.010512 0.026302001 16777215
0.005715 -0.036534999 0.0097129997 16777215
-0.017252 0.033477001 -0.014492 16777215
0.02861 -0.028616 0.015023 16777215
-0.031923 -0.025877001 0.017044 16777215
-0.029305 0.0067619998 -0.039496001 16777215
0.0040489999 0.0043830001 -0.049492002 16777215
0.018926 -0.029149 -0.025125001 16777215
0.029425999 0.024599001 0.023630001 16777215
0.038931999 0.020176999 0.016140999 16777215
0.040564001 -0.021907 0.001172 16777215
0.033426002 0.014032 0.032134 16777215
-0.001065 0.017581001 -0.044151999 16777215
-0.024404 0.019633999 -0.034915 16777215
0.015831999 0.020354001 -0.038895998 16777215
0.0027900001 -0.03136 0.027274 16777215
-0.029313 0.024231 0.024432 16777215
-0.030249 0.017494 -0.032263 16777215
0.034717001 0.01674 0.028223 16777215
-0.026161 -0.031957 -0.000245 16777215
-0.03011 -0.029903 0.001915 16777215
-0.019518999 0.034522999 0.00037299999 16777215
-0.030963 0.012482 -0.035557002 16777215
-0.034097999 -0.024733 -0.015807001 16777215
-0.036251001 0.018099001 -0.024566 16777215
-0.020365 -0.016474999 -0.040034 16777215
-0.001952 -0.035383001 0.016445 16777215
0.027466999 0.030112 0.011559 16777215
0.036387 0.021129999 0.019549999 16777215
-0.00075000001 -0.034485999 -0.019626001 16777215
-0.040582001 -0.005047 0.028422 16777215
0.0060589998 -0.037223998 2.1e-05 16777215
0.034770001 0.026388999 0.007282 16777215
-0.046348002 -0.01269 -0.0080960002 16777215
0.030817 0.023778999 0.023347 16777215
0.0092040002 0.007737 -0.048051 16777215
-0.033364002 0.023785001 0.019522 16777215
0.042144999 0.014184 0.019135 16777215
-0.027217001 0.024586 0.026164999 16777215
0.016720001 0.002532 0.046999998 16777215
0.022833999 -0.033325002 -0.0020679999 16777215
0.037694 0.024592999 -0.0019759999 16777215
-0.044794001 0.014583 -0.010743 16777215
-0.044767998 0.013215 -0.013614 16777215
0.0055209999 0.00098400004 -0.049676999 16777215
0.030017 0.012573 -0.036304001 16777215
0.018084001 -0.034867998 -0.0034050001 16777215
-0.013023 -0.033758 0.017448001 16777215
-0.016178999 0.0032589999 -0.047109999 16777215
0.036006998 -0.019733001 0.022609999 16777215
-0.015833 -0.035567999 0.000527 16777215
0.024584999 -0.019313 0.035107002 16777215
