# .PCD v0.7 - Point Cloud Data file format
VERSION 0.7
FIELDS x y z rgb
SIZE 4 4 4 4
TYPE F F F F
COUNT 1 1 1 1
WIDTH 974
HEIGHT 1
VIEWPOINT 0 0 0 1 0 0 0
POINTS 974
DATA ascii
-1.2861971 0.35725719 -0.79885697 2.3418409e-38
-0.56165385 0.23505212 -1.0510212 2.3418409e-38
-1.0307709 0.27193573 -0.58154559 2.3418409e-38
-0.78779399 -0.44703838 -0.92840898 2.3418409e-38
-1.4881693 0.03579884 -1.1020253 2.3418409e-38
-1.2408751 -0.14825276 -0.58768904 2.3418409e-38
-1.1171768 0.089274265 -0.52219284 2.3418409e-38
-0.99824339 -0.23290284 -0.55755997 2.3418409e-38
-1.2783334 -0.37037167 -1.1880302 2.3418409e-38
-1.0690422 0.41052824 -0.72305286 2.3418409e-38
-0.76385564 -0.36579677 -0.75417781 2.3418409e-38
-0.96020764 0.22926278 -1.4425552 2.3418409e-38
-1.0537082 -0.15910123 -0.52904117 2.3418409e-38
-0.94038081 -0.49063081 -1.0756766 2.3418409e-38
-1.0684822 0.32082552 -0.6226657 2.3418409e-38
-1.2886649 -0.39212567 -1.1136224 2.3418409e-38
-1.4889836 0.031098854 -1.0996388 2.3418409e-38
-0.94588619 0.12961602 -1.479866 2.3418409e-38
-1.0370666 -0.032174382 -1.4975851 2.3418409e-38
-1.0383886 0.028195368 -0.5022738 2.3418409e-38
-1.4642258 0.1199856 -0.85823309 2.3418409e-38
-1.0572274 -0.057893984 -0.50667119 2.3418409e-38
-0.5392921 -0.15474637 -1.1174809 2.3418409e-38
-1.1531222 -0.47578973 -0.98666871 2.3418409e-38
-1.4486394 0.12909766 -0.82095665 2.3418409e-38
-1.1423378 -0.010535051 -0.52080387 2.3418409e-38
-1.1043226 -0.25613999 -1.4165442 2.3418409e-38
-1.0118291 0.096627712 -1.4904315 2.3418409e-38
-1.4050436 -0.2839705 -0.92719543 2.3418409e-38
-1.218805 0.080990195 -0.5577727 2.3418409e-38
-0.60521924 -0.30467799 -0.96367532 2.3418409e-38
-0.54520059 0.062545978 -0.80189514 2.3418409e-38
-0.78910553 -0.44874677 -0.93558049 2.3418409e-38
-0.84603679 0.19368319 -1.4344907 2.3418409e-38
-1.0775471 -0.36182979 -0.66374767 2.3418409e-38
-0.75304472 0.056536406 -0.56893539 2.3418409e-38
-0.60650533 0.073191166 -1.2996749 2.3418409e-38
-0.56151992 0.09014257 -1.2227319 2.3418409e-38
-1.1342161 -0.033440031 -0.51951295 2.3418409e-38
-0.90355015 0.048043571 -1.4882512 2.3418409e-38
-1.0090166 -0.034825746 -0.5012958 2.3418409e-38
-1.1116332 0.42466232 -0.76083487 2.3418409e-38
-0.79680413 -0.43381152 -0.8567555 2.3418409e-38
-1.0744379 0.33548394 -0.63680649 2.3418409e-38
-1.3510741 -0.25148886 -0.7480073 2.3418409e-38
-1.0398031 0.12846333 -1.4815733 2.3418409e-38
-0.98463833 -0.032166492 -0.50127232 2.3418409e-38
-0.7210722 -0.26324257 -1.3207844 2.3418409e-38
-0.5176326 0.086928815 -1.0988184 2.3418409e-38
-0.87439752 0.06352821 -0.5202207 2.3418409e-38
-0.96989459 0.013025835 -1.4989228 2.3418409e-38
-1.4321053 0.2343128 -0.90844417 2.3418409e-38
-1.0640665 0.4587045 -0.81162363 2.3418409e-38
-1.2495773 -0.12120884 -0.58404374 2.3418409e-38
-1.1358408 -0.31886348 -1.3603795 2.3418409e-38
-1.1643989 0.45468083 -1.1274298 2.3418409e-38
-1.058117 -0.47986224 -0.87211478 2.3418409e-38
-1.1267573 0.44994128 -0.82255864 2.3418409e-38
-0.83549279 0.24680528 -0.59747732 2.3418409e-38
-1.408258 0.084362738 -0.72394133 2.3418409e-38
-0.98824245 -0.03154419 -1.4988654 2.3418409e-38
-1.0001909 -0.096086182 -1.4906806 2.3418409e-38
-0.56981051 0.25426492 -1.0169214 2.3418409e-38
-1.0579833 0.49589628 -1.0269225 2.3418409e-38
-0.71429896 0.40378547 -0.92697811 2.3418409e-38
-0.71085626 -0.35807955 -1.195384 2.3418409e-38
-1.1929504 0.058169506 -1.4575876 2.3418409e-38
-0.93303311 -0.16534185 -1.4670948 2.3418409e-38
-0.98309749 0.15066732 -1.4764595 2.3418409e-38
-1.4843725 -0.11285704 -0.94855511 2.3418409e-38
-1.4214144 -0.076853335 -0.7421174 2.3418409e-38
-0.82202578 -0.42062891 -1.2034613 2.3418409e-38
-0.94478595 -0.022756409 -1.4964207 2.3418409e-38
-1.1797625 0.4535062 -0.89037514 2.3418409e-38
-0.81841666 0.42594919 -0.81133413 2.3418409e-38
-0.9003616 -0.13791835 -1.4701604 2.3418409e-38
-1.0444506 -0.012316456 -0.50213212 2.3418409e-38
-0.65512109 0.32526052 -0.84105295 2.3418409e-38
-0.93284196 0.49511579 -1.0187128 2.3418409e-38
-1.0268569 -0.49169442 -0.91330904 2.3418409e-38
-1.0565416 -0.49557433 -0.96522754 2.3418409e-38
-0.61191022 0.27284753 -0.84207416 2.3418409e-38
-1.2622793 0.25112078 -1.3437266 2.3418409e-38
-0.61406285 -0.24220383 -0.79411215 2.3418409e-38
-1.1282399 0.47491473 -0.9104985 2.3418409e-38
-1.3027442 -0.055391751 -0.60594702 2.3418409e-38
-0.90614724 -0.37646177 -1.3153858 2.3418409e-38
-1.401837 -0.22160958 -1.1985353 2.3418409e-38
-1.1374247 0.044731773 -1.4786581 2.3418409e-38
-0.78857875 -0.44294754 -0.90461403 2.3418409e-38
-0.75563937 0.43096069 -1.0675334 2.3418409e-38
-0.70903546 0.30378288 -1.270288 2.3418409e-38
-1.0291147 0.23395941 -1.4409256 2.3418409e-38
-1.0040901 0.0065441029 -1.4999404 2.3418409e-38
-1.0071431 -0.0083784275 -0.50012124 2.3418409e-38
-1.3060662 0.29183975 -0.73325467 2.3418409e-38
-1.2133915 -0.45088473 -1.0341614 2.3418409e-38
-1.1380174 -0.049568478 -0.52198935 2.3418409e-38
-1.2502812 0.22041599 -0.62747335 2.3418409e-38
-1.1020943 -0.18239446 -0.54578745 2.3418409e-38
-1.3388363 0.20643127 -1.3042631 2.3418409e-38
-1.305998 0.0043369634 -1.3954067 2.3418409e-38
-0.72430664 0.070956342 -1.4110454 2.3418409e-38
-1.3739115 0.18037778 -0.72133517 2.3418409e-38
-0.93863058 -0.012415211 -0.50393581 2.3418409e-38
-0.99708217 0.002946947 -1.4999828 2.3418409e-38
-1.4335517 0.23909822 -1.0697495 2.3418409e-38
-0.98482198 -0.021722736 -1.4992973 2.3418409e-38
-0.65547162 0.0064761452 -1.3622959 2.3418409e-38
-0.86262381 0.33307803 -1.3466797 2.3418409e-38
-1.0497909 0.48785177 -1.0975784 2.3418409e-38
-0.6297769 0.023734344 -0.66478133 2.3418409e-38
-1.303323 -0.083673552 -0.61142063 2.3418409e-38
-0.63534451 0.0090313619 -0.65802801 2.3418409e-38
-1.3861244 -0.075530596 -0.69145 2.3418409e-38
-0.6738416 0.2529383 -1.2822108 2.3418409e-38
-0.77694654 -0.2366004 -0.62017453 2.3418409e-38
-0.7065599 0.38054544 -0.86187661 2.3418409e-38
-1.1904105 -0.40919733 -0.7848224 2.3418409e-38
-1.3246036 0.23455799 -0.70064229 2.3418409e-38
-1.2121551 0.42788187 -1.1480111 2.3418409e-38
-1.0353193 0.15776551 -0.52685881 2.3418409e-38
-1.008288 0.042831399 -1.4980931 2.3418409e-38
-1.4539337 0.20481895 -1.0446471 2.3418409e-38
-0.91544455 -0.18545583 -1.4565704 2.3418409e-38
-1.4433494 0.22926681 -0.97036844 2.3418409e-38
-0.83142835 0.40201405 -0.75511569 2.3418409e-38
-1.3612105 -0.069152206 -0.66125977 2.3418409e-38
-1.1264949 0.00055807974 -1.4837341 2.3418409e-38
-0.8861798 0.17343967 -0.54506743 2.3418409e-38
-0.95055246 0.17755224 -0.53520954 2.3418409e-38
-0.92252743 -0.012920062 -1.4937925 2.3418409e-38
-1.2730421 0.3086105 -0.71679056 2.3418409e-38
-1.4971112 0.039170578 -0.96331072 2.3418409e-38
-0.90442276 0.25572807 -0.58111084 2.3418409e-38
-1.1675037 -0.46414822 -0.91932195 2.3418409e-38
-1.0874257 0.052374247 -0.5104965 2.3418409e-38
-0.99264926 -0.12454842 -0.51581651 2.3418409e-38
-0.7552911 0.20779748 -1.3833246 2.3418409e-38
-1.3301666 0.046076126 -1.3726487 2.3418409e-38
-0.85342723 -0.35572553 -0.68066353 2.3418409e-38
-1.4696198 -0.042604703 -0.83374059 2.3418409e-38
-0.99680036 -0.0053178882 -0.5000385 2.3418409e-38
-0.9645344 0.26289895 -0.57617652 2.3418409e-38
-1.3871998 -0.20829661 -1.2380942 2.3418409e-38
-0.6713562 -0.37020162 -0.92968625 2.3418409e-38
-1.1275368 -0.17273998 -1.4515476 2.3418409e-38
-0.70770884 -0.3426455 -1.2171633 2.3418409e-38
-1.0848987 0.022709275 -0.50778413 2.3418409e-38
-1.441909 -0.17504017 -1.1551689 2.3418409e-38
-0.96376908 0.47118786 -1.1633074 2.3418409e-38
-1.0151991 -0.026768304 -1.4990516 2.3418409e-38
-0.95511359 0.46959615 -1.1657248 2.3418409e-38
-0.77439046 -0.32575643 -0.69506872 2.3418409e-38
-1.3437396 -0.31922248 -1.1730319 2.3418409e-38
-0.93210077 -0.39626557 -1.2972597 2.3418409e-38
-1.0563403 -0.37571111 -0.67493552 2.3418409e-38
-0.77484685 -0.10537337 -1.4338231 2.3418409e-38
-1.1817539 0.30334559 -0.64652163 2.3418409e-38
-1.3648087 0.27204186 -1.2071421 2.3418409e-38
-1.4221357 -0.12327487 -0.76208258 2.3418409e-38
-1.0263252 -0.080651134 -1.4927498 2.3418409e-38
-0.7416659 0.19476272 -1.381223 2.3418409e-38
-0.90826774 0.34001744 -0.64507282 2.3418409e-38
-1.2960727 0.1825109 -0.64079154 2.3418409e-38
-1.0261645 -0.10957041 -1.4871445 2.3418409e-38
-0.52916563 0.068478726 -1.1537064 2.3418409e-38
-0.8406536 -0.47266704 -0.96543711 2.3418409e-38
-0.98260331 -0.045865394 -1.4975879 2.3418409e-38
-0.62097418 0.29285708 -1.1434369 2.3418409e-38
-0.6082294 -0.068401374 -0.69695371 2.3418409e-38
-0.68693423 -0.38757935 -0.95790344 2.3418409e-38
-0.86066663 0.26563513 -1.4000303 2.3418409e-38
-0.9834882 -0.23182562 -1.4427011 2.3418409e-38
-1.0535493 0.018348005 -0.50321448 2.3418409e-38
-1.4026952 0.21001346 -1.2091193 2.3418409e-38
-0.95937085 -0.021379419 -0.50211227 2.3418409e-38
-0.80633551 0.4608438 -0.98917902 2.3418409e-38
-0.93735749 0.14593378 -0.52589107 2.3418409e-38
-1.4141577 -0.25178793 -0.87721485 2.3418409e-38
-0.75497025 0.40170833 -0.83091176 2.3418409e-38
-1.0047458 -0.29197776 -1.4058651 2.3418409e-38
-0.84659058 0.32673997 -1.3459864 2.3418409e-38
-1.2716502 0.10044149 -0.59242463 2.3418409e-38
-1.0247433 -0.071999714 -0.50583017 2.3418409e-38
-1.2453011 0.145796 -0.58942616 2.3418409e-38
-1.3826184 0.17992519 -1.2668896 2.3418409e-38
-0.9042204 -0.10380075 -1.479637 2.3418409e-38
-0.55393136 0.18070829 -0.86447406 2.3418409e-38
-0.61988485 0.32335219 -1.0309168 2.3418409e-38
-1.0133563 0.053039733 -0.50300062 2.3418409e-38
-0.78327549 0.0019136824 -0.54941505 2.3418409e-38
-0.87610918 0.19241649 -1.4445525 2.3418409e-38
-0.97332174 0.34991351 -1.3561584 2.3418409e-38
-1.402166 -0.23050569 -1.187429 2.3418409e-38
-0.6226815 -0.14401355 -1.2947725 2.3418409e-38
-0.98066342 0.019205377 -1.4992567 2.3418409e-38
-1.3135916 0.14403076 -1.3618224 2.3418409e-38
-1.0227735 -0.31592751 -1.3868736 2.3418409e-38
-0.86827326 -0.48233557 -0.99931407 2.3418409e-38
-0.68019301 -0.16691133 -0.65378606 2.3418409e-38
-0.79777431 0.15823413 -1.4290299 2.3418409e-38
-0.52201319 -0.060775716 -1.1335474 2.3418409e-38
-0.8470456 -0.042732008 -0.52589142 2.3418409e-38
-0.80401081 0.15045796 -0.56531549 2.3418409e-38
-0.63800007 0.11725366 -0.67564273 2.3418409e-38
-1.3854175 -0.29704165 -0.88502324 2.3418409e-38
-0.76348406 0.18497056 -0.60019243 2.3418409e-38
-1.0056289 -0.083975472 -1.4928656 2.3418409e-38
-1.359388 -0.28934321 -1.1926675 2.3418409e-38
-1.1933064 -0.34313893 -1.3080394 2.3418409e-38
-0.7330882 0.1212032 -0.5949471 2.3418409e-38
-1.0173125 -0.25559112 -1.4293873 2.3418409e-38
-1.0035216 -0.0024717026 -0.50001848 2.3418409e-38
-0.90292358 -0.097781092 -0.51935977 2.3418409e-38
-0.57922316 -0.25369614 -0.90734392 2.3418409e-38
-1.2320894 -0.16184391 -1.4122391 2.3418409e-38
-0.9301759 0.097840801 -0.51466322 2.3418409e-38
-1.4106717 0.016526595 -0.71526229 2.3418409e-38
-0.63946342 0.32979804 -0.8939501 2.3418409e-38
-0.7909466 0.42215061 -0.83241254 2.3418409e-38
-1.4288523 0.023559297 -1.2559897 2.3418409e-38
-1.0370797 -0.18814823 -1.4617634 2.3418409e-38
-0.54930413 0.13027154 -0.82707655 2.3418409e-38
-0.76754475 -0.091327697 -0.56684434 2.3418409e-38
-1.0897069 0.46145052 -1.1703411 2.3418409e-38
-0.85607761 0.46800393 -0.89871484 2.3418409e-38
-0.61515439 -0.27383229 -1.1640419 2.3418409e-38
-0.80748647 -0.27313554 -0.62806517 2.3418409e-38
-0.99436992 -0.0031165681 -0.50004143 2.3418409e-38
-1.1313217 0.1103055 -1.4696672 2.3418409e-38
-1.4291303 -0.05422873 -1.2508116 2.3418409e-38
-0.94642651 -0.071349554 -0.50802529 2.3418409e-38
-0.61425996 0.15980642 -1.2750754 2.3418409e-38
-0.9142952 -0.45946869 -1.1776041 2.3418409e-38
-1.35996 0.13240173 -1.3207781 2.3418409e-38
-0.84859151 -0.21343204 -0.57394576 2.3418409e-38
-1.0285573 -0.36263326 -0.6569525 2.3418409e-38
-0.63362992 0.074832745 -0.66807675 2.3418409e-38
-1.1947267 -0.031606652 -1.4594371 2.3418409e-38
-0.84451282 -0.067355633 -0.52958852 2.3418409e-38
-1.2829762 -0.15848373 -1.3805356 2.3418409e-38
-0.72128588 0.40772885 -1.0779461 2.3418409e-38
-1.0940707 -0.051108848 -0.51159585 2.3418409e-38
-1.0142446 0.0016356896 -0.50020564 2.3418409e-38
-1.0012614 -0.0077808392 -0.50006211 2.3418409e-38
-0.7542032 -0.4345395 -1.0275556 2.3418409e-38
-1.0216733 0.027462248 -1.4987745 2.3418409e-38
-1.316734 0.18521355 -1.3396697 2.3418409e-38
-1.4181907 -0.081234403 -0.73824155 2.3418409e-38
-0.74183357 0.18577248 -1.3857962 2.3418409e-38
-1.0917349 -0.1284626 -0.52557182 2.3418409e-38
-0.74154174 -0.16491559 -0.60502893 2.3418409e-38
-1.4904044 -0.045433935 -0.9137482 2.3418409e-38
-1.159181 -0.2942231 -0.62838978 2.3418409e-38
-1.2081598 0.12458922 -0.56279635 2.3418409e-38
-1.2768054 0.39926338 -0.88181579 2.3418409e-38
-1.0011812 -0.028761419 -0.50082934 2.3418409e-38
-1.0065281 0.0008979679 -0.50004339 2.3418409e-38
-1.3956687 -0.0082825162 -1.3055776 2.3418409e-38
-0.8956123 -0.21678717 -0.5617004 2.3418409e-38
-1.0669696 0.12062879 -1.4805869 2.3418409e-38
-1.4614611 0.081494465 -1.1743914 2.3418409e-38
-1.1864401 0.30302471 -1.3513063 2.3418409e-38
-1.3882426 -0.30445084 -0.91889918 2.3418409e-38
-1.4318534 -0.24848625 -1.0419194 2.3418409e-38
-1.1471243 0.22317983 -1.4225461 2.3418409e-38
-0.94405574 0.079692148 -1.4904277 2.3418409e-38
-1.0106406 -0.010402624 -1.4997785 2.3418409e-38
-0.85155642 0.40467712 -1.2533791 2.3418409e-38
-1.0695094 -0.25472316 -1.4245993 2.3418409e-38
-1.3960431 0.2866711 -0.89526421 2.3418409e-38
-0.75003576 0.19045003 -0.61109555 2.3418409e-38
-0.54269302 0.16506787 -1.1167171 2.3418409e-38
-1.4188368 0.089690581 -0.74206322 2.3418409e-38
-0.67638761 0.087253511 -0.62897193 2.3418409e-38
-0.9483549 -0.22303471 -1.444509 2.3418409e-38
-0.53395545 -0.18047307 -1.0152299 2.3418409e-38
-1.0490042 -0.01924967 -1.4972203 2.3418409e-38
-1.1079559 -0.14165877 -1.4672027 2.3418409e-38
-0.73724562 0.34905732 -1.2431442 2.3418409e-38
-1.0876763 0.092749611 -1.483436 2.3418409e-38
-0.93932724 -0.014017705 -0.50389284 2.3418409e-38
-0.99319416 0.14302237 -0.52094018 2.3418409e-38
-0.83750176 0.41346514 -0.77056384 2.3418409e-38
-0.73693085 -0.24291891 -0.65102291 2.3418409e-38
-1.4604918 -0.13279094 -0.85747337 2.3418409e-38
-0.81523228 -0.057368979 -1.4610528 2.3418409e-38
-1.4270327 0.21634871 -1.144348 2.3418409e-38
-0.99437296 0.04493387 -0.50205493 2.3418409e-38
-1.4478663 -0.19608475 -0.89527875 2.3418409e-38
-1.0586153 -0.12383259 -1.4808636 2.3418409e-38
-1.2944273 -0.37791917 -1.1431422 2.3418409e-38
-0.61585104 0.31897628 -0.97385246 2.3418409e-38
-1.2198396 0.1601041 -1.4195678 2.3418409e-38
-0.97149903 -0.030485656 -1.4982553 2.3418409e-38
-1.2780169 0.024326306 -0.58513278 2.3418409e-38
-0.94008607 0.014259273 -1.4961925 2.3418409e-38
-0.97548485 -0.29300755 -0.59559226 2.3418409e-38
-1.1769308 -0.041932292 -1.4657651 2.3418409e-38
-1.0581088 -0.26863331 -0.58231652 2.3418409e-38
-0.74502987 -0.34321669 -0.74078476 2.3418409e-38
-1.0208677 -0.064207412 -1.4954209 2.3418409e-38
-0.73691237 -0.16909353 -1.3901182 2.3418409e-38
-1.186954 0.46372753 -1.0022217 2.3418409e-38
-0.51085359 0.052897703 -1.0890932 2.3418409e-38
-0.57568365 -0.26428267 -0.98949677 2.3418409e-38
-0.95837867 0.30719316 -1.392301 2.3418409e-38
-1.1333708 0.29479221 -0.61880481 2.3418409e-38
-0.9711085 -0.44837844 -1.2193674 2.3418409e-38
-0.83583021 0.11233512 -1.4587255 2.3418409e-38
-1.0455985 0.49696946 -1.030694 2.3418409e-38
-1.2927755 0.31153378 -0.74071407 2.3418409e-38
-1.2967668 -0.059687372 -1.3979534 2.3418409e-38
-0.56632841 0.24328755 -1.052346 2.3418409e-38
-0.67567855 0.19743684 -0.67467821 2.3418409e-38
-0.7200911 -0.02292206 -1.4136733 2.3418409e-38
-1.325037 -0.1245522 -0.64106035 2.3418409e-38
-0.98322952 0.35544574 -1.3512508 2.3418409e-38
-0.92380935 -0.18447469 -0.54156339 2.3418409e-38
-0.75590187 0.19325231 -0.60875881 2.3418409e-38
-0.61942136 -0.17861949 -1.2706566 2.3418409e-38
-0.88985467 0.018343864 -0.51262796 2.3418409e-38
-0.59253049 0.20417452 -1.2056243 2.3418409e-38
-0.5377903 -0.0070183263 -1.1905595 2.3418409e-38
-1.4036794 -0.1637253 -1.2454321 2.3418409e-38
-1.4486487 0.10307536 -0.80483383 2.3418409e-38
-1.185788 -0.3629705 -1.2893703 2.3418409e-38
-1.3027787 -0.3129732 -1.2457088 2.3418409e-38
-1.2555755 0.052983835 -1.4264667 2.3418409e-38
-1.038415 0.24333936 -1.4350979 2.3418409e-38
-0.68398166 0.012842611 -0.61274368 2.3418409e-38
-0.92548203 -0.0031761422 -1.4944057 2.3418409e-38
-1.3446497 0.11462644 -0.65637612 2.3418409e-38
-0.91253936 0.017842157 -1.4919678 2.3418409e-38
-0.98284256 -0.068236656 -1.4950247 2.3418409e-38
-0.58518767 0.26587817 -1.0850855 2.3418409e-38
-0.89595938 0.15630399 -1.4634054 2.3418409e-38
-1.3585277 0.34486037 -0.94970876 2.3418409e-38
-1.1178882 0.029584922 -1.4850022 2.3418409e-38
-1.4593209 -0.19750011 -0.99575502 2.3418409e-38
-1.1349881 0.026837006 -0.51931506 2.3418409e-38
-1.1019402 0.14393392 -0.53214186 2.3418409e-38
-1.3167315 0.36939314 -1.1150212 2.3418409e-38
-0.91186458 -0.12168333 -0.52310872 2.3418409e-38
-1.1687255 -0.38798594 -1.2664557 2.3418409e-38
-1.3745812 0.33118728 -0.99802577 2.3418409e-38
-1.2548954 0.22020356 -1.3695114 2.3418409e-38
-0.98153603 -0.49930492 -0.98119366 2.3418409e-38
-1.3321357 -0.28806916 -1.2381219 2.3418409e-38
-1.1882287 -0.13094231 -1.4443243 2.3418409e-38
-0.57961345 -0.20916739 -0.82817405 2.3418409e-38
-0.74561417 0.24584022 -1.3533418 2.3418409e-38
-1.1449305 0.4070906 -0.74845994 2.3418409e-38
-1.0009117 0.002162162 -0.50000548 2.3418409e-38
-0.93199021 -0.067119069 -1.4907848 2.3418409e-38
-0.88339031 -0.4858118 -0.98027503 2.3418409e-38
-0.61288106 -0.25663316 -1.1851441 2.3418409e-38
-1.4942542 0.036442563 -1.0662172 2.3418409e-38
-1.0934772 -0.078607559 -1.4848535 2.3418409e-38
-1.3618321 -0.26257983 -1.2238958 2.3418409e-38
-0.73427922 -0.063373014 -1.4187796 2.3418409e-38
-0.90467602 -0.0076988963 -0.50923115 2.3418409e-38
-0.69160783 -0.36026052 -1.1584506 2.3418409e-38
-0.98265469 0.039971523 -1.4980978 2.3418409e-38
-1.1434233 -0.028264232 -0.52184641 2.3418409e-38
-0.85972679 -0.13288179 -1.4611571 2.3418409e-38
-0.7502141 -0.049234826 -0.56967115 2.3418409e-38
-0.9903512 0.0025121092 -0.50009942 2.3418409e-38
-1.1452729 -0.0017895076 -1.4784272 2.3418409e-38
-1.4685196 -0.11642101 -1.1301366 2.3418409e-38
-1.0558045 -0.49651635 -0.98109531 2.3418409e-38
-1.0695143 -0.40314582 -1.2874739 2.3418409e-38
-1.4781721 0.11694465 -1.0876094 2.3418409e-38
-1.197125 0.12745233 -1.4414721 2.3418409e-38
-0.6214059 0.12081575 -0.6965695 2.3418409e-38
-1.0365455 0.039359454 -0.50289309 2.3418409e-38
-1.074435 0.0031589512 -0.50558174 2.3418409e-38
-0.68715763 -0.37221333 -1.1165627 2.3418409e-38
-1.394141 -0.28384253 -1.1186858 2.3418409e-38
-1.1352946 0.23782794 -0.58151078 2.3418409e-38
-1.2338724 0.44067714 -1.0332775 2.3418409e-38
-0.80250239 0.12151723 -1.4429766 2.3418409e-38
-1.0634077 -0.26940536 -1.4164135 2.3418409e-38
-0.54817009 0.21310511 -1.020879 2.3418409e-38
-1.2106181 0.023425477 -1.45287 2.3418409e-38
-0.59176934 0.27066311 -0.89955473 2.3418409e-38
-1.1977704 0.08534731 -1.4512236 2.3418409e-38
-0.77659464 -0.29340461 -1.3376445 2.3418409e-38
-1.4740748 -0.081558913 -0.86361372 2.3418409e-38
-0.92482656 -0.014294952 -1.4941099 2.3418409e-38
-1.0533015 0.40569127 -0.71264386 2.3418409e-38
-1.3828809 -0.23688643 -1.2174559 2.3418409e-38
-1.029485 -0.082664602 -1.492237 2.3418409e-38
-1.2164162 -0.2031505 -0.59763956 2.3418409e-38
-0.73323572 -0.0075425222 -1.4228238 2.3418409e-38
-0.74852395 -0.12792683 -0.58721125 2.3418409e-38
-1.2047243 -0.34082738 -1.3031907 2.3418409e-38
-0.94115722 0.055142611 -0.50654602 2.3418409e-38
-1.3156497 -0.38754043 -0.98666894 2.3418409e-38
-0.71359158 0.18760239 -1.3643837 2.3418409e-38
-1.1511366 0.47652778 -0.9911142 2.3418409e-38
-1.1906229 0.30826369 -1.3444363 2.3418409e-38
-0.90039849 0.00092512899 -1.4899783 2.3418409e-38
-0.77271116 0.24518532 -1.3717848 2.3418409e-38
-1.1685071 0.050170727 -0.5319314 2.3418409e-38
-0.62234569 0.29245257 -0.8521868 2.3418409e-38
-1.1452411 0.057175126 -1.4750116 2.3418409e-38
-1.3272301 0.023114778 -1.3773409 2.3418409e-38
-0.69018024 0.38658604 -1.0675498 2.3418409e-38
-1.4437754 0.20682745 -0.89858115 2.3418409e-38
-0.5424664 0.18459627 -1.0811617 2.3418409e-38
-0.52904975 -0.1173624 -1.1201328 2.3418409e-38
-1.1049842 0.11381157 -1.4754211 2.3418409e-38
-0.65913439 0.25448135 -0.73722655 2.3418409e-38
-1.008056 0.060871385 -0.50378454 2.3418409e-38
-0.7847476 0.2392118 -1.3826802 2.3418409e-38
-1.2800454 0.26353267 -0.68042982 2.3418409e-38
-0.94186163 -0.16517845 -0.53166676 2.3418409e-38
-1.2584395 -0.42619205 -0.96038467 2.3418409e-38
-0.69196832 -0.19574064 -0.65823674 2.3418409e-38
-0.51508749 0.11161549 -0.95099151 2.3418409e-38
-1.0504026 0.077340476 -0.50859582 2.3418409e-38
-1.0383921 -0.14148726 -0.52197552 2.3418409e-38
-1.3234797 -0.27488607 -1.2641943 2.3418409e-38
-0.5579356 -0.17681125 -1.1526984 2.3418409e-38
-1.2548589 0.01880572 -0.57024038 2.3418409e-38
-1.0024146 0.0017920643 -0.50000906 2.3418409e-38
-1.0456647 -0.29336476 -0.59769183 2.3418409e-38
-1.1038647 -0.020065265 -1.4886814 2.3418409e-38
-0.93079692 -0.40767395 -1.2810923 2.3418409e-38
-1.2977052 -0.041130114 -1.3995998 2.3418409e-38
-0.6882211 -0.3272942 -0.78628892 2.3418409e-38
-0.65244055 -0.31957999 -0.83546722 2.3418409e-38
-1.0832607 0.39584744 -1.2938919 2.3418409e-38
-0.79379898 0.17034121 -0.5775488 2.3418409e-38
-0.82751983 0.27988908 -1.376713 2.3418409e-38
-0.8731041 0.4658899 -1.1297846 2.3418409e-38
-0.98181534 0.017558999 -0.50063944 2.3418409e-38
-0.77839863 -0.3761948 -0.75633979 2.3418409e-38
-1.0097084 0.097415186 -1.4903224 2.3418409e-38
-0.97474569 -0.14738658 -1.4771158 2.3418409e-38
-0.99604124 -0.025358096 -1.4993409 2.3418409e-38
-0.88389176 0.38597521 -1.295875 2.3418409e-38
-1.0004175 0.00015818131 -0.50000024 2.3418409e-38
-1.0471447 0.088957883 -1.489759 2.3418409e-38
-0.81539315 0.041484408 -1.4628167 2.3418409e-38
-1.3263317 -0.34429166 -1.1580217 2.3418409e-38
-0.99682349 -0.46176687 -0.80826771 2.3418409e-38
-0.9402712 0.033482879 -0.50471079 2.3418409e-38
-0.80495524 0.071395069 -0.54518104 2.3418409e-38
-0.95148855 0.33319893 -1.3696283 2.3418409e-38
-1.1019807 0.16735812 -1.4599904 2.3418409e-38
-1.0641024 -0.36025503 -0.65925491 2.3418409e-38
-0.85599029 -0.19775905 -0.56393516 2.3418409e-38
-0.88664347 0.30657312 -0.62163085 2.3418409e-38
-1.2416998 0.43403307 -0.94346267 2.3418409e-38
-0.87651396 -0.13138498 -0.53364265 2.3418409e-38
-0.70518029 0.38521326 -0.87878919 2.3418409e-38
-0.68552345 0.24579167 -0.69885063 2.3418409e-38
-1.1581727 0.4191561 -0.77798754 2.3418409e-38
-0.86837244 -0.34831366 -0.6663059 2.3418409e-38
-0.90672523 -0.44957647 -1.1979414 2.3418409e-38
-1.0024055 -0.3567929 -0.64972436 2.3418409e-38
-1.1942215 0.06622722 -0.54404831 2.3418409e-38
-1.3852429 -0.17465228 -1.2666166 2.3418409e-38
-0.97793686 0.0029916631 -0.50049597 2.3418409e-38
-1.047477 -0.26223096 -1.4230614 2.3418409e-38
-1.0631633 -0.48526254 -1.1026191 2.3418409e-38
-0.86513382 -0.29687253 -0.62095141 2.3418409e-38
-0.5792796 0.00043776608 -0.72982574 2.3418409e-38
-0.97584713 0.067829214 -0.50521135 2.3418409e-38
-0.57707191 -0.047657434 -1.262413 2.3418409e-38
-1.3383644 0.14253439 -0.66059828 2.3418409e-38
-0.67958069 0.3833198 -1.0199339 2.3418409e-38
-0.94733161 0.24697854 -0.56845897 2.3418409e-38
-0.69292223 -0.048083298 -0.60834807 2.3418409e-38
-1.0363315 0.14441231 -0.5226897 2.3418409e-38
-0.9523133 -0.011978842 -1.4975766 2.3418409e-38
-1.0594498 0.22285219 -0.55637556 2.3418409e-38
-0.69102502 -0.3357358 -0.79551059 2.3418409e-38
-0.58270729 -0.25725797 -1.0984132 2.3418409e-38
-1.2787961 -0.40456194 -0.90725094 2.3418409e-38
-0.9949972 0.49707997 -1.053726 2.3418409e-38
-1.4401207 -0.23138799 -0.94752789 2.3418409e-38
-1.3598939 0.085352056 -0.66356075 2.3418409e-38
-0.63578475 0.19361541 -0.71740425 2.3418409e-38
-1.3825773 0.24879122 -1.2042977 2.3418409e-38
-0.94465894 0.3373276 -0.63510627 2.3418409e-38
-1.1761501 -0.42967224 -1.1853454 2.3418409e-38
-0.62508094 -0.32261008 -1.0732011 2.3418409e-38
-0.82876337 -0.4330951 -0.81804764 2.3418409e-38
-0.55515844 -0.21376669 -1.0801237 2.3418409e-38
-0.65463912 0.32444116 -0.84042609 2.3418409e-38
-1.3197818 -0.37348515 -0.90917909 2.3418409e-38
-0.86667597 -0.42797345 -0.77849734 2.3418409e-38
-1.004655 0.035490982 -0.50128293 2.3418409e-38
-1.1902379 0.14651482 -1.4385692 2.3418409e-38
-0.77479577 -0.33724892 -0.70751709 2.3418409e-38
-1.1734339 0.45388696 -1.1179293 2.3418409e-38
-1.1038225 -0.40660918 -0.72817314 2.3418409e-38
-0.86941242 -0.0016900013 -1.4826428 2.3418409e-38
-0.79249561 -0.098402284 -1.4441384 2.3418409e-38
-0.73337364 -0.37744993 -0.80910236 2.3418409e-38
-1.0028045 0.46794721 -1.1761179 2.3418409e-38
-0.78291327 0.023210688 -0.55018377 2.3418409e-38
-1.4595037 0.17993687 -1.0804931 2.3418409e-38
-1.4113263 -0.00015403677 -1.2842722 2.3418409e-38
-0.55418575 -0.22354002 -1.0357698 2.3418409e-38
-1.0276967 0.49827954 -0.96917152 2.3418409e-38
-0.64979416 0.070489548 -0.65016133 2.3418409e-38
-0.70253205 0.13777784 -0.62246847 2.3418409e-38
-0.96732348 -0.30404928 -1.3955835 2.3418409e-38
-1.030877 -0.21303196 -0.5487085 2.3418409e-38
-0.61802942 0.31009778 -0.91090554 2.3418409e-38
-0.79025322 0.042041749 -0.54807216 2.3418409e-38
-0.8685047 -0.35670689 -1.3247602 2.3418409e-38
-0.85842735 0.11228367 -0.53379238 2.3418409e-38
-1.0819504 0.035098232 -1.4919881 2.3418409e-38
-0.79260337 -0.17293938 -0.57919288 2.3418409e-38
-1.3571119 0.021212734 -1.3493152 2.3418409e-38
-0.79187769 -0.41217855 -0.80818254 2.3418409e-38
-1.0400791 -0.37847444 -0.67573041 2.3418409e-38
-0.87449908 -0.38251036 -1.2965389 2.3418409e-38
-1.4271513 0.15509315 -1.2085373 2.3418409e-38
-0.94185358 0.33400574 -0.632496 2.3418409e-38
-1.1098567 -0.09832897 -0.52223134 2.3418409e-38
-0.95545805 -0.24563976 -1.4332172 2.3418409e-38
-0.98067987 -0.49694955 -0.94834858 2.3418409e-38
-1.0353878 0.001339318 -0.50125563 2.3418409e-38
-1.479609 -0.12578657 -1.0644433 2.3418409e-38
-0.93614286 0.14372671 -0.52537918 2.3418409e-38
-1.4417965 -0.158704 -1.1721305 2.3418409e-38
-1.2098701 -0.1201756 -1.4376212 2.3418409e-38
-1.001958 -0.059607457 -0.5035696 2.3418409e-38
-1.0758766 -0.15374991 -0.53031528 2.3418409e-38
-1.0662044 0.063371502 -1.4915292 2.3418409e-38
-0.99541807 0.0079154158 -0.50008368 2.3418409e-38
-1.2264001 0.4379631 -0.91674578 2.3418409e-38
-0.97354877 -0.20003816 -0.54252315 2.3418409e-38
-1.1256729 -0.020907862 -1.4834968 2.3418409e-38
-1.0008512 -0.040837836 -0.50167125 2.3418409e-38
-1.1067438 0.47623232 -1.108667 2.3418409e-38
-0.84612453 0.025035286 -0.52492571 2.3418409e-38
-0.75676841 0.047784161 -0.56577075 2.3418409e-38
0.13950327 -0.68929297 -0.94837713 9.1834095e-41
0.085979514 -0.55553102 -0.61851102 9.1834095e-41
-0.025361212 -0.57749403 -0.92916048 9.1834095e-41
0.041360687 -0.50346172 -0.75285715 9.1834095e-41
-0.15508235 -0.74664372 -0.5539434 9.1834095e-41
0.19409105 -0.59296083 -0.73706275 9.1834095e-41
0.19103006 -0.84189904 -0.88252199 9.1834095e-41
0.028602922 -0.52102077 -0.65382105 9.1834095e-41
-0.038055748 -0.74952483 -0.99708611 9.1834095e-41
-0.16654608 -0.66137052 -0.58596581 9.1834095e-41
-0.002987698 -0.85701448 -0.97591805 9.1834095e-41
-0.19653821 -0.68452919 -0.88995105 9.1834095e-41
0.21762973 -0.73214012 -0.62826943 9.1834095e-41
-0.17766033 -0.85320199 -0.60757053 9.1834095e-41
-0.047261164 -0.62084901 -0.95877355 9.1834095e-41
0.065669999 -0.7967208 -0.98665297 9.1834095e-41
0.15557343 -0.94532347 -0.76206893 9.1834095e-41
0.20428781 -0.66950649 -0.63047057 9.1834095e-41
0.060152479 -0.50791115 -0.76657307 9.1834095e-41
-0.04117687 -0.84281558 -0.97845072 9.1834095e-41
-0.10421785 -0.67836952 -0.96565646 9.1834095e-41
-0.12177487 -0.77991229 -0.9662779 9.1834095e-41
0.16211729 -0.89222705 -0.87644941 9.1834095e-41
-0.052173745 -0.77480698 -0.99323344 9.1834095e-41
0.12870243 -0.96270156 -0.72366107 9.1834095e-41
-0.011048083 -0.76968849 -0.5010215 9.1834095e-41
0.10916366 -0.56518966 -0.62182659 9.1834095e-41
0.12440188 -0.53445101 -0.72627622 9.1834095e-41
0.18996832 -0.70036596 -0.90475303 9.1834095e-41
0.0010356399 -0.75095117 -0.99999607 9.1834095e-41
-0.23088913 -0.78890467 -0.83761644 9.1834095e-41
-0.020526478 -0.84963143 -0.97836864 9.1834095e-41
0.16862288 -0.93258327 -0.72298741 9.1834095e-41
-0.084067538 -0.7573579 -0.98532641 9.1834095e-41
0.1957929 -0.67150652 -0.61582136 9.1834095e-41
-0.036003973 -0.60090673 -0.94742066 9.1834095e-41
0.10663875 -0.75721341 -0.52399969 9.1834095e-41
0.060212612 -0.9450891 -0.89427298 9.1834095e-41
-0.20711726 -0.8900041 -0.75113952 9.1834095e-41
0.01257393 -0.99879247 -0.77107584 9.1834095e-41
0.12222832 -0.89571041 -0.58773875 9.1834095e-41
-0.19845887 -0.76671076 -0.59888804 9.1834095e-41
0.077669136 -0.72791648 -0.51339942 9.1834095e-41
0.054532781 -0.56538045 -0.90950489 9.1834095e-41
-0.1981975 -0.65750855 -0.62890881 9.1834095e-41
-0.20039253 -0.657646 -0.63246882 9.1834095e-41
0.087543547 -0.84393221 -0.53549391 9.1834095e-41
-0.1288206 -0.5489496 -0.824054 9.1834095e-41
-0.033392005 -0.73333627 -0.99719888 9.1834095e-41
0.10019409 -0.9700861 -0.81342918 9.1834095e-41
-0.038464483 -0.76304132 -0.50332123 9.1834095e-41
-0.2316695 -0.67770857 -0.68997347 9.1834095e-41
-0.11271411 -0.69846797 -0.53288257 9.1834095e-41
-0.0013408579 -0.74921739 -0.99999517 9.1834095e-41
0.060026187 -0.69518065 -0.51358575 9.1834095e-41
-0.19696009 -0.69620138 -0.89426512 9.1834095e-41
-0.052913398 -0.78875029 -0.50875616 9.1834095e-41
-0.089255884 -0.75283217 -0.51649332 9.1834095e-41
0.1412432 -0.55301964 -0.81122971 9.1834095e-41
0.01573989 -0.62875855 -0.96806598 9.1834095e-41
-0.060087163 -0.54505199 -0.62005442 9.1834095e-41
0.21864721 -0.69593519 -0.85849142 9.1834095e-41
-0.080319576 -0.54583561 -0.86985683 9.1834095e-41
0.20457162 -0.89307499 -0.73658359 9.1834095e-41
0.004434892 -0.70641983 -0.99613225 9.1834095e-41
0.015114877 -0.66176569 -0.98342288 9.1834095e-41
0.050414331 -0.84658766 -0.97500938 9.1834095e-41
-0.094381183 -0.57082236 -0.89658636 9.1834095e-41
0.02318217 -0.7619288 -0.99863684 9.1834095e-41
-0.0046963943 -0.7287823 -0.99905372 9.1834095e-41
-0.10953959 -0.68708485 -0.5342623 9.1834095e-41
0.024153542 -0.74678975 -0.99880975 9.1834095e-41
0.01259807 -0.69654322 -0.50610727 9.1834095e-41
0.042124107 -0.68143773 -0.51330447 9.1834095e-41
-0.022665242 -0.99664426 -0.78395426 9.1834095e-41
0.2303593 -0.83185405 -0.69770747 9.1834095e-41
0.089291178 -0.71943468 -0.51849872 9.1834095e-41
-0.016487004 -0.79633617 -0.50488544 9.1834095e-41
0.16144055 -0.93660039 -0.79021502 9.1834095e-41
0.19272959 -0.61340934 -0.66815686 9.1834095e-41
-0.099181324 -0.53686059 -0.66494322 9.1834095e-41
0.14475021 -0.88045651 -0.90661567 9.1834095e-41
-0.24136679 -0.74390823 -0.81484574 9.1834095e-41
-0.098314807 -0.68245465 -0.9697085 9.1834095e-41
0.20157081 -0.81063664 -0.61512077 9.1834095e-41
-0.16892458 -0.70944673 -0.92977738 9.1834095e-41
0.22657333 -0.85472071 -0.76407474 9.1834095e-41
0.039195713 -0.78320324 -0.50533444 9.1834095e-41
0.24227217 -0.73535377 -0.80991393 9.1834095e-41
0.14790414 -0.74217057 -0.54859728 9.1834095e-41
-0.014600562 -0.74445438 -0.99951166 9.1834095e-41
0.022038711 -0.88459855 -0.54048264 9.1834095e-41
0.015349387 -0.75626534 -0.50055033 9.1834095e-41
0.054656599 -0.81878567 -0.51594615 9.1834095e-41
-0.13719411 -0.8144359 -0.94881094 9.1834095e-41
0.1080031 -0.82929122 -0.53893548 9.1834095e-41
0.040189225 -0.99272531 -0.70562363 9.1834095e-41
-0.09679614 -0.77168787 -0.979478 9.1834095e-41
0.068469144 -0.75306165 -0.99042171 9.1834095e-41
-0.061131068 -0.9116171 -0.56932652 9.1834095e-41
-0.10810523 -0.86245257 -0.55463445 9.1834095e-41
-0.094877407 -0.53773624 -0.84188235 9.1834095e-41
0.10919982 -0.62053668 -0.5661124 9.1834095e-41
0.038559601 -0.62182993 -0.96115297 9.1834095e-41
-0.0082788635 -0.51059377 -0.821527 9.1834095e-41
-0.090148456 -0.6783483 -0.97189927 9.1834095e-41
0.076892786 -0.61812431 -0.94798052 9.1834095e-41
0.075296767 -0.55092645 -0.88114929 9.1834095e-41
0.15356497 -0.56349027 -0.68571997 9.1834095e-41
-0.12066638 -0.66925514 -0.54648119 9.1834095e-41
0.11969604 -0.74676478 -0.9694593 9.1834095e-41
-0.12993199 -0.84372205 -0.94192147 9.1834095e-41
-0.079405718 -0.7988801 -0.98196006 9.1834095e-41
0.23481807 -0.66957915 -0.77988249 9.1834095e-41
0.18984656 -0.65505141 -0.61792785 9.1834095e-41
0.015587084 -0.74732101 -0.9994992 9.1834095e-41
-0.11480031 -0.66649503 -0.95578581 9.1834095e-41
0.016226122 -0.98068607 -0.84497714 9.1834095e-41
0.11052673 -0.71483016 -0.52853459 9.1834095e-41
-0.04173132 -0.84895408 -0.52424216 9.1834095e-41
-0.070434757 -0.89167953 -0.94356102 9.1834095e-41
0.21038155 -0.7470091 -0.61497903 9.1834095e-41
-0.0020994202 -0.97950161 -0.84911919 9.1834095e-41
-0.15121648 -0.69755185 -0.94204885 9.1834095e-41
-0.0092443125 -0.99601442 -0.70650929 9.1834095e-41
-0.19531555 -0.89035076 -0.81821656 9.1834095e-41
0.0028683683 -0.74558151 -0.99994451 9.1834095e-41
0.14798035 -0.72298467 -0.94967973 9.1834095e-41
-0.0059871506 -0.73960334 -0.99971199 9.1834095e-41
-0.099021934 -0.56122881 -0.61938572 9.1834095e-41
0.10602696 -0.95421654 -0.65225607 9.1834095e-41
-0.18699419 -0.90255201 -0.81527686 9.1834095e-41
0.023724994 -0.68003583 -0.98883498 9.1834095e-41
0.02273245 -0.9984861 -0.76542389 9.1834095e-41
-0.0047870595 -0.74187678 -0.99982214 9.1834095e-41
-0.13688543 -0.79593676 -0.54591131 9.1834095e-41
0.034807377 -0.74322397 -0.50252771 9.1834095e-41
-0.094999529 -0.62573773 -0.554977 9.1834095e-41
-0.00084131141 -0.83952272 -0.98342013 9.1834095e-41
-0.073291011 -0.87954748 -0.95086282 9.1834095e-41
-0.013328375 -0.76928604 -0.50110161 9.1834095e-41
-0.0030854931 -0.80360854 -0.99416512 9.1834095e-41
0.17188463 -0.78745943 -0.92763013 9.1834095e-41
-0.056878928 -0.77181786 -0.99246395 9.1834095e-41
0.085497759 -0.86637706 -0.95407474 9.1834095e-41
-0.067723364 -0.98852831 -0.71809715 9.1834095e-41
0.013500555 -0.55207455 -0.90212905 9.1834095e-41
0.14934368 -0.85400116 -0.92140663 9.1834095e-41
-0.070565484 -0.91298121 -0.57405221 9.1834095e-41
0.086411148 -0.55328739 -0.87781727 9.1834095e-41
0.045045361 -0.70838243 -0.50763893 9.1834095e-41
0.043968305 -0.74131209 -0.9959498 9.1834095e-41
-0.058494925 -0.51886046 -0.82518536 9.1834095e-41
0.22340991 -0.85779351 -0.71887815 9.1834095e-41
0.045128014 -0.64447916 -0.52789909 9.1834095e-41
0.22986941 -0.70543051 -0.66240078 9.1834095e-41
0.1477458 -0.92028725 -0.85804361 9.1834095e-41
-0.038393933 -0.8039428 -0.99107277 9.1834095e-41
-0.20346896 -0.80349594 -0.88505024 9.1834095e-41
0.083511598 -0.6626305 -0.96884328 9.1834095e-41
-0.20217556 -0.88745183 -0.69773114 9.1834095e-41
-0.19831002 -0.84152812 -0.87163776 9.1834095e-41
-0.12865528 -0.92578828 -0.87266332 9.1834095e-41
0.011503378 -0.83536994 -0.51530945 9.1834095e-41
-0.1393801 -0.91786361 -0.8720451 9.1834095e-41
0.080811955 -0.85535586 -0.53817558 9.1834095e-41
-0.0095507391 -0.77461785 -0.99860156 9.1834095e-41
0.20743842 -0.88583392 -0.7180869 9.1834095e-41
0.0076274085 -0.81001866 -0.50743127 9.1834095e-41
-0.21935125 -0.77561593 -0.86717021 9.1834095e-41
0.12021686 -0.80410367 -0.53758365 9.1834095e-41
-0.040477268 -0.61144227 -0.54588401 9.1834095e-41
0.058889251 -0.87450993 -0.95863682 9.1834095e-41
-0.1088904 -0.86029422 -0.55384177 9.1834095e-41
-0.13632554 -0.95509279 -0.79303855 9.1834095e-41
0.00027231872 -0.76447803 -0.99958026 9.1834095e-41
-0.004422524 -0.7527746 -0.99994546 9.1834095e-41
-0.1683487 -0.85078079 -0.90492558 9.1834095e-41
-0.0096851727 -0.71571654 -0.99744868 9.1834095e-41
-0.21853153 -0.85797262 -0.80555063 9.1834095e-41
0.071057253 -0.92120695 -0.58225298 9.1834095e-41
-0.070682265 -0.93512976 -0.59758282 9.1834095e-41
-0.0044506276 -0.73922855 -0.5002718 9.1834095e-41
-0.236294 -0.72655445 -0.67179865 9.1834095e-41
-0.19791767 -0.66562772 -0.62268186 9.1834095e-41
0.008426372 -0.74793339 -0.50015056 9.1834095e-41
-0.23612726 -0.82959509 -0.77021223 9.1834095e-41
-0.11036422 -0.936593 -0.87451023 9.1834095e-41
0.047276359 -0.99531519 -0.75924045 9.1834095e-41
-0.01291257 -0.87253302 -0.96752912 9.1834095e-41
-0.17076604 -0.80033755 -0.57448626 9.1834095e-41
-0.016136382 -0.78972793 -0.50370485 9.1834095e-41
-0.08856874 -0.5182398 -0.78070492 9.1834095e-41
0.052924104 -0.8039856 -0.9882952 9.1834095e-41
0.1622055 -0.57371581 -0.6784929 9.1834095e-41
-0.15195528 -0.78441614 -0.55448753 9.1834095e-41
0.11301333 -0.86497474 -0.55892724 9.1834095e-41
-0.06632904 -0.72749466 -0.98998743 9.1834095e-41
-0.083857045 -0.59061778 -0.92339349 9.1834095e-41
0.021785982 -0.93688685 -0.58538324 9.1834095e-41
0.037169244 -0.7660954 -0.99669695 9.1834095e-41
-0.11082018 -0.87027711 -0.9390828 9.1834095e-41
-0.026445353 -0.7820738 -0.50348037 9.1834095e-41
0.087081492 -0.85694361 -0.95851827 9.1834095e-41
-0.17915916 -0.8598069 -0.61455834 9.1834095e-41
-0.14309855 -0.57137144 -0.64942849 9.1834095e-41
0.21917307 -0.63247395 -0.77551061 9.1834095e-41
-0.015385424 -0.61403215 -0.5407728 9.1834095e-41
0.10610302 -0.97351921 -0.71420449 9.1834095e-41
-0.24408466 -0.73210061 -0.80101264 9.1834095e-41
-0.12043755 -0.82412636 -0.54384452 9.1834095e-41
-0.058588382 -0.70536286 -0.51109642 9.1834095e-41
0.00087831385 -0.86645144 -0.52877998 9.1834095e-41
-0.1391667 -0.93518585 -0.84401512 9.1834095e-41
-0.034521125 -0.54473591 -0.61152643 9.1834095e-41
0.11807219 -0.9328984 -0.6270889 9.1834095e-41
0.019896189 -0.63536859 -0.97127759 9.1834095e-41
-0.026854116 -0.82955062 -0.51452059 9.1834095e-41
0.029809587 -0.99531543 -0.78783828 9.1834095e-41
-0.034241103 -0.58958721 -0.56133282 9.1834095e-41
-0.14433245 -0.9460628 -0.80681121 9.1834095e-41
-0.24449179 -0.73445058 -0.79981941 9.1834095e-41
0.027056901 -0.68519199 -0.98993301 9.1834095e-41
-0.018533267 -0.76608717 -0.99879253 9.1834095e-41
-0.019194294 -0.73590231 -0.5011369 9.1834095e-41
-0.2321129 -0.69000721 -0.67911655 9.1834095e-41
-0.028613675 -0.778947 -0.5033356 9.1834095e-41
0.23035395 -0.82737321 -0.80874044 9.1834095e-41
-0.076561116 -0.98789489 -0.74333435 9.1834095e-41
-0.22431967 -0.68545115 -0.66047829 9.1834095e-41
-0.071168929 -0.7552675 -0.51040196 9.1834095e-41
-0.052161269 -0.87807 -0.9582721 9.1834095e-41
-0.0059145787 -0.70168614 -0.99521577 9.1834095e-41
-0.20252177 -0.89198524 -0.71359771 9.1834095e-41
-0.10940248 -0.7095049 -0.52888632 9.1834095e-41
0.19739038 -0.90233898 -0.73183769 9.1834095e-41
0.22739969 -0.71872699 -0.65094757 9.1834095e-41
0.10544723 -0.9743734 -0.71779025 9.1834095e-41
0.076981604 -0.65315843 -0.96724534 9.1834095e-41
-0.038773533 -0.93091488 -0.58187383 9.1834095e-41
0.12347763 -0.72173178 -0.5344677 9.1834095e-41
0.19674733 -0.71340442 -0.89983743 9.1834095e-41
0.21924004 -0.7049287 -0.86136597 9.1834095e-41
-0.067108065 -0.76672 -0.50975645 9.1834095e-41
0.048224922 -0.7259782 -0.9941256 9.1834095e-41
-0.0045083398 -0.7674129 -0.5006479 9.1834095e-41
-0.05581658 -0.53766882 -0.63041747 9.1834095e-41
0.10159794 -0.96690577 -0.67837775 9.1834095e-41
-0.037218928 -0.58225805 -0.56840324 9.1834095e-41
-0.17553706 -0.87574446 -0.62400365 9.1834095e-41
-0.019901579 -0.68576837 -0.99078667 9.1834095e-41
0.0076808208 -0.76608324 -0.50063616 9.1834095e-41
0.13946389 -0.8816213 -0.91039222 9.1834095e-41
0.2411837 -0.70653558 -0.79940921 9.1834095e-41
0.062801227 -0.71823591 -0.51011038 9.1834095e-41
0.015052707 -0.74348706 -0.99946141 9.1834095e-41
-0.21605268 -0.63284361 -0.70422208 9.1834095e-41
-0.032033272 -0.52064776 -0.65581179 9.1834095e-41
-0.12478863 -0.81060439 -0.54202187 9.1834095e-41
-0.067920387 -0.90943176 -0.93018973 9.1834095e-41
-0.082199432 -0.5226596 -0.81371492 9.1834095e-41
-0.029058499 -0.98993111 -0.68605739 9.1834095e-41
-0.06337864 -0.52502936 -0.66127932 9.1834095e-41
0.082253613 -0.62659734 -0.54873866 9.1834095e-41
-0.20412898 -0.70781863 -0.61197066 9.1834095e-41
0.0058787903 -0.7657721 -0.99943268 9.1834095e-41
-9.5447256e-05 -0.79804307 -0.99534029 9.1834095e-41
0.21509476 -0.62286752 -0.7584607 9.1834095e-41
-0.028991662 -0.50205183 -0.76346123 9.1834095e-41
0.14285053 -0.54810727 -0.71348906 9.1834095e-41
0.14457187 -0.92903978 -0.84769201 9.1834095e-41
-0.096475199 -0.72091526 -0.9787938 9.1834095e-41
0.033483461 -0.83267093 -0.98354739 9.1834095e-41
0.0084512616 -0.67466635 -0.98822975 9.1834095e-41
-0.24218625 -0.80642849 -0.72427756 9.1834095e-41
-0.2107072 -0.78842664 -0.6210587 9.1834095e-41
0.088987119 -0.96031445 -0.85173064 9.1834095e-41
0.027607037 -0.76137823 -0.99821037 9.1834095e-41
-0.089881219 -0.52324688 -0.69518757 9.1834095e-41
0.090791665 -0.53702539 -0.65566707 9.1834095e-41
0.049819194 -0.81895918 -0.98508018 9.1834095e-41
-0.022225337 -0.75615823 -0.50106609 9.1834095e-41
0.17243946 -0.58736974 -0.6705265 9.1834095e-41
0.033579018 -0.50244212 -0.75935638 9.1834095e-41
-0.01342843 -0.99584723 -0.70665455 9.1834095e-41
-0.028270777 -0.99778718 -0.7326138 9.1834095e-41
0.19404489 -0.61357623 -0.67103708 9.1834095e-41
-0.13113961 -0.6244396 -0.92186332 9.1834095e-41
0.19296858 -0.87110192 -0.6470561 9.1834095e-41
-0.064119965 -0.51254261 -0.70524925 9.1834095e-41
-0.15137206 -0.77769589 -0.55297351 9.1834095e-41
0.04692639 -0.93823087 -0.90769291 9.1834095e-41
-0.20091848 -0.8608048 -0.84926766 9.1834095e-41
-0.068712346 -0.72763413 -0.98932904 9.1834095e-41
0.10571064 -0.97147375 -0.70230705 9.1834095e-41
0.12218031 -0.53451967 -0.78376669 9.1834095e-41
0.14548227 -0.59810853 -0.885144 9.1834095e-41
-0.014557376 -0.63302028 -0.9704628 9.1834095e-41
-0.0020450531 -0.74672794 -0.9999702 9.1834095e-41
-0.0035715995 -0.75418919 -0.50006062 9.1834095e-41
-0.15303306 -0.60408014 -0.61662734 9.1834095e-41
-0.10669576 -0.97544235 -0.76708072 9.1834095e-41
-0.069008678 -0.77478427 -0.51099467 9.1834095e-41
-0.12514062 -0.63979203 -0.56373668 9.1834095e-41
-0.051047146 -0.84119725 -0.52289373 9.1834095e-41
-0.16941816 -0.64678437 -0.90213156 9.1834095e-41
-0.15299898 -0.74783152 -0.94770336 9.1834095e-41
0.13784668 -0.71452183 -0.95552272 9.1834095e-41
-0.18695575 -0.65981114 -0.61066759 9.1834095e-41
0.0306847 -0.75620759 -0.50196791 9.1834095e-41
0.0014589193 -0.74852651 -0.99999142 9.1834095e-41
-0.21677582 -0.6304509 -0.78487474 9.1834095e-41
0.0075890222 -0.7608614 -0.99964863 9.1834095e-41
0.17226419 -0.74676192 -0.93114793 9.1834095e-41
0.06868811 -0.58346099 -0.92333984 9.1834095e-41
-0.024895405 -0.50607413 -0.7987892 9.1834095e-41
0.18511155 -0.73813283 -0.58239067 9.1834095e-41
-0.15166149 -0.7918368 -0.55571032 9.1834095e-41
0.18232773 -0.74548429 -0.579014 9.1834095e-41
-0.19306219 -0.78776532 -0.595725 9.1834095e-41
0.16307919 -0.62353086 -0.89110541 9.1834095e-41
0.11152673 -0.8683002 -0.56008726 9.1834095e-41
0.14672004 -0.55972731 -0.6809383 9.1834095e-41
-0.095205262 -0.95459867 -0.64241123 9.1834095e-41
-0.16230181 -0.63272101 -0.60032117 9.1834095e-41
-0.10607753 -0.53605908 -0.82400554 9.1834095e-41
-0.017659638 -0.67111725 -0.5134294 9.1834095e-41
-0.0041440204 -0.72858429 -0.99904656 9.1834095e-41
-0.22696687 -0.64759052 -0.77232355 9.1834095e-41
0.042277716 -0.8427279 -0.97828519 9.1834095e-41
-0.2216747 -0.63536662 -0.73518419 9.1834095e-41
0.084285818 -0.54899299 -0.62755787 9.1834095e-41
-0.18060525 -0.78457612 -0.58062989 9.1834095e-41
-0.063247427 -0.74972093 -0.99186707 9.1834095e-41
0.056910098 -0.66328019 -0.52253371 9.1834095e-41
0.024723778 -0.66122389 -0.51760477 9.1834095e-41
0.038736273 -0.75646001 -0.99689627 9.1834095e-41
-0.13652106 -0.59569478 -0.60839528 9.1834095e-41
-0.2485556 -0.73041469 -0.73165536 9.1834095e-41
0.047788627 -0.622136 -0.54055542 9.1834095e-41
-0.083751842 -0.98207414 -0.70966101 9.1834095e-41
-0.043712832 -0.72381288 -0.50524825 9.1834095e-41
0.0036753821 -0.81227422 -0.50790823 9.1834095e-41
0.12235443 -0.64610124 -0.94166231 9.1834095e-41
-0.16508329 -0.72696191 -0.93632436 9.1834095e-41
0.073286384 -0.92786276 -0.59033179 9.1834095e-41
-0.23480985 -0.77130234 -0.6668703 9.1834095e-41
0.0015998279 -0.75265896 -0.50001925 9.1834095e-41
0.017732788 -0.61855054 -0.53808826 9.1834095e-41
-0.19359989 -0.85414833 -0.86904711 9.1834095e-41
0.1643219 -0.93510079 -0.71484315 9.1834095e-41
-0.063768357 -0.83636999 -0.97577381 9.1834095e-41
0.14614558 -0.92132276 -0.85858166 9.1834095e-41
-0.042449374 -0.73864537 -0.50389206 9.1834095e-41
-0.22095448 -0.83752006 -0.82758445 9.1834095e-41
0.018115472 -0.51440609 -0.83165371 9.1834095e-41
-0.0075995098 -0.76338416 -0.99952579 9.1834095e-41
0.022443207 -0.51520193 -0.83286238 9.1834095e-41
0.11280478 -0.91287822 -0.59753436 9.1834095e-41
-0.17186981 -0.90961123 -0.83651596 9.1834095e-41
0.033949621 -0.94813275 -0.89862984 9.1834095e-41
-0.028170142 -0.93785554 -0.58746779 9.1834095e-41
0.11257658 -0.80268669 -0.96691155 9.1834095e-41
-0.090876944 -0.59832722 -0.57326078 9.1834095e-41
-0.18240434 -0.6139791 -0.85357106 9.1834095e-41
-0.21106787 -0.81163746 -0.63104129 9.1834095e-41
-0.013162609 -0.79032558 -0.99637491 9.1834095e-41
0.12916705 -0.65261865 -0.94061148 9.1834095e-41
0.045866121 -0.57999128 -0.57253641 9.1834095e-41
-0.14803633 -0.65874457 -0.57039577 9.1834095e-41
-0.013082243 -0.80478519 -0.99357224 9.1834095e-41
0.23541719 -0.71576065 -0.82685322 9.1834095e-41
0.079673201 -0.98633349 -0.73271853 9.1834095e-41
0.0086983368 -0.77293271 -0.99879396 9.1834095e-41
0.18951291 -0.60357147 -0.82171845 9.1834095e-41
0.19588529 -0.78420067 -0.59847689 9.1834095e-41
0.15653287 -0.94378966 -0.72895169 9.1834095e-41
0.069666691 -0.61718243 -0.95001513 9.1834095e-41
0.0082559045 -0.8659128 -0.97135055 9.1834095e-41
-0.026774626 -0.74082601 -0.50160724 9.1834095e-41
-0.2013476 -0.64499325 -0.85455966 9.1834095e-41
0.020314561 -0.76068974 -0.50105613 9.1834095e-41
0.096832238 -0.5195781 -0.74458951 9.1834095e-41
0.031321269 -0.67703313 -0.51294553 9.1834095e-41
-0.20707887 -0.87589395 -0.68860745 9.1834095e-41
0.12251487 -0.54914582 -0.66545588 9.1834095e-41
-0.002372924 -0.89598888 -0.95293254 9.1834095e-41
0.076704711 -0.58662999 -0.92299318 9.1834095e-41
-0.13582511 -0.69977927 -0.54621232 9.1834095e-41
-0.012371632 -0.78599983 -0.50291508 9.1834095e-41
-0.12265055 -0.67710197 -0.54471308 9.1834095e-41
-0.19130924 -0.6600374 -0.88344479 9.1834095e-41
0.047889791 -0.80190039 -0.98981851 9.1834095e-41
0.22303431 -0.65964586 -0.68223703 9.1834095e-41
0.19005756 -0.58832389 -0.76545841 9.1834095e-41
-0.0066781868 -0.72348011 -0.50150031 9.1834095e-41
0.10836227 -0.74904317 -0.52470756 9.1834095e-41
0.061945409 -0.65379179 -0.97227627 9.1834095e-41
0.013339143 -0.57504326 -0.92807919 9.1834095e-41
-0.201083 -0.86525285 -0.84371448 9.1834095e-41
0.18865924 -0.82200676 -0.89738625 9.1834095e-41
0.0096682804 -0.74039733 -0.99962837 9.1834095e-41
-0.15679578 -0.6779846 -0.93091118 9.1834095e-41
-0.01138676 -0.90796375 -0.9434368 9.1834095e-41
0.065863371 -0.99116778 -0.74965703 9.1834095e-41
0.1599035 -0.83345568 -0.57689303 9.1834095e-41
0.10111285 -0.67088294 -0.96451497 9.1834095e-41
0.23899341 -0.78038788 -0.81677371 9.1834095e-41
0.076477207 -0.771366 -0.51294571 9.1834095e-41
0.097994588 -0.67477101 -0.53265774 9.1834095e-41
0.18099996 -0.69137317 -0.58782136 9.1834095e-41
-0.19270873 -0.89852083 -0.69251162 9.1834095e-41
0.11825798 -0.65751469 -0.55009621 9.1834095e-41
-0.0028144484 -0.79198772 -0.99643278 9.1834095e-41
-0.17969401 -0.89467162 -0.84633374 9.1834095e-41
-0.096653216 -0.92156947 -0.90401971 9.1834095e-41
0.1334559 -0.68939841 -0.54747355 9.1834095e-41
-0.0086562615 -0.87779558 -0.96469367 9.1834095e-41
-0.0017607524 -0.75123584 -0.50000924 9.1834095e-41
0.048538212 -0.79889053 -0.50967991 9.1834095e-41
0.21038841 -0.8768481 -0.70367199 9.1834095e-41
-0.11604468 -0.83092195 -0.95611954 9.1834095e-41
0.034912039 -0.70107961 -0.50733161 9.1834095e-41
-0.20533587 -0.74173671 -0.60763115 9.1834095e-41
0.1802683 -0.58510101 -0.69697505 9.1834095e-41
0.10452669 -0.53892469 -0.66620624 9.1834095e-41
-0.21442613 -0.73822033 -0.87799484 9.1834095e-41
-0.01853984 -0.84407413 -0.98088169 9.1834095e-41
0.22534795 -0.68486422 -0.66353828 9.1834095e-41
