ply
format ascii 1.0
comment PCL generated
element vertex 1392
property float x
property float y
property float z
element camera 0
property float view_px
property float view_py
property float view_pz
property float x_axisx
property float x_axisy
property float x_axisz
property float y_axisx
property float y_axisy
property float y_axisz
property float z_axisx
property float z_axisy
property float z_axisz
property float focal
property float scalex
property float scaley
property float centerx
property float centery
property int viewportx
property int viewporty
property float k1
property float k2
end_header
0.63302219 0.75440657 0.17364822
0.64034158 0.76312947 0.087155804
0.64278758 0.7660445 -4.3711388e-08
0.64034158 0.76312947 -0.087155767
0.63302219 0.75440657 -0.17364819
0.62088513 0.73994213 -0.25881904
0.60402274 0.71984637 -0.34202012
0.58256334 0.69427204 -0.42261833
0.55667031 0.66341394 -0.50000006
0.52654076 0.62750685 -0.57357645
0.49240384 0.58682412 -0.64278764
0.45451945 0.54167527 -0.70710677
0.41317591 0.49240392 -0.76604444
0.36868781 0.43938509 -0.819152
0.32139382 0.38302231 -0.86602539
0.2716538 0.32374445 -0.90630776
0.21984634 0.26200271 -0.93969256
0.16636573 0.19826697 -0.96592581
0.11161897 0.13302232 -0.98480773
0.056022715 0.066765279 -0.99619466
-5.6194274e-08 -6.696974e-08 -1
0 0 1
0.049990479 0.071393803 0.99619472
0.099600509 0.14224426 0.98480773
0.14845251 0.21201216 0.96592581
0.1961747 0.28016648 0.93969262
0.24240388 0.34618863 0.90630782
0.28678823 0.40957603 0.86602545
0.32898995 0.46984634 0.81915206
0.36868781 0.52654076 0.7660445
0.40557984 0.57922798 0.70710677
0.43938509 0.62750691 0.64278758
0.46984634 0.67101008 0.57357645
0.49673179 0.70940655 0.49999997
0.51983684 0.74240392 0.42261824
0.53898555 0.76975113 0.34202015
0.55403233 0.7912401 0.25881907
0.56486255 0.80670726 0.17364822
0.57139385 0.81603497 0.087155804
0.57357645 0.81915206 -4.3711388e-08
0.57139385 0.81603497 -0.087155767
0.56486255 0.80670726 -0.17364819
0.55403233 0.7912401 -0.25881904
0.53898555 0.76975113 -0.34202012
0.51983678 0.74240386 -0.42261833
0.49673173 0.70940644 -0.50000006
0.46984631 0.67101002 -0.57357645
0.43938506 0.62750685 -0.64278764
0.40557981 0.57922798 -0.70710677
0.36868784 0.52654082 -0.76604444
0.32898995 0.46984634 -0.819152
0.28678825 0.40957609 -0.86602539
0.24240392 0.34618866 -0.90630776
0.19617474 0.28016657 -0.93969256
0.14845257 0.21201223 -0.96592581
0.099600576 0.14224435 -0.98480773
0.049990561 0.071393915 -0.99619466
-5.0143647e-08 -7.1612547e-08 -1
0 0 1
0.043577865 0.075479083 0.99619472
0.086824082 0.15038374 0.98480773
0.12940951 0.22414388 0.96592581
0.17101005 0.29619813 0.93969262
0.21130912 0.36599818 0.90630782
0.24999999 0.43301272 0.86602545
0.2867882 0.49673179 0.81915206
0.32139376 0.55667043 0.7660445
0.35355338 0.61237252 0.70710677
0.38302222 0.663414 0.64278758
0.409576 0.70940655 0.57357645
0.43301269 0.75000006 0.49999997
0.45315388 0.78488564 0.42261824
0.46984628 0.81379771 0.34202015
0.48296288 0.83651632 0.25881907
0.49240384 0.85286856 0.17364822
0.49809733 0.86272997 0.087155804
0.49999997 0.86602545 -4.3711388e-08
0.49809733 0.86272997 -0.087155767
0.49240384 0.85286856 -0.17364819
0.48296288 0.83651632 -0.25881904
0.46984628 0.81379771 -0.34202012
0.45315385 0.78488559 -0.42261833
0.43301263 0.75 -0.50000006
0.40957597 0.7094065 -0.57357645
0.38302219 0.663414 -0.64278764
0.35355335 0.61237246 -0.70710677
0.32139379 0.55667043 -0.76604444
0.2867882 0.49673179 -0.819152
0.25 0.43301278 -0.86602539
0.21130915 0.36599824 -0.90630776
0.17101009 0.29619822 -0.93969256
0.12940955 0.22414395 -0.96592581
0.086824141 0.15038384 -0.98480773
0.043577936 0.075479209 -0.99619466
-4.3711385e-08 -7.5710346e-08 -1
0 0 1
0.036833603 0.078989923 0.99619472
0.073386885 0.1573787 0.98480773
0.10938165 0.23456973 0.96592581
0.14454395 0.3099755 0.93969262
0.17860618 0.38302225 0.90630782
0.21130912 0.45315391 0.86602545
0.24240386 0.51983684 0.81915206
0.27165374 0.5825634 0.7660445
0.29883623 0.64085644 0.70710677
0.32374439 0.6942721 0.64278758
0.3461886 0.74240392 0.57357645
0.36599815 0.78488564 0.49999997
0.38302222 0.82139385 0.42261824
0.39713123 0.85165077 0.34202015
0.40821788 0.87542611 0.25881907
0.41619772 0.89253896 0.17364822
0.42101005 0.90285903 0.087155804
0.42261824 0.90630782 -4.3711388e-08
0.42101005 0.90285903 -0.087155767
0.41619772 0.89253896 -0.17364819
0.40821788 0.87542611 -0.25881904
0.39713123 0.85165077 -0.34202012
0.38302219 0.82139379 -0.42261833
0.36599809 0.78488553 -0.50000006
0.34618858 0.74240386 -0.57357645
0.32374436 0.69427204 -0.64278764
0.29883623 0.64085639 -0.70710677
0.27165377 0.58256346 -0.76604444
0.24240386 0.51983684 -0.819152
0.21130915 0.45315397 -0.86602539
0.17860621 0.38302231 -0.90630776
0.14454398 0.30997559 -0.93969256
0.10938168 0.2345698 -0.96592581
0.073386937 0.15737881 -0.98480773
0.036833663 0.078990057 -0.99619466
-3.694646e-08 -7.9231945e-08 -1
0 0 1
0.029809019 0.081899606 0.99619472
0.059391178 0.16317591 0.98480773
0.088521332 0.24321035 0.96592581
0.11697777 0.32139379 0.93969262
0.14454396 0.39713126 0.90630782
0.17101008 0.46984631 0.86602545
0.19617471 0.53898555 0.81915206
0.21984631 0.60402274 0.7660445
0.24184479 0.66446304 0.70710677
0.26200265 0.71984637 0.64278758
0.28016651 0.76975113 0.57357645
0.29619816 0.81379771 0.49999997
0.30997553 0.85165077 0.42261824
0.32139382 0.88302219 0.34202015
0.3303661 0.90767336 0.25881907
0.33682409 0.92541653 0.17364822
0.34071866 0.93611681 0.087155804
0.34202015 0.93969262 -4.3711388e-08
0.34071866 0.93611681 -0.087155767
0.33682409 0.92541653 -0.17364819
0.3303661 0.90767336 -0.25881904
0.32139382 0.88302219 -0.34202012
0.3099755 0.85165071 -0.42261833
0.29619813 0.81379759 -0.50000006
0.28016651 0.76975107 -0.57357645
0.26200265 0.71984631 -0.64278764
0.24184477 0.66446298 -0.70710677
0.21984632 0.6040228 -0.76604444
0.19617471 0.53898555 -0.819152
0.17101009 0.46984637 -0.86602539
0.14454399 0.39713132 -0.90630776
0.1169778 0.32139388 -0.93969256
0.088521361 0.24321043 -0.96592581
0.059391219 0.16317603 -0.98480773
0.029809067 0.081899732 -0.99619466
-2.9900352e-08 -8.2150535e-08 -1
0 0 1
0.022557568 0.084185973 0.99619472
0.044943459 0.16773126 0.98480773
0.066987306 0.25 0.96592581
0.088521332 0.33036608 0.93969262
0.10938167 0.40821791 0.90630782
0.12940954 0.48296291 0.86602545
0.14845252 0.55403233 0.81915206
0.16636568 0.62088513 0.7660445
0.18301274 0.68301272 0.70710677
0.19826692 0.73994213 0.64278758
0.21201217 0.7912401 0.57357645
0.22414391 0.83651632 0.49999997
0.23456974 0.87542611 0.42261824
0.24321038 0.90767336 0.34202015
0.25000003 0.93301266 0.25881907
0.25488701 0.95125121 0.17364822
0.2578342 0.96225017 0.087155804
0.25881907 0.96592581 -4.3711388e-08
0.2578342 0.96225017 -0.087155767
0.25488701 0.95125121 -0.17364819
0.25000003 0.93301266 -0.25881904
0.24321038 0.90767336 -0.34202012
0.23456973 0.87542605 -0.42261833
0.22414388 0.8365162 -0.50000006
0.21201216 0.79124004 -0.57357645
0.19826691 0.73994207 -0.64278764
0.18301272 0.68301266 -0.70710677
0.1663657 0.62088519 -0.76604444
0.14845252 0.55403233 -0.819152
0.12940955 0.48296297 -0.86602539
0.10938168 0.40821797 -0.90630776
0.088521354 0.33036616 -0.93969256
0.066987328 0.25000009 -0.96592581
0.044943493 0.16773137 -0.98480773
0.022557603 0.084186114 -0.99619466
-2.2626683e-08 -8.4443919e-08 -1
0 0 1
0.015134439 0.085831642 0.99619472
0.030153697 0.17101006 0.98480773
0.044943467 0.25488698 0.96592581
0.059391186 0.33682406 0.93969262
0.073386915 0.41619775 0.90630782
0.086824112 0.49240386 0.86602545
0.099600531 0.56486255 0.81915206
0.11161892 0.63302219 0.7660445
0.12278785 0.69636428 0.70710677
0.13302226 0.75440657 0.64278758
0.14224429 0.80670726 0.57357645
0.15038379 0.85286856 0.49999997
0.15737875 0.89253896 0.42261824
0.16317596 0.92541653 0.34202015
0.1677313 0.95125121 0.25881907
0.17101011 0.96984625 0.17364822
0.17298745 0.98106027 0.087155804
0.17364822 0.98480773 -4.3711388e-08
0.17298745 0.98106027 -0.087155767
0.17101011 0.96984625 -0.17364819
0.1677313 0.95125121 -0.25881904
0.16317596 0.92541653 -0.34202012
0.15737873 0.89253891 -0.42261833
0.15038376 0.85286844 -0.50000006
0.14224429 0.8067072 -0.57357645
0.13302225 0.75440651 -0.64278764
0.12278783 0.69636422 -0.70710677
0.11161893 0.63302225 -0.76604444
0.099600531 0.56486255 -0.819152
0.086824119 0.49240392 -0.86602539
0.073386922 0.41619781 -0.90630776
0.059391204 0.33682415 -0.93969256
0.044943482 0.25488707 -0.96592581
0.030153718 0.17101018 -0.98480773
0.015134463 0.085831784 -0.99619466
-1.5180809e-08 -8.6094623e-08 -1
0 0 1
0.0075961282 0.086824082 0.99619472
0.015134446 0.1729874 0.98480773
0.022557583 0.25783417 0.96592581
0.029809039 0.34071866 0.93969262
0.036833636 0.42101008 0.90630782
0.043577902 0.49809736 0.86602545
0.049990516 0.57139385 0.81915206
0.056022666 0.64034158 0.7660445
0.061628465 0.7044161 0.70710677
0.066765226 0.76312947 0.64278758
0.071393855 0.81603497 0.57357645
0.075479142 0.86272997 0.49999997
0.07898999 0.90285903 0.42261824
0.081899665 0.93611681 0.34202015
0.08418604 0.96225017 0.25881907
0.085831709 0.98106027 0.17364822
0.086824149 0.99240392 0.087155804
0.087155804 0.99619472 -4.3711388e-08
0.086824149 0.99240392 -0.087155767
0.085831709 0.98106027 -0.17364819
0.08418604 0.96225017 -0.25881904
0.081899665 0.93611681 -0.34202012
0.078989983 0.90285903 -0.42261833
0.075479135 0.86272985 -0.50000006
0.071393847 0.81603491 -0.57357645
0.066765219 0.76312941 -0.64278764
0.061628457 0.70441604 -0.70710677
0.056022674 0.64034164 -0.76604444
0.049990516 0.57139385 -0.819152
0.043577906 0.49809742 -0.86602539
0.03683364 0.42101014 -0.90630776
0.029809047 0.34071872 -0.93969256
0.02255759 0.25783426 -0.96592581
0.015134457 0.17298752 -0.98480773
0.0075961407 0.086824223 -0.99619466
-7.619402e-09 -8.7090108e-08 -1
-0 0 1
-3.8096983e-09 0.087155737 0.99619472
-7.590403e-09 0.17364818 0.98480773
-1.131334e-08 0.25881904 0.96592581
-1.4950174e-08 0.34202012 0.93969262
-1.8473232e-08 0.42261827 0.90630782
-2.1855694e-08 0.5 0.86602545
-2.5071824e-08 0.57357645 0.81915206
-2.8097137e-08 0.64278758 0.7660445
-3.090862e-08 0.70710683 0.70710677
-3.348487e-08 0.7660445 0.64278758
-3.5806274e-08 0.81915206 0.57357645
-3.7855173e-08 0.86602545 0.49999997
-3.9615973e-08 0.90630782 0.42261824
-4.1075268e-08 0.93969262 0.34202015
-4.2221959e-08 0.96592581 0.25881907
-4.3047311e-08 0.98480773 0.17364822
-4.3545054e-08 0.99619472 0.087155804
-4.3711388e-08 1 -4.3711388e-08
-4.3545054e-08 0.99619472 -0.087155767
-4.3047311e-08 0.98480773 -0.17364819
-4.2221959e-08 0.96592581 -0.25881904
-4.1075268e-08 0.93969262 -0.34202012
-3.9615969e-08 0.90630776 -0.42261833
-3.785517e-08 0.86602533 -0.50000006
-3.580627e-08 0.819152 -0.57357645
-3.3484866e-08 0.76604444 -0.64278764
-3.090862e-08 0.70710677 -0.70710677
-2.8097141e-08 0.64278764 -0.76604444
-2.5071824e-08 0.57357645 -0.819152
-2.1855696e-08 0.50000006 -0.86602539
-1.8473234e-08 0.42261833 -0.90630776
-1.4950178e-08 0.34202021 -0.93969256
-1.1313344e-08 0.25881913 -0.96592581
-7.5904083e-09 0.1736483 -0.98480773
-3.8097046e-09 0.087155879 -0.99619466
3.8213709e-15 -8.7422777e-08 -1
-0 0 1
-0.0075961249 0.086824082 0.99619472
-0.01513444 0.1729874 0.98480773
-0.022557572 0.25783417 0.96592581
-0.029809026 0.34071866 0.93969262
-0.036833618 0.42101008 0.90630782
-0.043577883 0.49809736 0.86602545
-0.049990494 0.57139385 0.81915206
-0.056022644 0.64034158 0.7660445
-0.061628439 0.7044161 0.70710677
-0.066765197 0.76312947 0.64278758
-0.071393825 0.81603497 0.57357645
-0.075479113 0.86272997 0.49999997
-0.078989953 0.90285903 0.42261824
-0.081899628 0.93611681 0.34202015
-0.084186003 0.96225017 0.25881907
-0.085831672 0.98106027 0.17364822
-0.086824112 0.99240392 0.087155804
-0.087155767 0.99619472 -4.3711388e-08
-0.086824112 0.99240392 -0.087155767
-0.085831672 0.98106027 -0.17364819
-0.084186003 0.96225017 -0.25881904
-0.081899628 0.93611681 -0.34202012
-0.078989945 0.90285903 -0.42261833
-0.075479105 0.86272985 -0.50000006
-0.071393818 0.81603491 -0.57357645
-0.066765189 0.76312941 -0.64278764
-0.061628431 0.70441604 -0.70710677
-0.056022648 0.64034164 -0.76604444
-0.049990494 0.57139385 -0.819152
-0.043577887 0.49809742 -0.86602539
-0.036833625 0.42101014 -0.90630776
-0.029809033 0.34071872 -0.93969256
-0.022557581 0.25783426 -0.96592581
-0.015134451 0.17298752 -0.98480773
-0.0075961375 0.086824223 -0.99619466
7.6193993e-09 -8.7090108e-08 -1
-0 0 1
-0.015134436 0.085831642 0.99619472
-0.030153692 0.17101006 0.98480773
-0.044943459 0.25488698 0.96592581
-0.059391178 0.33682406 0.93969262
-0.0733869 0.41619775 0.90630782
-0.086824097 0.49240386 0.86602545
-0.099600516 0.56486255 0.81915206
-0.1116189 0.63302219 0.7660445
-0.12278783 0.69636428 0.70710677
-0.13302225 0.75440657 0.64278758
-0.14224428 0.80670726 0.57357645
-0.15038376 0.85286856 0.49999997
-0.15737872 0.89253896 0.42261824
-0.16317593 0.92541653 0.34202015
-0.16773127 0.95125121 0.25881907
-0.17101008 0.96984625 0.17364822
-0.17298742 0.98106027 0.087155804
-0.17364819 0.98480773 -4.3711388e-08
-0.17298742 0.98106027 -0.087155767
-0.17101008 0.96984625 -0.17364819
-0.16773127 0.95125121 -0.25881904
-0.16317593 0.92541653 -0.34202012
-0.1573787 0.89253891 -0.42261833
-0.15038374 0.85286844 -0.50000006
-0.14224426 0.8067072 -0.57357645
-0.13302223 0.75440651 -0.64278764
-0.12278781 0.69636422 -0.70710677
-0.11161891 0.63302225 -0.76604444
-0.099600516 0.56486255 -0.819152
-0.086824104 0.49240392 -0.86602539
-0.073386908 0.41619781 -0.90630776
-0.059391193 0.33682415 -0.93969256
-0.044943474 0.25488707 -0.96592581
-0.030153714 0.17101018 -0.98480773
-0.015134461 0.085831784 -0.99619466
1.5180808e-08 -8.6094623e-08 -1
-0 0 1
-0.022557564 0.084185973 0.99619472
-0.044943456 0.16773126 0.98480773
-0.066987298 0.25 0.96592581
-0.088521324 0.33036608 0.93969262
-0.10938165 0.40821791 0.90630782
-0.12940952 0.48296291 0.86602545
-0.14845251 0.55403233 0.81915206
-0.16636567 0.62088513 0.7660445
-0.18301271 0.68301272 0.70710677
-0.19826691 0.73994213 0.64278758
-0.21201216 0.7912401 0.57357645
-0.22414388 0.83651632 0.49999997
-0.23456973 0.87542611 0.42261824
-0.24321035 0.90767336 0.34202015
-0.25 0.93301266 0.25881907
-0.25488698 0.95125121 0.17364822
-0.25783417 0.96225017 0.087155804
-0.25881904 0.96592581 -4.3711388e-08
-0.25783417 0.96225017 -0.087155767
-0.25488698 0.95125121 -0.17364819
-0.25 0.93301266 -0.25881904
-0.24321035 0.90767336 -0.34202012
-0.23456971 0.87542605 -0.42261833
-0.22414385 0.8365162 -0.50000006
-0.21201214 0.79124004 -0.57357645
-0.19826689 0.73994207 -0.64278764
-0.18301269 0.68301266 -0.70710677
-0.16636568 0.62088519 -0.76604444
-0.14845251 0.55403233 -0.819152
-0.12940954 0.48296297 -0.86602539
-0.10938167 0.40821797 -0.90630776
-0.088521346 0.33036616 -0.93969256
-0.066987321 0.25000009 -0.96592581
-0.044943485 0.16773137 -0.98480773
-0.022557601 0.084186114 -0.99619466
2.2626679e-08 -8.4443919e-08 -1
-0 0 1
-0.029809017 0.081899606 0.99619472
-0.059391171 0.16317591 0.98480773
-0.088521324 0.24321035 0.96592581
-0.11697777 0.32139379 0.93969262
-0.14454395 0.39713126 0.90630782
-0.17101006 0.46984631 0.86602545
-0.1961747 0.53898555 0.81915206
-0.21984629 0.60402274 0.7660445
-0.24184476 0.66446304 0.70710677
-0.26200265 0.71984637 0.64278758
-0.28016648 0.76975113 0.57357645
-0.29619813 0.81379771 0.49999997
-0.3099755 0.85165077 0.42261824
-0.32139379 0.88302219 0.34202015
-0.33036608 0.90767336 0.25881907
-0.33682406 0.92541653 0.17364822
-0.34071866 0.93611681 0.087155804
-0.34202012 0.93969262 -4.3711388e-08
-0.34071866 0.93611681 -0.087155767
-0.33682406 0.92541653 -0.17364819
-0.33036608 0.90767336 -0.25881904
-0.32139379 0.88302219 -0.34202012
-0.3099755 0.85165071 -0.42261833
-0.2961981 0.81379759 -0.50000006
-0.28016648 0.76975107 -0.57357645
-0.26200262 0.71984631 -0.64278764
-0.24184474 0.66446298 -0.70710677
-0.21984631 0.6040228 -0.76604444
-0.1961747 0.53898555 -0.819152
-0.17101008 0.46984637 -0.86602539
-0.14454398 0.39713132 -0.90630776
-0.1169778 0.32139388 -0.93969256
-0.088521354 0.24321043 -0.96592581
-0.059391212 0.16317603 -0.98480773
-0.029809065 0.081899732 -0.99619466
2.9900349e-08 -8.2150535e-08 -1
-0 0 1
-0.03683361 0.078989923 0.99619472
-0.0733869 0.15737869 0.98480773
-0.10938167 0.23456971 0.96592581
-0.14454398 0.3099755 0.93969262
-0.17860623 0.38302222 0.90630782
-0.21130916 0.45315388 0.86602545
-0.24240392 0.51983678 0.81915206
-0.2716538 0.58256334 0.7660445
-0.29883632 0.64085639 0.70710677
-0.32374445 0.69427204 0.64278758
-0.34618866 0.74240386 0.57357645
-0.36599824 0.78488559 0.49999997
-0.38302231 0.82139379 0.42261824
-0.39713132 0.85165071 0.34202015
-0.40821797 0.87542605 0.25881907
-0.41619781 0.89253891 0.17364822
-0.42101014 0.90285903 0.087155804
-0.42261833 0.90630776 -4.3711388e-08
-0.42101014 0.90285903 -0.087155767
-0.41619781 0.89253891 -0.17364819
-0.40821797 0.87542605 -0.25881904
-0.39713132 0.85165071 -0.34202012
-0.38302228 0.82139373 -0.42261833
-0.36599818 0.78488547 -0.50000006
-0.34618863 0.74240381 -0.57357645
-0.32374442 0.69427204 -0.64278764
-0.29883629 0.64085633 -0.70710677
-0.27165383 0.5825634 -0.76604444
-0.24240392 0.51983678 -0.819152
-0.21130919 0.45315394 -0.86602539
-0.17860626 0.38302228 -0.90630776
-0.14454401 0.30997556 -0.93969256
-0.10938171 0.23456979 -0.96592581
-0.073386952 0.15737879 -0.98480773
-0.03683367 0.07899005 -0.99619466
3.6946467e-08 -7.9231938e-08 -1
-0 0 1
-0.043577872 0.075479075 0.99619472
-0.086824097 0.15038373 0.98480773
-0.12940954 0.22414385 0.96592581
-0.17101008 0.2961981 0.93969262
-0.21130916 0.36599812 0.90630782
-0.25000003 0.43301266 0.86602545
-0.28678825 0.49673173 0.81915206
-0.32139382 0.55667031 0.7660445
-0.35355344 0.6123724 0.70710677
-0.38302231 0.66341394 0.64278758
-0.40957609 0.70940644 0.57357645
-0.43301278 0.75 0.49999997
-0.45315397 0.78488553 0.42261824
-0.46984637 0.81379759 0.34202015
-0.48296297 0.8365162 0.25881907
-0.49240392 0.85286844 0.17364822
-0.49809742 0.86272985 0.087155804
-0.50000006 0.86602533 -4.3711388e-08
-0.49809742 0.86272985 -0.087155767
-0.49240392 0.85286844 -0.17364819
-0.48296297 0.8365162 -0.25881904
-0.46984637 0.81379759 -0.34202012
-0.45315394 0.78488547 -0.42261833
-0.43301272 0.74999988 -0.50000006
-0.40957606 0.70940638 -0.57357645
-0.38302228 0.66341388 -0.64278764
-0.35355341 0.6123724 -0.70710677
-0.32139385 0.55667037 -0.76604444
-0.28678825 0.49673173 -0.819152
-0.25000006 0.43301272 -0.86602539
-0.21130919 0.36599818 -0.90630776
-0.17101012 0.29619816 -0.93969256
-0.12940958 0.22414392 -0.96592581
-0.086824156 0.15038383 -0.98480773
-0.043577943 0.075479202 -0.99619466
4.3711392e-08 -7.5710339e-08 -1
-0 0 1
-0.049990479 0.071393795 0.99619472
-0.099600509 0.14224425 0.98480773
-0.14845251 0.21201214 0.96592581
-0.1961747 0.28016648 0.93969262
-0.24240388 0.3461886 0.90630782
-0.28678823 0.409576 0.86602545
-0.32898995 0.46984631 0.81915206
-0.36868781 0.52654076 0.7660445
-0.40557984 0.57922798 0.70710677
-0.43938509 0.62750685 0.64278758
-0.46984634 0.67101002 0.57357645
-0.49673179 0.7094065 0.49999997
-0.51983684 0.74240386 0.42261824
-0.53898555 0.76975107 0.34202015
-0.55403233 0.79124004 0.25881907
-0.56486255 0.8067072 0.17364822
-0.57139385 0.81603491 0.087155804
-0.57357645 0.819152 -4.3711388e-08
-0.57139385 0.81603491 -0.087155767
-0.56486255 0.8067072 -0.17364819
-0.55403233 0.79124004 -0.25881904
-0.53898555 0.76975107 -0.34202012
-0.51983678 0.74240381 -0.42261833
-0.49673173 0.70940638 -0.50000006
-0.46984631 0.67101002 -0.57357645
-0.43938506 0.62750685 -0.64278764
-0.40557981 0.57922792 -0.70710677
-0.36868784 0.52654076 -0.76604444
-0.32898995 0.46984631 -0.819152
-0.28678825 0.40957606 -0.86602539
-0.24240392 0.34618863 -0.90630776
-0.19617474 0.28016654 -0.93969256
-0.14845257 0.21201222 -0.96592581
-0.099600576 0.14224435 -0.98480773
-0.049990561 0.071393915 -0.99619466
5.0143647e-08 -7.161254e-08 -1
-0 0 1
-0.056022629 0.066765167 0.99619472
-0.1116189 0.13302222 0.98480773
-0.16636568 0.19826689 0.96592581
-0.21984631 0.26200262 0.93969262
-0.2716538 0.32374439 0.90630782
-0.32139382 0.38302222 0.86602545
-0.36868784 0.43938506 0.81915206
-0.41317591 0.49240384 0.7660445
-0.45451954 0.54167527 0.70710677
-0.49240392 0.58682412 0.64278758
-0.52654082 0.62750685 0.57357645
-0.55667043 0.663414 0.49999997
-0.58256346 0.69427204 0.42261824
-0.6040228 0.71984631 0.34202015
-0.62088519 0.73994207 0.25881907
-0.63302225 0.75440651 0.17364822
-0.64034164 0.76312941 0.087155804
-0.64278764 0.76604444 -4.3711388e-08
-0.64034164 0.76312941 -0.087155767
-0.63302225 0.75440651 -0.17364819
-0.62088519 0.73994207 -0.25881904
-0.6040228 0.71984631 -0.34202012
-0.5825634 0.69427204 -0.42261833
-0.55667037 0.66341388 -0.50000006
-0.52654076 0.62750685 -0.57357645
-0.49240389 0.58682406 -0.64278764
-0.45451948 0.54167521 -0.70710677
-0.41317594 0.49240389 -0.76604444
-0.36868784 0.43938506 -0.819152
-0.32139385 0.38302228 -0.86602539
-0.27165383 0.32374442 -0.90630776
-0.21984637 0.26200268 -0.93969256
-0.16636574 0.19826695 -0.96592581
-0.11161898 0.13302231 -0.98480773
-0.056022722 0.066765279 -0.99619466
5.6194281e-08 -6.6969733e-08 -1
-0 0 1
-0.061628412 0.061628412 0.99619472
-0.1227878 0.1227878 0.98480773
-0.18301269 0.18301269 0.96592581
-0.24184474 0.24184474 0.93969262
-0.29883623 0.29883623 0.90630782
-0.35355338 0.35355338 0.86602545
-0.40557981 0.40557981 0.81915206
-0.45451945 0.45451945 0.7660445
-0.5 0.5 0.70710677
-0.54167527 0.54167527 0.64278758
-0.57922798 0.57922798 0.57357645
-0.61237246 0.61237246 0.49999997
-0.64085639 0.64085639 0.42261824
-0.66446298 0.66446298 0.34202015
-0.68301266 0.68301266 0.25881907
-0.69636422 0.69636422 0.17364822
-0.70441604 0.70441604 0.087155804
-0.70710677 0.70710677 -4.3711388e-08
-0.70441604 0.70441604 -0.087155767
-0.69636422 0.69636422 -0.17364819
-0.68301266 0.68301266 -0.25881904
-0.66446298 0.66446298 -0.34202012
-0.64085633 0.64085633 -0.42261833
-0.6123724 0.6123724 -0.50000006
-0.57922792 0.57922792 -0.57357645
-0.54167521 0.54167521 -0.64278764
-0.49999997 0.49999997 -0.70710677
-0.45451948 0.45451948 -0.76604444
-0.40557981 0.40557981 -0.819152
-0.35355341 0.35355341 -0.86602539
-0.29883629 0.29883629 -0.90630776
-0.2418448 0.2418448 -0.93969256
-0.18301275 0.18301275 -0.96592581
-0.12278789 0.12278789 -0.98480773
-0.061628513 0.061628513 -0.99619466
6.1817239e-08 -6.1817239e-08 -1
-0 0 1
-0.066765167 0.056022629 0.99619472
-0.13302222 0.1116189 0.98480773
-0.19826689 0.16636568 0.96592581
-0.26200262 0.21984631 0.93969262
-0.32374439 0.2716538 0.90630782
-0.38302222 0.32139382 0.86602545
-0.43938506 0.36868784 0.81915206
-0.49240384 0.41317591 0.7660445
-0.54167527 0.45451954 0.70710677
-0.58682412 0.49240392 0.64278758
-0.62750685 0.52654082 0.57357645
-0.663414 0.55667043 0.49999997
-0.69427204 0.58256346 0.42261824
-0.71984631 0.6040228 0.34202015
-0.73994207 0.62088519 0.25881907
-0.75440651 0.63302225 0.17364822
-0.76312941 0.64034164 0.087155804
-0.76604444 0.64278764 -4.3711388e-08
-0.76312941 0.64034164 -0.087155767
-0.75440651 0.63302225 -0.17364819
-0.73994207 0.62088519 -0.25881904
-0.71984631 0.6040228 -0.34202012
-0.69427204 0.5825634 -0.42261833
-0.66341388 0.55667037 -0.50000006
-0.62750685 0.52654076 -0.57357645
-0.58682406 0.49240389 -0.64278764
-0.54167521 0.45451948 -0.70710677
-0.49240389 0.41317594 -0.76604444
-0.43938506 0.36868784 -0.819152
-0.38302228 0.32139385 -0.86602539
-0.32374442 0.27165383 -0.90630776
-0.26200268 0.21984637 -0.93969256
-0.19826695 0.16636574 -0.96592581
-0.13302231 0.11161898 -0.98480773
-0.066765279 0.056022722 -0.99619466
6.6969733e-08 -5.6194281e-08 -1
-0 0 1
-0.071393795 0.049990479 0.99619472
-0.14224425 0.099600509 0.98480773
-0.21201214 0.14845251 0.96592581
-0.28016648 0.1961747 0.93969262
-0.3461886 0.24240388 0.90630782
-0.409576 0.28678823 0.86602545
-0.46984631 0.32898995 0.81915206
-0.52654076 0.36868781 0.7660445
-0.57922798 0.40557984 0.70710677
-0.62750685 0.43938509 0.64278758
-0.67101002 0.46984634 0.57357645
-0.7094065 0.49673179 0.49999997
-0.74240386 0.51983684 0.42261824
-0.76975107 0.53898555 0.34202015
-0.79124004 0.55403233 0.25881907
-0.8067072 0.56486255 0.17364822
-0.81603491 0.57139385 0.087155804
-0.819152 0.57357645 -4.3711388e-08
-0.81603491 0.57139385 -0.087155767
-0.8067072 0.56486255 -0.17364819
-0.79124004 0.55403233 -0.25881904
-0.76975107 0.53898555 -0.34202012
-0.74240381 0.51983678 -0.42261833
-0.70940638 0.49673173 -0.50000006
-0.67101002 0.46984631 -0.57357645
-0.62750685 0.43938506 -0.64278764
-0.57922792 0.40557981 -0.70710677
-0.52654076 0.36868784 -0.76604444
-0.46984631 0.32898995 -0.819152
-0.40957606 0.28678825 -0.86602539
-0.34618863 0.24240392 -0.90630776
-0.28016654 0.19617474 -0.93969256
-0.21201222 0.14845257 -0.96592581
-0.14224435 0.099600576 -0.98480773
-0.071393915 0.049990561 -0.99619466
7.161254e-08 -5.0143647e-08 -1
-0 0 1
-0.075479083 0.043577872 0.99619472
-0.15038373 0.086824097 0.98480773
-0.22414386 0.12940954 0.96592581
-0.2961981 0.17101008 0.93969262
-0.36599815 0.21130916 0.90630782
-0.43301269 0.25000003 0.86602545
-0.49673176 0.28678825 0.81915206
-0.55667037 0.32139382 0.7660445
-0.61237246 0.35355344 0.70710677
-0.663414 0.38302231 0.64278758
-0.7094065 0.40957609 0.57357645
-0.75 0.43301278 0.49999997
-0.78488559 0.45315397 0.42261824
-0.81379765 0.46984637 0.34202015
-0.83651626 0.48296297 0.25881907
-0.8528685 0.49240392 0.17364822
-0.86272991 0.49809742 0.087155804
-0.86602539 0.50000006 -4.3711388e-08
-0.86272991 0.49809742 -0.087155767
-0.8528685 0.49240392 -0.17364819
-0.83651626 0.48296297 -0.25881904
-0.81379765 0.46984637 -0.34202012
-0.78488553 0.45315394 -0.42261833
-0.74999994 0.43301272 -0.50000006
-0.70940644 0.40957606 -0.57357645
-0.66341394 0.38302228 -0.64278764
-0.6123724 0.35355341 -0.70710677
-0.55667043 0.32139385 -0.76604444
-0.49673176 0.28678825 -0.819152
-0.43301275 0.25000006 -0.86602539
-0.36599821 0.21130919 -0.90630776
-0.29619819 0.17101012 -0.93969256
-0.22414394 0.12940958 -0.96592581
-0.15038383 0.086824156 -0.98480773
-0.075479202 0.043577943 -0.99619466
7.5710346e-08 -4.3711392e-08 -1
-0 0 1
-0.078989923 0.03683361 0.99619472
-0.15737869 0.0733869 0.98480773
-0.23456971 0.10938167 0.96592581
-0.3099755 0.14454398 0.93969262
-0.38302222 0.17860623 0.90630782
-0.45315388 0.21130916 0.86602545
-0.51983678 0.24240392 0.81915206
-0.58256334 0.2716538 0.7660445
-0.64085639 0.29883632 0.70710677
-0.69427204 0.32374445 0.64278758
-0.74240386 0.34618866 0.57357645
-0.78488559 0.36599824 0.49999997
-0.82139379 0.38302231 0.42261824
-0.85165071 0.39713132 0.34202015
-0.87542605 0.40821797 0.25881907
-0.89253891 0.41619781 0.17364822
-0.90285903 0.42101014 0.087155804
-0.90630776 0.42261833 -4.3711388e-08
-0.90285903 0.42101014 -0.087155767
-0.89253891 0.41619781 -0.17364819
-0.87542605 0.40821797 -0.25881904
-0.85165071 0.39713132 -0.34202012
-0.82139373 0.38302228 -0.42261833
-0.78488547 0.36599818 -0.50000006
-0.74240381 0.34618863 -0.57357645
-0.69427204 0.32374442 -0.64278764
-0.64085633 0.29883629 -0.70710677
-0.5825634 0.27165383 -0.76604444
-0.51983678 0.24240392 -0.819152
-0.45315394 0.21130919 -0.86602539
-0.38302228 0.17860626 -0.90630776
-0.30997556 0.14454401 -0.93969256
-0.23456979 0.10938171 -0.96592581
-0.15737879 0.073386952 -0.98480773
-0.07899005 0.03683367 -0.99619466
7.9231938e-08 -3.6946467e-08 -1
-0 0 1
-0.081899598 0.029809024 0.99619472
-0.1631759 0.059391186 0.98480773
-0.24321033 0.088521346 0.96592581
-0.32139376 0.1169778 0.93969262
-0.39713123 0.14454399 0.90630782
-0.46984628 0.17101011 0.86602545
-0.53898555 0.19617474 0.81915206
-0.60402268 0.21984634 0.7660445
-0.66446304 0.24184483 0.70710677
-0.71984631 0.26200271 0.64278758
-0.76975107 0.28016657 0.57357645
-0.81379765 0.29619822 0.49999997
-0.85165071 0.30997559 0.42261824
-0.88302213 0.32139388 0.34202015
-0.9076733 0.33036616 0.25881907
-0.92541647 0.33682415 0.17364822
-0.93611676 0.34071872 0.087155804
-0.93969256 0.34202021 -4.3711388e-08
-0.93611676 0.34071872 -0.087155767
-0.92541647 0.33682415 -0.17364819
-0.9076733 0.33036616 -0.25881904
-0.88302213 0.32139388 -0.34202012
-0.85165066 0.30997556 -0.42261833
-0.81379753 0.29619816 -0.50000006
-0.76975101 0.28016654 -0.57357645
-0.71984625 0.26200268 -0.64278764
-0.66446298 0.2418448 -0.70710677
-0.60402274 0.21984637 -0.76604444
-0.53898555 0.19617474 -0.819152
-0.46984634 0.17101012 -0.86602539
-0.39713129 0.14454401 -0.90630776
-0.32139385 0.11697783 -0.93969256
-0.24321042 0.088521376 -0.96592581
-0.16317602 0.059391227 -0.98480773
-0.081899732 0.029809073 -0.99619466
8.2150535e-08 -2.9900356e-08 -1
-0 0 1
-0.084185973 0.022557572 0.99619472
-0.16773126 0.044943471 0.98480773
-0.25 0.066987321 0.96592581
-0.33036608 0.088521354 0.93969262
-0.40821791 0.10938169 0.90630782
-0.48296291 0.12940957 0.86602545
-0.55403233 0.14845257 0.81915206
-0.62088513 0.16636573 0.7660445
-0.68301272 0.18301278 0.70710677
-0.73994213 0.19826697 0.64278758
-0.7912401 0.21201223 0.57357645
-0.83651632 0.22414395 0.49999997
-0.87542611 0.2345698 0.42261824
-0.90767336 0.24321043 0.34202015
-0.93301266 0.25000009 0.25881907
-0.95125121 0.25488707 0.17364822
-0.96225017 0.25783426 0.087155804
-0.96592581 0.25881913 -4.3711388e-08
-0.96225017 0.25783426 -0.087155767
-0.95125121 0.25488707 -0.17364819
-0.93301266 0.25000009 -0.25881904
-0.90767336 0.24321043 -0.34202012
-0.87542605 0.23456979 -0.42261833
-0.8365162 0.22414392 -0.50000006
-0.79124004 0.21201222 -0.57357645
-0.73994207 0.19826695 -0.64278764
-0.68301266 0.18301275 -0.70710677
-0.62088519 0.16636574 -0.76604444
-0.55403233 0.14845257 -0.819152
-0.48296297 0.12940958 -0.86602539
-0.40821797 0.10938171 -0.90630776
-0.33036616 0.088521376 -0.93969256
-0.25000009 0.066987343 -0.96592581
-0.16773137 0.0449435 -0.98480773
-0.084186114 0.022557609 -0.99619466
8.4443919e-08 -2.2626688e-08 -1
-0 0 1
-0.085831642 0.015134445 0.99619472
-0.17101006 0.03015371 0.98480773
-0.25488698 0.044943485 0.96592581
-0.33682406 0.059391212 0.93969262
-0.41619775 0.073386945 0.90630782
-0.49240386 0.086824149 0.86602545
-0.56486255 0.099600576 0.81915206
-0.63302219 0.11161897 0.7660445
-0.69636428 0.1227879 0.70710677
-0.75440657 0.13302232 0.64278758
-0.80670726 0.14224435 0.57357645
-0.85286856 0.15038384 0.49999997
-0.89253896 0.15737881 0.42261824
-0.92541653 0.16317603 0.34202015
-0.95125121 0.16773137 0.25881907
-0.96984625 0.17101018 0.17364822
-0.98106027 0.17298752 0.087155804
-0.98480773 0.1736483 -4.3711388e-08
-0.98106027 0.17298752 -0.087155767
-0.96984625 0.17101018 -0.17364819
-0.95125121 0.16773137 -0.25881904
-0.92541653 0.16317603 -0.34202012
-0.89253891 0.15737879 -0.42261833
-0.85286844 0.15038383 -0.50000006
-0.8067072 0.14224435 -0.57357645
-0.75440651 0.13302231 -0.64278764
-0.69636422 0.12278789 -0.70710677
-0.63302225 0.11161898 -0.76604444
-0.56486255 0.099600576 -0.819152
-0.49240392 0.086824156 -0.86602539
-0.41619781 0.073386952 -0.90630776
-0.33682415 0.059391227 -0.93969256
-0.25488707 0.0449435 -0.96592581
-0.17101018 0.030153731 -0.98480773
-0.085831784 0.01513447 -0.99619466
8.6094623e-08 -1.5180817e-08 -1
-0 0 1
-0.086824082 0.0075961347 0.99619472
-0.17298739 0.015134459 0.98480773
-0.25783414 0.022557601 0.96592581
-0.34071863 0.029809065 0.93969262
-0.42101008 0.036833666 0.90630782
-0.49809733 0.043577939 0.86602545
-0.57139379 0.049990561 0.81915206
-0.64034158 0.056022715 0.7660445
-0.70441604 0.061628517 0.70710677
-0.76312941 0.066765279 0.64278758
-0.81603491 0.071393915 0.57357645
-0.86272991 0.075479209 0.49999997
-0.90285903 0.078990057 0.42261824
-0.93611676 0.081899732 0.34202015
-0.96225011 0.084186114 0.25881907
-0.98106021 0.085831784 0.17364822
-0.99240386 0.086824223 0.087155804
-0.99619466 0.087155879 -4.3711388e-08
-0.99240386 0.086824223 -0.087155767
-0.98106021 0.085831784 -0.17364819
-0.96225011 0.084186114 -0.25881904
-0.93611676 0.081899732 -0.34202012
-0.90285897 0.07899005 -0.42261833
-0.86272979 0.075479202 -0.50000006
-0.81603485 0.071393915 -0.57357645
-0.76312935 0.066765279 -0.64278764
-0.70441598 0.061628513 -0.70710677
-0.64034164 0.056022722 -0.76604444
-0.57139379 0.049990561 -0.819152
-0.49809739 0.043577943 -0.86602539
-0.42101014 0.03683367 -0.90630776
-0.34071872 0.029809073 -0.93969256
-0.25783423 0.022557609 -0.96592581
-0.17298751 0.01513447 -0.98480773
-0.086824223 0.0075961472 -0.99619466
8.70901e-08 -7.6194091e-09 -1
-0 -0 1
-0.087155737 -7.6193967e-09 0.99619472
-0.17364818 -1.5180806e-08 0.98480773
-0.25881904 -2.2626679e-08 0.96592581
-0.34202012 -2.9900349e-08 0.93969262
-0.42261827 -3.6946464e-08 0.90630782
-0.5 -4.3711388e-08 0.86602545
-0.57357645 -5.0143647e-08 0.81915206
-0.64278758 -5.6194274e-08 0.7660445
-0.70710683 -6.1817239e-08 0.70710677
-0.7660445 -6.696974e-08 0.64278758
-0.81915206 -7.1612547e-08 0.57357645
-0.86602545 -7.5710346e-08 0.49999997
-0.90630782 -7.9231945e-08 0.42261824
-0.93969262 -8.2150535e-08 0.34202015
-0.96592581 -8.4443919e-08 0.25881907
-0.98480773 -8.6094623e-08 0.17364822
-0.99619472 -8.7090108e-08 0.087155804
-1 -8.7422777e-08 -4.3711388e-08
-0.99619472 -8.7090108e-08 -0.087155767
-0.98480773 -8.6094623e-08 -0.17364819
-0.96592581 -8.4443919e-08 -0.25881904
-0.93969262 -8.2150535e-08 -0.34202012
-0.90630776 -7.9231938e-08 -0.42261833
-0.86602533 -7.5710339e-08 -0.50000006
-0.819152 -7.161254e-08 -0.57357645
-0.76604444 -6.6969733e-08 -0.64278764
-0.70710677 -6.1817239e-08 -0.70710677
-0.64278764 -5.6194281e-08 -0.76604444
-0.57357645 -5.0143647e-08 -0.819152
-0.50000006 -4.3711392e-08 -0.86602539
-0.42261833 -3.6946467e-08 -0.90630776
-0.34202021 -2.9900356e-08 -0.93969256
-0.25881913 -2.2626688e-08 -0.96592581
-0.1736483 -1.5180817e-08 -0.98480773
-0.087155879 -7.6194091e-09 -0.99619466
8.7422777e-08 7.6427419e-15 -1
-0 -0 1
-0.086824082 -0.0075961291 0.99619472
-0.1729874 -0.015134448 0.98480773
-0.25783417 -0.022557585 0.96592581
-0.34071866 -0.029809041 0.93969262
-0.42101008 -0.036833636 0.90630782
-0.49809736 -0.043577906 0.86602545
-0.57139385 -0.04999052 0.81915206
-0.64034158 -0.056022674 0.7660445
-0.7044161 -0.061628468 0.70710677
-0.76312947 -0.066765226 0.64278758
-0.81603497 -0.071393862 0.57357645
-0.86272997 -0.07547915 0.49999997
-0.90285903 -0.07898999 0.42261824
-0.93611681 -0.081899673 0.34202015
-0.96225017 -0.084186047 0.25881907
-0.98106027 -0.085831717 0.17364822
-0.99240392 -0.086824156 0.087155804
-0.99619472 -0.087155811 -4.3711388e-08
-0.99240392 -0.086824156 -0.087155767
-0.98106027 -0.085831717 -0.17364819
-0.96225017 -0.084186047 -0.25881904
-0.93611681 -0.081899673 -0.34202012
-0.90285903 -0.07898999 -0.42261833
-0.86272985 -0.075479142 -0.50000006
-0.81603491 -0.071393855 -0.57357645
-0.76312941 -0.066765226 -0.64278764
-0.70441604 -0.061628465 -0.70710677
-0.64034164 -0.056022678 -0.76604444
-0.57139385 -0.04999052 -0.819152
-0.49809742 -0.043577909 -0.86602539
-0.42101014 -0.036833644 -0.90630776
-0.34071872 -0.029809048 -0.93969256
-0.25783426 -0.022557592 -0.96592581
-0.17298752 -0.015134458 -0.98480773
-0.086824223 -0.0075961412 -0.99619466
8.7090108e-08 7.6194029e-09 -1
-0 -0 1
-0.085831642 -0.015134439 0.99619472
-0.17101006 -0.030153697 0.98480773
-0.25488698 -0.044943467 0.96592581
-0.33682406 -0.059391186 0.93969262
-0.41619775 -0.073386915 0.90630782
-0.49240386 -0.086824112 0.86602545
-0.56486255 -0.099600531 0.81915206
-0.63302219 -0.11161892 0.7660445
-0.69636428 -0.12278785 0.70710677
-0.75440657 -0.13302226 0.64278758
-0.80670726 -0.14224429 0.57357645
-0.85286856 -0.15038379 0.49999997
-0.89253896 -0.15737875 0.42261824
-0.92541653 -0.16317596 0.34202015
-0.95125121 -0.1677313 0.25881907
-0.96984625 -0.17101011 0.17364822
-0.98106027 -0.17298745 0.087155804
-0.98480773 -0.17364822 -4.3711388e-08
-0.98106027 -0.17298745 -0.087155767
-0.96984625 -0.17101011 -0.17364819
-0.95125121 -0.1677313 -0.25881904
-0.92541653 -0.16317596 -0.34202012
-0.89253891 -0.15737873 -0.42261833
-0.85286844 -0.15038376 -0.50000006
-0.8067072 -0.14224429 -0.57357645
-0.75440651 -0.13302225 -0.64278764
-0.69636422 -0.12278783 -0.70710677
-0.63302225 -0.11161893 -0.76604444
-0.56486255 -0.099600531 -0.819152
-0.49240392 -0.086824119 -0.86602539
-0.41619781 -0.073386922 -0.90630776
-0.33682415 -0.059391204 -0.93969256
-0.25488707 -0.044943482 -0.96592581
-0.17101018 -0.030153718 -0.98480773
-0.085831784 -0.015134463 -0.99619466
8.6094623e-08 1.5180809e-08 -1
-0 -0 1
-0.084185973 -0.022557568 0.99619472
-0.16773126 -0.044943459 0.98480773
-0.25 -0.066987306 0.96592581
-0.33036608 -0.088521332 0.93969262
-0.40821791 -0.10938167 0.90630782
-0.48296291 -0.12940954 0.86602545
-0.55403233 -0.14845252 0.81915206
-0.62088513 -0.16636568 0.7660445
-0.68301272 -0.18301274 0.70710677
-0.73994213 -0.19826692 0.64278758
-0.7912401 -0.21201217 0.57357645
-0.83651632 -0.22414391 0.49999997
-0.87542611 -0.23456974 0.42261824
-0.90767336 -0.24321038 0.34202015
-0.93301266 -0.25000003 0.25881907
-0.95125121 -0.25488701 0.17364822
-0.96225017 -0.2578342 0.087155804
-0.96592581 -0.25881907 -4.3711388e-08
-0.96225017 -0.2578342 -0.087155767
-0.95125121 -0.25488701 -0.17364819
-0.93301266 -0.25000003 -0.25881904
-0.90767336 -0.24321038 -0.34202012
-0.87542605 -0.23456973 -0.42261833
-0.8365162 -0.22414388 -0.50000006
-0.79124004 -0.21201216 -0.57357645
-0.73994207 -0.19826691 -0.64278764
-0.68301266 -0.18301272 -0.70710677
-0.62088519 -0.1663657 -0.76604444
-0.55403233 -0.14845252 -0.819152
-0.48296297 -0.12940955 -0.86602539
-0.40821797 -0.10938168 -0.90630776
-0.33036616 -0.088521354 -0.93969256
-0.25000009 -0.066987328 -0.96592581
-0.16773137 -0.044943493 -0.98480773
-0.084186114 -0.022557603 -0.99619466
8.4443919e-08 2.2626683e-08 -1
-0 -0 1
-0.081899606 -0.029809019 0.99619472
-0.16317591 -0.059391178 0.98480773
-0.24321035 -0.088521332 0.96592581
-0.32139379 -0.11697777 0.93969262
-0.39713126 -0.14454396 0.90630782
-0.46984631 -0.17101008 0.86602545
-0.53898555 -0.19617471 0.81915206
-0.60402274 -0.21984631 0.7660445
-0.66446304 -0.24184479 0.70710677
-0.71984637 -0.26200265 0.64278758
-0.76975113 -0.28016651 0.57357645
-0.81379771 -0.29619816 0.49999997
-0.85165077 -0.30997553 0.42261824
-0.88302219 -0.32139382 0.34202015
-0.90767336 -0.3303661 0.25881907
-0.92541653 -0.33682409 0.17364822
-0.93611681 -0.34071866 0.087155804
-0.93969262 -0.34202015 -4.3711388e-08
-0.93611681 -0.34071866 -0.087155767
-0.92541653 -0.33682409 -0.17364819
-0.90767336 -0.3303661 -0.25881904
-0.88302219 -0.32139382 -0.34202012
-0.85165071 -0.3099755 -0.42261833
-0.81379759 -0.29619813 -0.50000006
-0.76975107 -0.28016651 -0.57357645
-0.71984631 -0.26200265 -0.64278764
-0.66446298 -0.24184477 -0.70710677
-0.6040228 -0.21984632 -0.76604444
-0.53898555 -0.19617471 -0.819152
-0.46984637 -0.17101009 -0.86602539
-0.39713132 -0.14454399 -0.90630776
-0.32139388 -0.1169778 -0.93969256
-0.24321043 -0.088521361 -0.96592581
-0.16317603 -0.059391219 -0.98480773
-0.081899732 -0.029809067 -0.99619466
8.2150535e-08 2.9900352e-08 -1
-0 -0 1
-0.078989923 -0.036833607 0.99619472
-0.1573787 -0.073386893 0.98480773
-0.23456973 -0.10938165 0.96592581
-0.3099755 -0.14454395 0.93969262
-0.38302225 -0.1786062 0.90630782
-0.45315391 -0.21130913 0.86602545
-0.51983684 -0.24240388 0.81915206
-0.5825634 -0.27165377 0.7660445
-0.64085644 -0.29883626 0.70710677
-0.6942721 -0.32374439 0.64278758
-0.74240392 -0.34618863 0.57357645
-0.78488564 -0.36599818 0.49999997
-0.82139385 -0.38302225 0.42261824
-0.85165077 -0.39713126 0.34202015
-0.87542611 -0.40821791 0.25881907
-0.89253896 -0.41619775 0.17364822
-0.90285903 -0.42101008 0.087155804
-0.90630782 -0.42261827 -4.3711388e-08
-0.90285903 -0.42101008 -0.087155767
-0.89253896 -0.41619775 -0.17364819
-0.87542611 -0.40821791 -0.25881904
-0.85165077 -0.39713126 -0.34202012
-0.82139379 -0.38302222 -0.42261833
-0.78488553 -0.36599812 -0.50000006
-0.74240386 -0.3461886 -0.57357645
-0.69427204 -0.32374439 -0.64278764
-0.64085639 -0.29883623 -0.70710677
-0.58256346 -0.2716538 -0.76604444
-0.51983684 -0.24240388 -0.819152
-0.45315397 -0.21130916 -0.86602539
-0.38302231 -0.17860623 -0.90630776
-0.30997559 -0.14454399 -0.93969256
-0.2345698 -0.10938169 -0.96592581
-0.15737881 -0.073386945 -0.98480773
-0.078990057 -0.036833666 -0.99619466
7.9231945e-08 3.6946464e-08 -1
-0 -0 1
-0.075479083 -0.043577868 0.99619472
-0.15038374 -0.086824089 0.98480773
-0.22414388 -0.12940952 0.96592581
-0.29619813 -0.17101006 0.93969262
-0.36599818 -0.21130913 0.90630782
-0.43301272 -0.25 0.86602545
-0.49673179 -0.28678823 0.81915206
-0.55667043 -0.32139379 0.7660445
-0.61237252 -0.35355341 0.70710677
-0.663414 -0.38302225 0.64278758
-0.70940655 -0.40957603 0.57357645
-0.75000006 -0.43301272 0.49999997
-0.78488564 -0.45315391 0.42261824
-0.81379771 -0.46984631 0.34202015
-0.83651632 -0.48296291 0.25881907
-0.85286856 -0.49240386 0.17364822
-0.86272997 -0.49809736 0.087155804
-0.86602545 -0.5 -4.3711388e-08
-0.86272997 -0.49809736 -0.087155767
-0.85286856 -0.49240386 -0.17364819
-0.83651632 -0.48296291 -0.25881904
-0.81379771 -0.46984631 -0.34202012
-0.78488559 -0.45315388 -0.42261833
-0.75 -0.43301266 -0.50000006
-0.7094065 -0.409576 -0.57357645
-0.663414 -0.38302222 -0.64278764
-0.61237246 -0.35355338 -0.70710677
-0.55667043 -0.32139382 -0.76604444
-0.49673179 -0.28678823 -0.819152
-0.43301278 -0.25000003 -0.86602539
-0.36599824 -0.21130916 -0.90630776
-0.29619822 -0.17101011 -0.93969256
-0.22414395 -0.12940957 -0.96592581
-0.15038384 -0.086824149 -0.98480773
-0.075479209 -0.043577939 -0.99619466
7.5710346e-08 4.3711388e-08 -1
-0 -0 1
-0.071393803 -0.049990471 0.99619472
-0.14224426 -0.099600494 0.98480773
-0.21201216 -0.14845249 0.96592581
-0.28016648 -0.19617467 0.93969262
-0.34618863 -0.24240386 0.90630782
-0.40957603 -0.2867882 0.86602545
-0.46984634 -0.32898992 0.81915206
-0.52654076 -0.36868778 0.7660445
-0.57922798 -0.40557978 0.70710677
-0.62750691 -0.43938503 0.64278758
-0.67101008 -0.46984628 0.57357645
-0.70940655 -0.49673176 0.49999997
-0.74240392 -0.51983678 0.42261824
-0.76975113 -0.53898549 0.34202015
-0.7912401 -0.55403227 0.25881907
-0.80670726 -0.56486249 0.17364822
-0.81603497 -0.57139379 0.087155804
-0.81915206 -0.57357639 -4.3711388e-08
-0.81603497 -0.57139379 -0.087155767
-0.80670726 -0.56486249 -0.17364819
-0.7912401 -0.55403227 -0.25881904
-0.76975113 -0.53898549 -0.34202012
-0.74240386 -0.51983672 -0.42261833
-0.70940644 -0.49673167 -0.50000006
-0.67101002 -0.46984625 -0.57357645
-0.62750685 -0.439385 -0.64278764
-0.57922798 -0.40557975 -0.70710677
-0.52654082 -0.36868781 -0.76604444
-0.46984634 -0.32898992 -0.819152
-0.40957609 -0.28678823 -0.86602539
-0.34618866 -0.24240389 -0.90630776
-0.28016657 -0.19617473 -0.93969256
-0.21201223 -0.14845255 -0.96592581
-0.14224435 -0.099600561 -0.98480773
-0.071393915 -0.049990553 -0.99619466
7.1612547e-08 5.014364e-08 -1
-0 -0 1
-0.066765174 -0.056022625 0.99619472
-0.13302223 -0.11161889 0.98480773
-0.19826691 -0.16636567 0.96592581
-0.26200265 -0.21984629 0.93969262
-0.32374439 -0.27165377 0.90630782
-0.38302225 -0.32139379 0.86602545
-0.43938509 -0.36868781 0.81915206
-0.49240389 -0.41317588 0.7660445
-0.54167527 -0.45451948 0.70710677
-0.58682418 -0.49240389 0.64278758
-0.62750691 -0.52654076 0.57357645
-0.663414 -0.55667043 0.49999997
-0.6942721 -0.5825634 0.42261824
-0.71984637 -0.60402274 0.34202015
-0.73994213 -0.62088513 0.25881907
-0.75440657 -0.63302219 0.17364822
-0.76312947 -0.64034158 0.087155804
-0.7660445 -0.64278758 -4.3711388e-08
-0.76312947 -0.64034158 -0.087155767
-0.75440657 -0.63302219 -0.17364819
-0.73994213 -0.62088513 -0.25881904
-0.71984637 -0.60402274 -0.34202012
-0.69427204 -0.58256334 -0.42261833
-0.66341394 -0.55667031 -0.50000006
-0.62750685 -0.52654076 -0.57357645
-0.58682412 -0.49240384 -0.64278764
-0.54167527 -0.45451945 -0.70710677
-0.49240392 -0.41317591 -0.76604444
-0.43938509 -0.36868781 -0.819152
-0.38302231 -0.32139382 -0.86602539
-0.32374445 -0.2716538 -0.90630776
-0.26200271 -0.21984634 -0.93969256
-0.19826697 -0.16636573 -0.96592581
-0.13302232 -0.11161897 -0.98480773
-0.066765279 -0.056022715 -0.99619466
6.696974e-08 5.6194274e-08 -1
-0 -0 1
-0.061628416 -0.061628412 0.99619472
-0.12278781 -0.1227878 0.98480773
-0.18301271 -0.18301269 0.96592581
-0.24184476 -0.24184474 0.93969262
-0.29883626 -0.29883623 0.90630782
-0.35355341 -0.35355338 0.86602545
-0.40557984 -0.40557981 0.81915206
-0.45451948 -0.45451945 0.7660445
-0.50000006 -0.5 0.70710677
-0.54167527 -0.54167527 0.64278758
-0.57922798 -0.57922798 0.57357645
-0.61237252 -0.61237246 0.49999997
-0.64085644 -0.64085639 0.42261824
-0.66446304 -0.66446298 0.34202015
-0.68301272 -0.68301266 0.25881907
-0.69636428 -0.69636422 0.17364822
-0.7044161 -0.70441604 0.087155804
-0.70710683 -0.70710677 -4.3711388e-08
-0.7044161 -0.70441604 -0.087155767
-0.69636428 -0.69636422 -0.17364819
-0.68301272 -0.68301266 -0.25881904
-0.66446304 -0.66446298 -0.34202012
-0.64085639 -0.64085633 -0.42261833
-0.6123724 -0.6123724 -0.50000006
-0.57922798 -0.57922792 -0.57357645
-0.54167527 -0.54167521 -0.64278764
-0.5 -0.49999997 -0.70710677
-0.45451954 -0.45451948 -0.76604444
-0.40557984 -0.40557981 -0.819152
-0.35355344 -0.35355341 -0.86602539
-0.29883632 -0.29883629 -0.90630776
-0.24184483 -0.2418448 -0.93969256
-0.18301278 -0.18301275 -0.96592581
-0.1227879 -0.12278789 -0.98480773
-0.061628517 -0.061628513 -0.99619466
6.1817239e-08 6.1817239e-08 -1
-0 -0 1
-0.056022618 -0.066765174 0.99619472
-0.11161888 -0.13302225 0.98480773
-0.16636565 -0.19826692 0.96592581
-0.21984626 -0.26200265 0.93969262
-0.27165374 -0.32374442 0.90630782
-0.32139376 -0.38302228 0.86602545
-0.36868778 -0.43938512 0.81915206
-0.41317582 -0.49240392 0.7660445
-0.45451945 -0.54167533 0.70710677
-0.49240384 -0.58682424 0.64278758
-0.5265407 -0.62750697 0.57357645
-0.55667037 -0.66341406 0.49999997
-0.58256334 -0.69427216 0.42261824
-0.60402268 -0.71984643 0.34202015
-0.62088507 -0.73994219 0.25881907
-0.63302213 -0.75440657 0.17364822
-0.64034152 -0.76312953 0.087155804
-0.64278752 -0.76604456 -4.3711388e-08
-0.64034152 -0.76312953 -0.087155767
-0.63302213 -0.75440657 -0.17364819
-0.62088507 -0.73994219 -0.25881904
-0.60402268 -0.71984643 -0.34202012
-0.58256334 -0.6942721 -0.42261833
-0.55667025 -0.663414 -0.50000006
-0.5265407 -0.62750691 -0.57357645
-0.49240381 -0.58682418 -0.64278764
-0.45451939 -0.54167527 -0.70710677
-0.41317588 -0.49240398 -0.76604444
-0.36868778 -0.43938512 -0.819152
-0.32139379 -0.38302234 -0.86602539
-0.27165377 -0.32374448 -0.90630776
-0.21984632 -0.26200274 -0.93969256
-0.16636571 -0.19826698 -0.96592581
-0.11161896 -0.13302234 -0.98480773
-0.056022711 -0.066765286 -0.99619466
5.6194271e-08 6.696974e-08 -1
-0 -0 1
-0.049990468 -0.071393803 0.99619472
-0.099600486 -0.14224428 0.98480773
-0.14845248 -0.21201217 0.96592581
-0.19617465 -0.28016651 0.93969262
-0.24240384 -0.34618866 0.90630782
-0.28678817 -0.40957606 0.86602545
-0.32898986 -0.46984637 0.81915206
-0.36868775 -0.52654082 0.7660445
-0.40557975 -0.57922804 0.70710677
-0.439385 -0.62750697 0.64278758
-0.46984622 -0.67101014 0.57357645
-0.4967317 -0.70940655 0.49999997
-0.51983672 -0.74240398 0.42261824
-0.53898543 -0.76975119 0.34202015
-0.55403221 -0.79124016 0.25881907
-0.56486243 -0.80670732 0.17364822
-0.57139373 -0.81603503 0.087155804
-0.57357633 -0.81915212 -4.3711388e-08
-0.57139373 -0.81603503 -0.087155767
-0.56486243 -0.80670732 -0.17364819
-0.55403221 -0.79124016 -0.25881904
-0.53898543 -0.76975119 -0.34202012
-0.51983666 -0.74240392 -0.42261833
-0.49673164 -0.7094065 -0.50000006
-0.46984619 -0.67101008 -0.57357645
-0.43938497 -0.62750691 -0.64278764
-0.40557972 -0.57922798 -0.70710677
-0.36868778 -0.52654088 -0.76604444
-0.32898986 -0.46984637 -0.819152
-0.2867882 -0.40957612 -0.86602539
-0.24240386 -0.34618869 -0.90630776
-0.1961747 -0.2801666 -0.93969256
-0.14845254 -0.21201225 -0.96592581
-0.099600554 -0.14224437 -0.98480773
-0.04999055 -0.071393922 -0.99619466
5.0143637e-08 7.1612554e-08 -1
-0 -0 1
-0.043577861 -0.075479083 0.99619472
