# .PCD v0.7 - Point Cloud Data file format
VERSION 0.7
FIELDS x y z rgba
SIZE 4 4 4 4
TYPE F F F U
COUNT 1 1 1 1
WIDTH 1342
HEIGHT 1
VIEWPOINT 0 0 0 1 0 0 0
POINTS 1342
DATA ascii
0.65795034 0 0.085541964 4294967295
0.67083955 0 0.079491794 4294967295
0.76595491 0 0.034844756 4294967295
0.16598023 0 0.31647205 4294967295
0.28165004 0 0.26217681 4294967295
0.64545709 0 0.091406286 4294967295
0.23338291 0 0.28483331 4294967295
0.46543878 0 0.17590661 4294967295
0.40110314 0 0.20610568 4294967295
0.52836961 0 0.14636698 4294967295
0.30648744 0 0.25051814 4294967295
0.43135315 0 0.19190636 4294967295
0.80005175 0 0.018839777 4294967295
0.76977587 0 0.033051223 4294967295
0.53411722 0 0.14366907 4294967295
0.60266411 0 0.11149323 4294967295
0.11897273 0 0.33853728 4294967295
0.5099678 0 0.15500475 4294967295
0.013695541 0 0.38795426 4294967295
0.20407048 0 0.29859254 4294967295
0.11530028 0 0.34026113 4294967295
0.32243016 0 0.093859486 4294967295
0.10437445 0 0.13634364 4294967295
0.087501511 0 0.13963103 4294967295
0.80331182 0 0.00016851723 4294967295
0.17551713 0 0.1224828 4294967295
0.41248831 0 0.076313309 4294967295
0.67479455 0 0.025207743 4294967295
0.49267071 0 0.060691237 4294967295
0.23806176 0 0.11029713 4294967295
0.51270473 0 0.056787975 4294967295
0.42161953 0 0.07453426 4294967295
0.39692795 0 0.079344958 4294967295
0.78228307 0 0.0042655766 4294967295
0.23523521 0 0.11084782 4294967295
0.62030792 0 0.035823464 4294967295
0.42359605 0 0.074149169 4294967295
0.61914682 0 0.036049686 4294967295
0.32185456 0 0.093971632 4294967295
0.71694726 0 0.016995057 4294967295
0.22783512 0 0.11228959 4294967295
0.2834388 0 0.10145624 4294967295
0.056343049 0 0.85491955 4294967295
0.76679474 0 0.046569824 4294967295
0.42485937 0 0.43562281 4294967295
0.069509417 0 0.83993888 4294967295
0.15525584 0 0.74237686 4294967295
0.53570461 0 0.30950344 4294967295
0.71906275 0 0.10087913 4294967295
0.28180939 0 0.59838462 4294967295
0.05183275 0 0.86005133 4294967295
0.016173108 0 0.90062475 4294967295
0.36969692 0 0.4983865 4294967295
0.050964057 0 0.86103976 4294967295
0.19246456 0 0.70004094 4294967295
0.78400499 0 0.026988089 4294967295
0.72873563 0 0.089873374 4294967295
0.68730879 0 0.13700873 4294967295
0.21539247 0 0.67395359 4294967295
0.43597767 0 0.42297247 4294967295
0.30306387 0 0.57420135 4294967295
0.61407155 0 0.22033781 4294967295
0.4139874 0 0.44799292 4294967295
0.026228419 0 0.51072478 4294967295
0.29222104 0 0.29895547 4294967295
0.62220842 0 0.036236942 4294967295
0.62152386 0 0.036781937 4294967295
0.481397 0 0.14834353 4294967295
0.18982947 0 0.38047421 4294967295
0.49313694 0 0.13899684 4294967295
0.42732906 0 0.19138959 4294967295
0.23640671 0 0.3433919 4294967295
0.45930141 0 0.16593489 4294967295
0.1108249 0 0.4433735 4294967295
0.29386824 0 0.29764405 4294967295
0.58764714 0 0.0637528 4294967295
0.55367726 0 0.090797812 4294967295
0.22057396 0 0.35599709 4294967295
0.15288749 0 0.40988547 4294967295
0.59652603 0 0.056683898 4294967295
0.23394382 0 0.34535271 4294967295
0.45850581 0 0.16656831 4294967295
0.63865656 0 0.023141801 4294967295
0.39304903 0 0.21868154 4294967295
0.28892452 0 0.48123661 4294967295
0.60732907 0 0.065285325 4294967295
0.26189405 0 0.51654816 4294967295
0.53554958 0 0.15905523 4294967295
0.44973961 0 0.27115405 4294967295
0.59878564 0 0.076446116 4294967295
0.31714305 0 0.44437301 4294967295
0.14186262 0 0.67335254 4294967295
0.6246047 0 0.042717099 4294967295
0.60480398 0 0.068584025 4294967295
0.097057529 0 0.73188412 4294967295
0.5791257 0 0.1021291 4294967295
0.42138487 0 0.30819559 4294967295
0.28392473 0 0.48776814 4294967295
0.40726328 0 0.32664347 4294967295
0.1847415 0 0.61733723 4294967295
0.51664239 0 0.18375486 4294967295
0.2020933 0 0.59466952 4294967295
0.29383698 0 0.47481915 4294967295
0.1486208 0 0.6645239 4294967295
0.12326627 0 0.69764608 4294967295
0.1150521 0 0.3246842 4294967295
0.046851359 0 0.46206695 4294967295
0.2504907 0 0.051858425 4294967295
0.02849946 0 0.49903479 4294967295
0.034826383 0 0.48628992 4294967295
0.13685884 0 0.28075701 4294967295
0.21006963 0 0.1332821 4294967295
0.27202258 0 0.0084848404 4294967295
0.25828055 0 0.036166608 4294967295
0.18906745 0 0.17558861 4294967295
0.10584991 0 0.34322101 4294967295
0.20711273 0 0.13923845 4294967295
0.10183766 0 0.35130322 4294967295
0.081257299 0 0.39276004 4294967295
0.064158693 0 0.42720327 4294967295
0.161456 0 0.23120877 4294967295
0.067515276 0 0.42044181 4294967295
0.042095348 0 0.47164741 4294967295
0.20224482 0 0.14904431 4294967295
0.034660518 0 0.48662403 4294967295
0.21918404 0 0.11492214 4294967295
0.012230484 0 0.6895414 4294967295
0.1559139 0 0.037176073 4294967295
0.0086201532 0 0.70593333 4294967295
0.08558955 0 0.35646948 4294967295
0.028916508 0 0.61378187 4294967295
0.039394699 0 0.56620777 4294967295
0.1309202 0 0.15065485 4294967295
0.12023 0 0.19919157 4294967295
0.10774336 0 0.25588462 4294967295
0.15875305 0 0.024285495 4294967295
0.10493635 0 0.26862928 4294967295
0.12467396 0 0.17901468 4294967295
0.015340326 0 0.67542177 4294967295
0.022137746 0 0.6445595 4294967295
0.085367478 0 0.35747775 4294967295
0.012838045 0 0.6867829 4294967295
0.011471774 0 0.69298613 4294967295
0.033584293 0 0.59258878 4294967295
0.07571999 0 0.40128019 4294967295
0.13451062 0 0.13435328 4294967295
0.094082691 0 0.31790811 4294967295
0.11923604 0 0.0437425 4294967295
0.75557595 0 3.3900142e-07 4294967295
0.15438679 0 0.041326232 4294967295
0.67243344 0 0.0057155751 4294967295
0.094801575 0 0.045422133 4294967295
0.75391781 0 0.00011431798 4294967295
0.040844869 0 0.049131129 4294967295
0.65776324 0 0.0067240074 4294967295
0.054650255 0 0.048182145 4294967295
0.0031444319 0 0.051722668 4294967295
0.69745332 0 0.0039957017 4294967295
0.44873354 0 0.021092761 4294967295
0.13628583 0 0.042570494 4294967295
0.12325904 0 0.043465961 4294967295
0.29595363 0 0.031594891 4294967295
0.68986547 0 0.0045172945 4294967295
0.61934596 0 0.009364821 4294967295
0.27132559 0 0.033287831 4294967295
0.41744712 0 0.023243397 4294967295
0.43780619 0 0.02184391 4294967295
0.34195763 0 0.028432565 4294967295
0.36487073 0 0.046750322 4294967295
0.52055424 0 0.024183258 4294967295
0.20916866 0 0.069320075 4294967295
0.68204534 0 0.00077436119 4294967295
0.39660269 0 0.042150624 4294967295
0.60326064 0 0.012194574 4294967295
0.51403469 0 0.025128298 4294967295
0.43230477 0 0.036975436 4294967295
0.024347885 0 0.096110724 4294967295
0.51403028 0 0.025128938 4294967295
0.57275766 0 0.016616128 4294967295
0.63609219 0 0.0074354857 4294967295
0.60027575 0 0.012627244 4294967295
0.57124472 0 0.016835436 4294967295
0.67325068 0 0.0020491853 4294967295
0.51128644 0 0.025526673 4294967295
0.62096262 0 0.0096285865 4294967295
0.67611134 0 0.0016345233 4294967295
0.45840514 0 0.033192068 4294967295
0.34180924 0 0.050093193 4294967295
0.11270954 0 0.083302282 4294967295
0.063906498 0 0.82050443 4294967295
0.5392645 0 0.31139255 4294967295
0.20587955 0 0.66845024 4294967295
0.5224756 0 0.3293736 4294967295
0.1901864 0 0.68525773 4294967295
0.58152282 0 0.26613361 4294967295
0.26300347 0 0.60727012 4294967295
0.27288884 0 0.59668279 4294967295
0.19208795 0 0.68322116 4294967295
0.061554484 0 0.82302344 4294967295
0.52545744 0 0.32617998 4294967295
0.18563747 0 0.69012964 4294967295
0.54044735 0 0.31012571 4294967295
0.42387542 0 0.43497509 4294967295
0.80632806 0 0.025365531 4294967295
0.23243819 0 0.64000577 4294967295
0.45327517 0 0.40348774 4294967295
0.59700143 0 0.24955589 4294967295
0.094024204 0 0.78824812 4294967295
0.39133683 0 0.46982417 4294967295
0.49181515 0 0.36221117 4294967295
0.31762245 0 0.29925096 4294967295
0.80048376 0 0.068681777 4294967295
0.41031879 0 0.2549879 4294967295
0.0030515259 0 0.44946045 4294967295
0.3257359 0 0.29537672 4294967295
0.56515676 0 0.18105182 4294967295
0.78684676 0 0.075193524 4294967295
0.22086819 0 0.34545168 4294967295
0.63786417 0 0.14633361 4294967295
0.45605868 0 0.23314682 4294967295
0.45510074 0 0.23360424 4294967295
0.28797519 0 0.31340769 4294967295
0.67243689 0 0.12982491 4294967295
0.17239074 0 0.36859995 4294967295
0.58719856 0 0.17052674 4294967295
0.038588904 0 0.43249112 4294967295
0.39093235 0 0.26424503 4294967295
0.65723008 0 0.13708627 4294967295
0.63641042 0 0.14702776 4294967295
0.60213518 0 0.16339439 4294967295
0.32778782 0 0.29439694 4294967295
0.11578743 0 0.22710034 4294967295
0.13490905 0 0.16401437 4294967295
0.0606253 0 0.40909109 4294967295
0.13670157 0 0.15810049 4294967295
0.037333023 0 0.48593688 4294967295
0.17002147 0 0.04817158 4294967295
0.12642144 0 0.19201666 4294967295
0.12058254 0 0.21128035 4294967295
0.047496986 0 0.45240396 4294967295
0.098300561 0 0.28479296 4294967295
0.016180983 0 0.55572164 4294967295
0.048093587 0 0.45043567 4294967295
0.16198479 0 0.07468617 4294967295
0.12667407 0 0.19118318 4294967295
0.017306555 0 0.55200815 4294967295
0.020543981 0 0.54132724 4294967295
0.066759653 0 0.38885266 4294967295
0.10647002 0 0.25784034 4294967295
0.10952017 0 0.24777728 4294967295
0.12306132 0 0.20310235 4294967295
0.053314865 0 0.43320966 4294967295
0.25572553 0 0.19331741 4294967295
0.1472026 0 0.23365912 4294967295
0.76363677 0 0.0045093 4294967295
0.0027761408 0 0.28734741 4294967295
0.64186299 0 0.049776822 4294967295
0.25715062 0 0.19278766 4294967295
0.14600021 0 0.23410609 4294967295
0.3386201 0 0.16250265 4294967295
0.74367917 0 0.011928231 4294967295
0.71287614 0 0.023378789 4294967295
0.59336221 0 0.067806229 4294967295
0.54231983 0 0.086780444 4294967295
0.093978897 0 0.25344419 4294967295
0.53201014 0 0.090612903 4294967295
0.29776427 0 0.17769016 4294967295
0.60065603 0 0.065094873 4294967295
0.7315883 0 0.016422838 4294967295
0.71081454 0 0.024145156 4294967295
0.66864711 0 0.039820239 4294967295
0.15790606 0 0.22968028 4294967295
0.61569297 0 0.05950512 4294967295
0.49594107 0 0.028262466 4294967295
0.49852258 0 0.026862115 4294967295
0.47897723 0 0.037464589 4294967295
0.27300382 0 0.14919601 4294967295
0.31578156 0 0.12599099 4294967295
0.089197539 0 0.24890274 4294967295
0.15011485 0 0.2158578 4294967295
0.47382563 0 0.040259093 4294967295
0.26985526 0 0.15090397 4294967295
0.25410637 0 0.15944703 4294967295
0.46525601 0 0.044907749 4294967295
0.27181646 0 0.1498401 4294967295
0.15950945 0 0.21076167 4294967295
0.098878421 0 0.2436513 4294967295
0.37495854 0 0.093890101 4294967295
0.39872813 0 0.080996156 4294967295
0.076209746 0 0.25594804 4294967295
0.330529 0 0.11799115 4294967295
0.26986781 0 0.15089716 4294967295
0.45933244 0 0.04812102 4294967295
0.39692056 0 0.081976682 4294967295
0.088840984 0 0.11131007 4294967295
0.021609226 0 0.19505027 4294967295
0.024635132 0 0.19128136 4294967295
0.064233579 0 0.1419597 4294967295
0.057883047 0 0.14986959 4294967295
0.16607074 0 0.0151169 4294967295
0.16189879 0 0.020313263 4294967295
0.11086209 0 0.083881781 4294967295
0.149129 0 0.036218613 4294967295
0.14579649 0 0.040369406 4294967295
0.088404186 0 0.11185412 4294967295
0.059694473 0 0.14761338 4294967295
0.070272066 0 0.1344385 4294967295
0.11740867 0 0.075727716 4294967295
0.1085075 0 0.086814538 4294967295
0.046139017 0 0.1644973 4294967295
0.026950318 0 0.18839769 4294967295
0.012928066 0 0.20586304 4294967295
0.019219374 0 0.19802694 4294967295
0.11533722 0 0.078307807 4294967295
0.064795949 0 0.14125925 4294967295
0.026275357 0 0.30118048 4294967295
0.12318556 0 0.18977547 4294967295
0.26938632 0 0.021707565 4294967295
0.16822553 0 0.13799891 4294967295
0.076524407 0 0.24341571 4294967295
0.18989658 0 0.11308652 4294967295
0.21959732 0 0.078943461 4294967295
0.14051031 0 0.16985947 4294967295
0.045336757 0 0.27926809 4294967295
0.25455254 0 0.038760006 4294967295
0.18036024 0 0.1240492 4294967295
0.14924137 0 0.15982251 4294967295
0.059914973 0 0.26250941 4294967295
0.16072774 0 0.14661813 4294967295
0.12286029 0 0.1901494 4294967295
0.23924613 0 0.056355804 4294967295
0.11369015 0 0.2006911 4294967295
0.070432022 0 0.25041932 4294967295
0.093979746 0 0.22334957 4294967295
0.21025227 0 0.089686245 4294967295
0.18410453 0 0.11974488 4294967295
0.88395739 0 0.034649521 4294967295
0.13401236 0 0.29221663 4294967295
0.40456229 0 0.1992968 4294967295
0.0053265798 0 0.3364135 4294967295
0.77141106 0 0.073303312 4294967295
0.76265013 0 0.076312244 4294967295
0.28922728 0 0.23890838 4294967295
0.11292998 0 0.29945734 4294967295
0.85241735 0 0.045481861 4294967295
0.71007866 0 0.094367817 4294967295
0.048417382 0 0.32161406 4294967295
0.44229877 0 0.18633628 4294967295
0.97151685 0 0.0045773983 4294967295
0.69718045 0 0.098797679 4294967295
0.2076869 0 0.26691326 4294967295
0.46671194 0 0.17795163 4294967295
0.85206908 0 0.045601487 4294967295
0.092496119 0 0.30647531 4294967295
0.098050438 0 0.30456769 4294967295
0.37709302 0 0.20873107 4294967295
0.29718974 0 0.23617369 4294967295
0.086544104 0 0.70253575 4294967295
0.03384712 0 0.76742023 4294967295
0.035104856 0 0.76587158 4294967295
0.30077404 0 0.43875977 4294967295
0.51312417 0 0.17729837 4294967295
0.45477721 0 0.24913955 4294967295
0.29081514 0 0.45102191 4294967295
0.078270398 0 0.71272296 4294967295
0.38746202 0 0.33202302 4294967295
0.38023248 0 0.34092459 4294967295
0.34820735 0 0.38035631 4294967295
0.3910161 0 0.327647 4294967295
0.23782277 0 0.5162701 4294967295
0.19995205 0 0.56289935 4294967295
0.58399779 0 0.090033472 4294967295
0.31317326 0 0.42349294 4294967295
0.11159228 0 0.67169452 4294967295
0.40066516 0 0.31576633 4294967295
0.34547892 0 0.38371578 4294967295
0.40670821 0 0.30832571 4294967295
0.39177242 0 0.32671574 4294967295
0.016377011 0 0.77164686 4294967295
0.023093978 0 0.74779218 4294967295
0.21583474 0 0.063291311 4294967295
0.039639659 0 0.68903172 4294967295
0.11255999 0 0.43006197 4294967295
0.052687354 0 0.64269406 4294967295
0.19317982 0 0.14374816 4294967295
0.067953929 0 0.58847624 4294967295
0.083460376 0 0.53340656 4294967295
0.20521505 0 0.10100615 4294967295
0.080436371 0 0.544146 4294967295
0.19040848 0 0.15359032 4294967295
0.15401357 0 0.28284341 4294967295
0.0084881224 0 0.79966354 4294967295
0.06015921 0 0.61615849 4294967295
0.18184465 0 0.18400395 4294967295
0.1462604 0 0.31037813 4294967295
0.19536084 0 0.13600248 4294967295
0.072002694 0 0.57409739 4294967295
0.051640209 0 0.64641291 4294967295
0.046268743 0 0.6654892 4294967295
0.4131566 0 0.035706438 4294967295
0.47909027 0 0.023892947 4294967295
0.44062865 0 0.030784212 4294967295
0.1227042 0 0.087747484 4294967295
0.24570417 0 0.065709293 4294967295
0.19332224 0 0.075094685 4294967295
0.2658051 0 0.06210776 4294967295
0.14147162 0 0.084384881 4294967295
0.23624843 0 0.067403495 4294967295
0.32633725 0 0.051262069 4294967295
0.09475933 0 0.092754439 4294967295
0.34014893 0 0.0487874 4294967295
0.008929003 0 0.10813285 4294967295
0.23285943 0 0.06801071 4294967295
0.23405522 0 0.067796461 4294967295
0.1870447 0 0.076219447 4294967295
0.45161948 0 0.028814957 4294967295
0.15950736 0 0.081153378 4294967295
0.39787847 0 0.038443863 4294967295
0.33826175 0 0.04912553 4294967295
0.56319612 0 0.0088235065 4294967295
0.47871435 0 0.24467808 4294967295
0.21399376 0 0.55717242 4294967295
0.44307107 0 0.28675383 4294967295
0.0041191918 0 0.80492276 4294967295
0.36560315 0 0.37820229 4294967295
0.57891047 0 0.1263997 4294967295
0.42424604 0 0.30897617 4294967295
0.44087827 0 0.28934234 4294967295
0.35569412 0 0.38989958 4294967295
0.27488092 0 0.48529702 4294967295
0.24843292 0 0.51651806 4294967295
0.4931331 0 0.2276572 4294967295
0.55009019 0 0.16042113 4294967295
0.46496999 0 0.26090282 4294967295
0.10487071 0 0.68598872 4294967295
0.02256391 0 0.7831493 4294967295
0.043601703 0 0.75831485 4294967295
0.4703958 0 0.25449783 4294967295
0.1287023 0 0.65785629 4294967295
0.42459697 0 0.30856192 4294967295
0.48039699 0 0.24269176 4294967295
0.0032418284 0 0.001119054 4294967295
0.17332409 0 0.00078193954 4294967295
0.14852777 0 0.00083108753 4294967295
0.37213838 0 0.00038787618 4294967295
0.48694652 0 0.00016031874 4294967295
0.10286897 0 0.00092158635 4294967295
0.19383168 0 0.00074129214 4294967295
0.37893671 0 0.00037440145 4294967295
0.49912888 0 0.00013617252 4294967295
0.37096685 0 0.00039019826 4294967295
0.17786148 0 0.00077294616 4294967295
0.50253862 0 0.00012941414 4294967295
0.10576694 0 0.00091584236 4294967295
0.089228511 0 0.00094862265 4294967295
0.2858808 0 0.00055884453 4294967295
0.47070774 0 0.00019250507 4294967295
0.3836574 0 0.00036504475 4294967295
0.51341587 0 0.00010785472 4294967295
0.10851913 0 0.00091038737 4294967295
0.22402146 0 0.00068145397 4294967295
0.40092665 0 0.00033081591 4294967295
0.64209956 0 0.14289287 4294967295
0.81025827 0 0.036957741 4294967295
0.2025626 0 0.41978848 4294967295
0.80512393 0 0.040192246 4294967295
0.47916201 0 0.24553883 4294967295
0.81107104 0 0.036445737 4294967295
0.42960203 0 0.27676019 4294967295
0.48014 0 0.24492273 4294967295
0.81603187 0 0.033320546 4294967295
0.69483137 0 0.10967335 4294967295
0.7074247 0 0.10173991 4294967295
0.51657295 0 0.22197104 4294967295
0.57105768 0 0.18764722 4294967295
0.86484003 0 0.0025728345 4294967295
0.81318408 0 0.035114586 4294967295
0.28200182 0 0.36974406 4294967295
0.7597084 0 0.068802714 4294967295
0.51193237 0 0.22489446 4294967295
0.55417448 0 0.19828314 4294967295
0.65979451 0 0.13174558 4294967295
0.67378229 0 0.12293369 4294967295
0.48042679 0 0.10396317 4294967295
0.37405625 0 0.13912755 4294967295
0.13271391 0 0.21891147 4294967295
0.63234335 0 0.053741977 4294967295
0.68766522 0 0.035453454 4294967295
0.69397354 0 0.033368021 4294967295
0.52814972 0 0.088186726 4294967295
0.32788658 0 0.15439051 4294967295
0.48646969 0 0.10196549 4294967295
0.47448108 0 0.10592872 4294967295
0.51319516 0 0.093130469 4294967295
0.42810404 0 0.12126023 4294967295
0.11791851 0 0.2238026 4294967295
0.46027008 0 0.11062665 4294967295
0.026202938 0 0.25412229 4294967295
0.55716074 0 0.078596145 4294967295
0.41188323 0 0.12662257 4294967295
0.66184944 0 0.043987736 4294967295
0.40941775 0 0.12743762 4294967295
0.089544989 0 0.23318243 4294967295
0.38935491 0 0.13407007 4294967295
0.41560346 0 0.0090039 4294967295
0.19631004 0 0.029843872 4294967295
0.32542732 0 0.01757355 4294967295
0.23074022 0 0.02657189 4294967295
0.073481068 0 0.041516602 4294967295
0.21081388 0 0.028465537 4294967295
0.12607282 0 0.036518682 4294967295
0.20759292 0 0.028771633 4294967295
0.00890896 0 0.047653042 4294967295
0.36622483 0 0.013696466 4294967295
0.29279804 0 0.020674389 4294967295
0.41488674 0 0.0090720095 4294967295
0.29737133 0 0.020239778 4294967295
0.22799462 0 0.026832812 4294967295
0.24362093 0 0.025347807 4294967295
0.5078814 0 0.00023450702 4294967295
0.029969351 0 0.045651622 4294967295
0.037898738 0 0.044898074 4294967295
0.32701448 0 0.017422719 4294967295
0.30482116 0 0.019531803 4294967295
0.1136049 0 0.037703536 4294967295
0.20297685 0 0.048205614 4294967295
0.16218992 0 0.16516241 4294967295
0.10172929 0 0.3385337 4294967295
0.096390545 0 0.35384259 4294967295
0.18694857 0 0.094166815 4294967295
0.20938358 0 0.02983427 4294967295
0.20855905 0 0.032198608 4294967295
0.19760819 0 0.063600302 4294967295
0.16858028 0 0.14683801 4294967295
0.073314458 0 0.42001343 4294967295
0.11796948 0 0.29196486 4294967295
0.04816344 0 0.49213415 4294967295
0.10495995 0 0.32926977 4294967295
0.20875895 0 0.03162539 4294967295
0.10245819 0 0.3364436 4294967295
0.1943623 0 0.072907865 4294967295
0.2125957 0 0.020623446 4294967295
0.040389389 0 0.51442635 4294967295
0.1006714 0 0.34156722 4294967295
0.17148374 0 0.13851231 4294967295
0.16845585 0 0.1471948 4294967295
0.68909281 0 0.061405167 4294967295
0.87176126 0 0.0094006509 4294967295
0.30024794 0 0.17210676 4294967295
0.36406487 0 0.1539385 4294967295
0.50738746 0 0.11313549 4294967295
0.50165445 0 0.11476764 4294967295
0.56292486 0 0.097324356 4294967295
0.1728383 0 0.20837945 4294967295
0.43245018 0 0.13446964 4294967295
0.32581645 0 0.16482757 4294967295
0.59161848 0 0.089155465 4294967295
0.82925278 0 0.02150254 4294967295
0.19062982 0 0.20331432 4294967295
0.54878813 0 0.101349 4294967295
0.78302824 0 0.034662366 4294967295
0.099324822 0 0.22930825 4294967295
0.33798641 0 0.16136286 4294967295
0.18005399 0 0.20632519 4294967295
0.58495951 0 0.091051236 4294967295
0.53625667 0 0.10491662 4294967295
0.6121335 0 0.083314985 4294967295
0.33447057 0 0.025847305 4294967295
0.33610791 0 0.025685694 4294967295
0.14468762 0 0.044579417 4294967295
0.011277249 0 0.057747394 4294967295
0.20504655 0 0.038621821 4294967295
0.0054108575 0 0.058326427 4294967295
0.55083513 0 0.0044915117 4294967295
0.35865512 0 0.023460221 4294967295
0.45959121 0 0.013497543 4294967295
0.52907157 0 0.0066396371 4294967295
0.55654824 0 0.0039276108 4294967295
0.10320546 0 0.048673823 4294967295
0.26714954 0 0.032492079 4294967295
0.29084763 0 0.030153012 4294967295
0.47422865 0 0.012052789 4294967295
0.38106707 0 0.021248098 4294967295
0.57587504 0 0.0020200014 4294967295
0.092633381 0 0.049717315 4294967295
0.17466165 0 0.041620895 4294967295
0.52609414 0 0.0069335178 4294967295
0.21827731 0 0.037315905 4294967295
0.42795447 0 0.39190751 4294967295
0.24553317 0 0.54354227 4294967295
0.85143811 0 0.039893568 4294967295
0.11002366 0 0.65618235 4294967295
0.77861881 0 0.10042346 4294967295
0.56052059 0 0.28171405 4294967295
0.64639097 0 0.21033567 4294967295
0.83155978 0 0.056417108 4294967295
0.16555493 0 0.6100229 4294967295
0.25389484 0 0.53659177 4294967295
0.15035374 0 0.62265861 4294967295
0.18256384 0 0.5958845 4294967295
0.56315655 0 0.27952296 4294967295
0.15851468 0 0.61587501 4294967295
0.11393028 0 0.65293503 4294967295
0.20466729 0 0.57751137 4294967295
0.85169369 0 0.039681137 4294967295
0.012471746 0 0.73727083 4294967295
0.14465052 0 0.62739933 4294967295
0.10792215 0 0.65792918 4294967295
0.41540036 0 0.40234292 4294967295
0.065410301 0 0.82291418 4294967295
0.39835376 0 0.35306764 4294967295
0.04575938 0 0.85064536 4294967295
0.25536209 0 0.55485606 4294967295
0.32195789 0 0.46087676 4294967295
0.28314504 0 0.51564908 4294967295
0.19013876 0 0.64689863 4294967295
0.15828958 0 0.69184387 4294967295
0.59172642 0 0.080182076 4294967295
0.36718324 0 0.39705521 4294967295
0.12368353 0 0.74067956 4294967295
0.022515124 0 0.88344741 4294967295
0.28007001 0 0.51998854 4294967295
0.52785331 0 0.17031914 4294967295
0.48860267 0 0.22570926 4294967295
0.23113048 0 0.58905149 4294967295
0.64722854 0 0.001857996 4294967295
0.023131296 0 0.8825779 4294967295
0.33954474 0 0.43605837 4294967295
0.13032311 0 0.73130989 4294967295
0.42920169 0 0.30953538 4294967295
0.62235111 0 0.036252856 4294967295
0.45256063 0 0.11574289 4294967295
0.23896497 0 0.21574099 4294967295
0.035106841 0 0.31118032 4294967295
0.53652763 0 0.076432467 4294967295
0.56216013 0 0.064432204 4294967295
0.48895037 0 0.098706484 4294967295
0.47720006 0 0.10420758 4294967295
0.63273853 0 0.031389832 4294967295
0.21899118 0 0.22509202 4294967295
0.52657491 0 0.08109197 4294967295
0.20848984 0 0.23000839 4294967295
0.56638718 0 0.06245324 4294967295
0.13230428 0 0.26567584 4294967295
0.41365159 0 0.13395877 4294967295
0.037396204 0 0.31010851 4294967295
0.070996314 0 0.2943781 4294967295
0.11005909 0 0.27609026 4294967295
0.17085207 0 0.24762911 4294967295
0.09529037 0 0.28300446 4294967295
0.41225761 0 0.13461138 4294967295
0.054888528 0 0.048479199 4294967295
0.0032522155 0 0.83971846 4294967295
0.053711113 0 0.066521108 4294967295
0.027229425 0 0.47230825 4294967295
0.014917641 0 0.66096556 4294967295
0.034077343 0 0.36737549 4294967295
0.0098013822 0 0.73936355 4294967295
0.033936504 0 0.3695336 4294967295
0.027653476 0 0.46581039 4294967295
0.047344483 0 0.16407895 4294967295
0.053760335 0 0.065766871 4294967295
0.030565837 0 0.42118335 4294967295
0.033800948 0 0.37161076 4294967295
0.042343203 0 0.24071515 4294967295
0.013075439 0 0.6891942 4294967295
0.01533578 0 0.6545583 4294967295
0.036781047 0 0.32594579 4294967295
0.031242304 0 0.41081765 4294967295
0.00096660428 0 0.87474161 4294967295
0.05407675 0 0.060918331 4294967295
0.020175835 0 0.5803926 4294967295
0.08248838 0 0.31306222 4294967295
0.063188888 0 0.36209369 4294967295
0.13986585 0 0.16729149 4294967295
0.13271321 0 0.18546316 4294967295
0.091201097 0 0.29092705 4294967295
0.055341717 0 0.38202989 4294967295
0.14465539 0 0.15512338 4294967295
0.068480626 0 0.34864974 4294967295
0.044130631 0 0.41051227 4294967295
0.15617995 0 0.12584457 4294967295
0.053097237 0 0.38773209 4294967295
0.14062089 0 0.16537327 4294967295
0.0033279364 0 0.51417387 4294967295
0.17385377 0 0.080943227 4294967295
0.17535308 0 0.077134132 4294967295
0.12358541 0 0.20865285 4294967295
0.066132493 0 0.35461527 4294967295
0.13740888 0 0.17353356 4294967295
0.10837645 0 0.2472921 4294967295
0.17444566 0 0.079439491 4294967295
0.051471815 0 0.39186156 4294967295
0.13179906 0 0.035564542 4294967295
0.22799483 0 0.0080696419 4294967295
0.15666053 0 0.02845858 4294967295
0.13606539 0 0.034345128 4294967295
0.21044785 0 0.013084959 4294967295
0.24571149 0 0.003005825 4294967295
0.18877511 0 0.019279514 4294967295
0.088132001 0 0.048045564 4294967295
0.092227235 0 0.046875052 4294967295
0.011252326 0 0.070019491 4294967295
0.0061144172 0 0.071488023 4294967295
0.0013006647 0 0.072863899 4294967295
0.12484811 0 0.03755128 4294967295
0.075045452 0 0.051785991 4294967295
0.18147658 0 0.021365598 4294967295
0.21014433 0 0.013171714 4294967295
0.13001248 0 0.036075186 4294967295
0.11977907 0 0.039000124 4294967295
0.020051852 0 0.067504391 4294967295
0.048935309 0 0.059248857 4294967295
0.1239242 0 0.037815355 4294967295
0.077943489 0 0.039731719 4294967295
0.22609745 0 0.032769155 4294967295
0.65685135 0 0.012525674 4294967295
0.5644083 0 0.016870078 4294967295
0.085743658 0 0.039365146 4294967295
0.88789076 0 0.0016678683 4294967295
0.80100423 0 0.0057511404 4294967295
0.15336806 0 0.036187109 4294967295
0.4394806 0 0.022741115 4294967295
0.6992594 0 0.010532688 4294967295
0.71793312 0 0.0096551068 4294967295
0.0064453036 0 0.043091811 4294967295
0.5342797 0 0.018285986 4294967295
0.6800347 0 0.011436161 4294967295
0.68674326 0 0.011120889 4294967295
0.8518852 0 0.003359966 4294967295
0.089017704 0 0.039211281 4294967295
0.72729379 0 0.0092151985 4294967295
0.87392002 0 0.0023244284 4294967295
0.093704969 0 0.038991001 4294967295
0.25383416 0 0.031465657 4294967295
0.022745706 0 0.73278254 4294967295
0.17870809 0 0.20508325 4294967295
0.066342987 0 0.585271 4294967295
0.041474443 0 0.66941381 4294967295
0.22441442 0 0.050435722 4294967295
0.18209009 0 0.19364029 4294967295
0.023137866 0 0.73145568 4294967295
0.23479968 0 0.015297174 4294967295
0.2022914 0 0.12528908 4294967295
0.081737548 0 0.53318346 4294967295
0.16572089 0 0.24902546 4294967295
0.10925333 0 0.44008371 4294967295
0.10396049 0 0.45799205 4294967295
0.15652265 0 0.28014779 4294967295
0.077535927 0 0.54739964 4294967295
0.14371026 0 0.32349858 4294967295
0.031105956 0 0.70449561 4294967295
0.019448411 0 0.74393898 4294967295
0.09046258 0 0.50366229 4294967295
0.032776441 0 0.69884354 4294967295
0.15792243 0 0.27541161 4294967295
0.066666618 0 0.3677296 4294967295
0.024135193 0 0.69497955 4294967295
0.076495893 0 0.29210013 4294967295
0.060535643 0 0.41490322 4294967295
0.035750531 0 0.60560751 4294967295
0.10796029 0 0.05000329 4294967295
0.087928072 0 0.20413738 4294967295
0.013973874 0 0.77316386 4294967295
0.0043797563 0 0.84698397 4294967295
0.058939073 0 0.42718774 4294967295
0.045703478 0 0.52902651 4294967295
0.024215577 0 0.69436103 4294967295
0.051809862 0 0.48204207 4294967295
0.018331975 0 0.7396313 4294967295
0.035281636 0 0.60921538 4294967295
0.049647566 0 0.49867946 4294967295
0.00062207226 0 0.87589675 4294967295
0.074373938 0 0.3084271 4294967295
0.014447234 0 0.76952171 4294967295
0.052874245 0 0.4738524 4294967295
0.0096356934 0 0.80654317 4294967295
0.53421944 0 0.24782264 4294967295
0.71020472 0 0.070555866 4294967295
0.67663115 0 0.10437393 4294967295
0.048901379 0 0.73667485 4294967295
0.03681425 0 0.74884999 4294967295
0.41125047 0 0.37168708 4294967295
0.13820809 0 0.64671779 4294967295
0.72396773 0 0.0566926 4294967295
0.08545661 0 0.69985342 4294967295
0.30273417 0 0.48099363 4294967295
0.46517858 0 0.31736627 4294967295
0.49811926 0 0.28418571 4294967295
0.5464403 0 0.23551279 4294967295
0.42087758 0 0.36198989 4294967295
0.31726158 0 0.46636042 4294967295
0.64169818 0 0.13956124 4294967295
0.45073375 0 0.3319163 4294967295
0.71904063 0 0.061655581 4294967295
0.17300163 0 0.61167085 4294967295
0.61580777 0 0.16564023 4294967295
0.2919704 0 0.49183577 4294967295
0.30854967 0 0.018722154 4294967295
0.14791369 0 0.059730276 4294967295
0.28537589 0 0.024638101 4294967295
0.35675225 0 0.0064167157 4294967295
0.32432634 0 0.014694594 4294967295
0.31752497 0 0.016430892 4294967295
0.27283263 0 0.027840219 4294967295
0.24257652 0 0.03556418 4294967295
0.19710694 0 0.047171928 4294967295
0.23854923 0 0.03659229 4294967295
0.19186084 0 0.048511185 4294967295
0.22104135 0 0.041061807 4294967295
0.25656769 0 0.031992428 4294967295
0.011256605 0 0.09461692 4294967295
0.28868625 0 0.023793012 4294967295
0.22902052 0 0.039024837 4294967295
0.05308269 0 0.083939306 4294967295
0.054969527 0 0.083457619 4294967295
0.074810982 0 0.078392372 4294967295
0.29688337 0 0.021700397 4294967295
0.32242057 0 0.015181109 4294967295
0.49023724 0 0.061334327 4294967295
0.23014472 0 0.12642729 4294967295
0.077631444 0 0.16459657 4294967295
0.65327471 0 0.020531178 4294967295
0.075173274 0 0.16521178 4294967295
0.35278553 0 0.095734164 4294967295
0.19876972 0 0.13427947 4294967295
0.14685918 0 0.14727105 4294967295
0.21157581 0 0.13107452 4294967295
0.48357233 0 0.06300234 4294967295
0.6963405 0 0.0097531676 4294967295
0.16317847 0 0.14318685 4294967295
0.37274006 0 0.090740174 4294967295
0.57241243 0 0.040768459 4294967295
0.68850815 0 0.011713356 4294967295
0.10450139 0 0.15787187 4294967295
0.21662365 0 0.1298112 4294967295
0.41251504 0 0.080785744 4294967295
0.47392273 0 0.065417334 4294967295
0.64223099 0 0.023295075 4294967295
0.17121585 0 0.14117534 4294967295
0.56113857 0 0.10538328 4294967295
0.54795671 0 0.11769217 4294967295
0.52120179 0 0.14267519 4294967295
0.019176899 0 0.61145246 4294967295
0.39793211 0 0.25778109 4294967295
0.41624799 0 0.24067819 4294967295
0.51477385 0 0.14867744 4294967295
0.52196443 0 0.14196306 4294967295
0.19160986 0 0.45043921 4294967295
0.051731478 0 0.58105385 4294967295
0.59312242 0 0.075517654 4294967295
0.11641404 0 0.52065504 4294967295
0.12063629 0 0.51671243 4294967295
0.24249426 0 0.40292472 4294967295
0.29860902 0 0.3505263 4294967295
0.25524938 0 0.39101434 4294967295
0.43642747 0 0.22183514 4294967295
0.067861751 0 0.56599182 4294967295
0.21952824 0 0.42436978 4294967295
0.58599901 0 0.082169294 4294967295
0.40952024 0 0.2469604 4294967295
0.078101352 0 0.20167375 4294967295
0.041542109 0 0.48446012 4294967295
0.038210709 0 0.51022851 4294967295
0.041069496 0 0.48811576 4294967295
0.028355097 0 0.58646184 4294967295
0.062467467 0 0.32260212 4294967295
0.007108306 0 0.75080615 4294967295
0.093918093 0 0.07933104 4294967295
0.045023989 0 0.4575277 4294967295
0.091801591 0 0.095702171 4294967295
0.070301905 0 0.26200259 4294967295
0.047988009 0 0.43460095 4294967295
0.049132586 0 0.42574763 4294967295
0.030463837 0 0.57015073 4294967295
0.0233783 0 0.62495744 4294967295
0.025634266 0 0.60750753 4294967295
0.06007944 0 0.34107354 4294967295
0.031374019 0 0.56311047 4294967295
0.013134272 0 0.7041952 4294967295
0.07807263 0 0.20189595 4294967295
0.050019804 0 0.41888499 4294967295
0.41729358 0 0.027166292 4294967295
0.064808667 0 0.1668105 4294967295
0.14244197 0 0.13605446 4294967295
0.08967986 0 0.15695725 4294967295
0.0013739283 0 0.19194148 4294967295
0.4376542 0 0.01910001 4294967295
0.14029452 0 0.13690521 4294967295
0.39287922 0 0.036838546 4294967295
0.31605116 0 0.067275569 4294967295
0.33404589 0 0.060146585 4294967295
0.085227221 0 0.15872127 4294967295
0.021732518 0 0.18387601 4294967295
0.46629333 0 0.0077540278 4294967295
0.37657395 0 0.043298215 4294967295
0.054885481 0 0.17074177 4294967295
0.41845918 0 0.02670452 4294967295
0.10069893 0 0.15259182 4294967295
0.48304582 0 0.0011171848 4294967295
0.26047972 0 0.089291357 4294967295
0.32451379 0 0.063922927 4294967295
0.22633317 0 0.10281922 4294967295
0.58984709 0 0.25707316 4294967295
0.3357828 0 0.53069407 4294967295
0.16031764 0 0.71966565 4294967295
0.69431013 0 0.14456904 4294967295
0.12818483 0 0.75427192 4294967295
0.55814874 0 0.29121149 4294967295
0.2683261 0 0.60334325 4294967295
0.28766823 0 0.58251226 4294967295
0.44121265 0 0.41714874 4294967295
0.37884426 0 0.48431796 4294967295
0.53057438 0 0.32090837 4294967295
0.59414357 0 0.25244594 4294967295
0.3811872 0 0.48179466 4294967295
0.44835925 0 0.40945205 4294967295
0.0048413551 0 0.88710976 4294967295
0.22261734 0 0.65257049 4294967295
0.15877458 0 0.72132754 4294967295
0.57448941 0 0.27361298 4294967295
0.36795524 0 0.49604517 4294967295
0.19583502 0 0.68141437 4294967295
0.54111254 0 0.30955905 4294967295
0.11272269 0 0.16964866 4294967295
0.093450181 0 0.20036826 4294967295
0.075284101 0 0.22932425 4294967295
0.011059929 0 0.33169499 4294967295
0.020670664 0 0.31637588 4294967295
0.17737406 0 0.066596955 4294967295
0.19263992 0 0.042263806 4294967295
0.21622778 0 0.0046657026 4294967295
0.11423685 0 0.16723514 4294967295
0.062301341 0 0.25001824 4294967295
0.039477762 0 0.28639811 4294967295
0.078730665 0 0.22383057 4294967295
0.096206903 0 0.19597416 4294967295
0.18711105 0 0.051076621 4294967295
0.14970434 0 0.1107014 4294967295
0.17229667 0 0.074690133 4294967295
0.084659241 0 0.21438067 4294967295
0.030755756 0 0.30030066 4294967295
0.093481511 0 0.20031832 4294967295
0.022658475 0 0.31320739 4294967295
0.1315818 0 0.139588 4294967295
0.84101295 0 0.01429978 4294967295
0.15417731 0 0.091829874 4294967295
0.77667487 0 0.021562271 4294967295
0.3030692 0 0.075022936 4294967295
0.38290128 0 0.066011481 4294967295
0.4409689 0 0.059456803 4294967295
0.51514411 0 0.051083896 4294967295
0.72094011 0 0.027853616 4294967295
0.93870401 0 0.0032724068 4294967295
0.92778009 0 0.0045055002 4294967295
0.085668318 0 0.099563174 4294967295
0.019845812 0 0.10699323 4294967295
0.051358752 0 0.10343605 4294967295
0.86887622 0 0.011154577 4294967295
0.87046111 0 0.010975674 4294967295
0.038433921 0 0.104895 4294967295
0.40560308 0 0.063448898 4294967295
0.17786302 0 0.089156225 4294967295
0.21275079 0 0.085218087 4294967295
0.75324398 0 0.024207152 4294967295
0.60267144 0 0.041203797 4294967295
0.030116268 0 0.27275008 4294967295
0.033868738 0 0.24923332 4294967295
0.044317245 0 0.18375248 4294967295
0.061526828 0 0.075899899 4294967295
0.041482173 0 0.20151988 4294967295
0.014891956 0 0.36816093 4294967295
0.059147894 0 0.09080869 4294967295
0.04952589 0 0.15110984 4294967295
0.0052519999 0 0.42857459 4294967295
0.070880204 0 0.017282248 4294967295
0.03499005 0 0.24220605 4294967295
0.028314419 0 0.28404227 4294967295
0.02637968 0 0.29616728 4294967295
0.068546116 0 0.031909972 4294967295
0.067514941 0 0.038372368 4294967295
0.0076026358 0 0.41384315 4294967295
0.066340081 0 0.04573521 4294967295
0.06447763 0 0.0574072 4294967295
0.01412167 0 0.37298831 4294967295
0.067850269 0 0.036270857 4294967295
0.068385832 0 0.03291449 4294967295
0.086821415 0 0.025945604 4294967295
0.045616359 0 0.40323961 4294967295
0.00042375547 0 0.81704551 4294967295
0.016877377 0 0.66638798 4294967295
0.025747968 0 0.58516443 4294967295
0.056260105 0 0.30578017 4294967295
0.023479378 0 0.60593677 4294967295
0.06712275 0 0.20631641 4294967295
0.0032720373 0 0.79096526 4294967295
0.064714983 0 0.2283631 4294967295
0.031424545 0 0.53318691 4294967295
0.078181706 0 0.10505509 4294967295
0.025565047 0 0.58683938 4294967295
0.049555682 0 0.3671692 4294967295
0.060539991 0 0.26659143 4294967295
0.085863426 0 0.034717441 4294967295
0.055950057 0 0.30861914 4294967295
0.057182513 0 0.29733413 4294967295
0.038809244 0 0.46556893 4294967295
0.00076821906 0 0.81389147 4294967295
0.089300096 0 0.0032495856 4294967295
0.036112726 0 0.83353913 4294967295
0.096250959 0 0.68053144 4294967295
0.29135442 0 0.18413633 4294967295
0.10586543 0 0.65606964 4294967295
0.067663692 0 0.75326508 4294967295
0.26541251 0 0.25013942 4294967295
0.1384754 0 0.57310122 4294967295
0.0025294267 0 0.918984 4294967295
0.2539168 0 0.27938759 4294967295
0.32353956 0 0.10224873 4294967295
0.0042485893 0 0.91460997 4294967295
0.32238778 0 0.10517913 4294967295
0.064270772 0 0.76189756 4294967295
0.23249407 0 0.3338927 4294967295
0.053915419 0 0.78824437 4294967295
0.33658564 0 0.069056034 4294967295
0.24576862 0 0.30011868 4294967295
0.31646207 0 0.12025577 4294967295
0.10034658 0 0.67011106 4294967295
0.19922183 0 0.41854614 4294967295
0.056451183 0 0.78179264 4294967295
0.093560666 0 0.19780125 4294967295
0.37510136 0 0.12204004 4294967295
0.71326441 0 0.031042039 4294967295
0.45224872 0 0.10128007 4294967295
0.38220149 0 0.12012943 4294967295
0.7099843 0 0.031924695 4294967295
0.75364119 0 0.020176843 4294967295
0.3204025 0 0.13675924 4294967295
0.79225409 0 0.0097863078 4294967295
0.14429264 0 0.18414953 4294967295
0.15552661 0 0.18112652 4294967295
0.20480862 0 0.16786498 4294967295
0.29843989 0 0.14266926 4294967295
0.76017308 0 0.018419147 4294967295
0.52027482 0 0.082974583 4294967295
0.30420229 0 0.14111863 4294967295
0.51000917 0 0.08573702 4294967295
0.42872113 0 0.10761122 4294967295
0.31388116 0 0.1385141 4294967295
0.4158316 0 0.11107974 4294967295
0.57513887 0 0.06821093 4294967295
0.011149017 0 0.24736962 4294967295
0.012484847 0 0.19912025 4294967295
0.0093609216 0 0.31195459 4294967295
0.016114289 0 0.0680269 4294967295
0.0043449076 0 0.49313009 4294967295
0.012154195 0 0.21106321 4294967295
0.013029874 0 0.17943415 4294967295
0.0083579933 0 0.34817976 4294967295
0.014186335 0 0.13766348 4294967295
0.0031794056 0 0.5352273 4294967295
0.0058524329 0 0.43867916 4294967295
0.0060115089 0 0.43293342 4294967295
0.011480831 0 0.2353847 4294967295
0.0032756289 0 0.53175181 4294967295
0.004382933 0 0.49175662 4294967295
0.00044230185 0 0.63408995 4294967295
0.0024857267 0 0.56028259 4294967295
0.0075169718 0 0.37855697 4294967295
0.0038203432 0 0.51207703 4294967295
0.0069341743 0 0.39960727 4294967295
0.013999093 0 0.14442652 4294967295
0.018794214 0 0.011253759 4294967295
0.096619248 0 0.0033541406 4294967295
0.0687932 0 0.0061786198 4294967295
0.067910597 0 0.0062682084 4294967295
0.032025527 0 0.0099107176 4294967295
0.029128008 0 0.010204829 4294967295
0.070244238 0 0.0060313325 4294967295
0.11631524 0 0.0013549021 4294967295
0.10945056 0 0.0020517008 4294967295
0.030527314 0 0.010062793 4294967295
0.054092143 0 0.0076708486 4294967295
0.095881768 0 0.0034289984 4294967295
0.061829988 0 0.0068854196 4294967295
0.011993052 0 0.011944111 4294967295
0.060091462 0 0.0070618885 4294967295
0.12204474 0 0.00077333022 4294967295
0.11419781 0 0.0015698317 4294967295
0.082997337 0 0.0047368314 4294967295
0.034544919 0 0.0096549867 4294967295
0.027844029 0 0.010335159 4294967295
0.036047027 0 0.0095025152 4294967295
0.13568385 0 0.31960559 4294967295
0.2630164 0 0.18947726 4294967295
0.3927879 0 0.056856483 4294967295
0.23086998 0 0.22232951 4294967295
0.43578547 0 0.012914836 4294967295
0.2931608 0 0.15867102 4294967295
0.28901398 0 0.16290888 4294967295
0.44168738 0 0.006883353 4294967295
0.35815796 0 0.092246771 4294967295
0.17473541 0 0.27969658 4294967295
0.23117626 0 0.22201651 4294967295
0.14459451 0 0.31049928 4294967295
0.28549126 0 0.16650894 4294967295
0.33191141 0 0.11906958 4294967295
0.38752446 0 0.062235475 4294967295
0.2393285 0 0.21368527 4294967295
0.26200813 0 0.19050768 4294967295
0.044676073 0 0.41261154 4294967295
0.42639869 0 0.022507697 4294967295
0.14517908 0 0.30990189 4294967295
0.25850654 0 0.19408616 4294967295
0.022458278 0 0.37964755 4294967295
0.04008672 0 0.059745014 4294967295
0.018535646 0 0.45083138 4294967295
0.034015313 0 0.16992259 4294967295
0.0060229562 0 0.67789859 4294967295
0.030595211 0 0.231987 4294967295
0.010088442 0 0.6041224 4294967295
0.025902191 0 0.31715101 4294967295
0.00034183025 0 0.7809937 4294967295
0.035531815 0 0.14240265 4294967295
0.020520246 0 0.41481692 4294967295
0.02267546 0 0.37570634 4294967295
0.034309316 0 0.16458732 4294967295
0.005500684 0 0.6873762 4294967295
0.0072547528 0 0.65554523 4294967295
0.033657748 0 0.17641127 4294967295
0.040147752 0 0.0586375 4294967295
0.024158105 0 0.34880087 4294967295
0.012642 0 0.55778313 4294967295
0.010756359 0 0.59200174 4294967295
0.0083966171 0 0.63482386 4294967295
0.022986537 0 0.030587815 4294967295
0.01946618 0 0.043079957 4294967295
0.0066937814 0 0.088403381 4294967295
0.021434197 0 0.036096364 4294967295
0.029698892 0 0.0067687258 4294967295
0.024914192 0 0.023747444 4294967295
0.022805251 0 0.031231113 4294967295
0.02297296 0 0.03063599 4294967295
0.0096711498 0 0.077838063 4294967295
0.020406457 0 0.039743342 4294967295
0.0048718499 0 0.094868585 4294967295
0.0028486715 0 0.10204793 4294967295
0.024794841 0 0.024170965 4294967295
0.027163813 0 0.015764564 4294967295
0.010199206 0 0.075964227 4294967295
0.012061067 0 0.069357336 4294967295
0.027412873 0 0.014880769 4294967295
0.0044816672 0 0.096253172 4294967295
0.027012313 0 0.016302168 4294967295
0.012328072 0 0.068409853 4294967295
0.029479761 0 0.0075463206 4294967295
0.69547307 0 0.16238606 4294967295
0.8901431 0 0.051847994 4294967295
0.11208115 0 0.49364924 4294967295
4.6008226e-05 0 0.55726534 4294967295
0.15205327 0 0.47095215 4294967295
0.30205521 0 0.38577765 4294967295
0.031066168 0 0.53965139 4294967295
0.26212969 0 0.40844828 4294967295
0.034389086 0 0.53776455 4294967295
0.6355378 0 0.19641867 4294967295
0.46998763 0 0.29042181 4294967295
0.69997239 0 0.15983123 4294967295
0.5763064 0 0.23005161 4294967295
0.26217988 0 0.40841976 4294967295
0.42667693 0 0.3150146 4294967295
0.30821869 0 0.38227788 4294967295
0.56249231 0 0.23789555 4294967295
0.078893177 0 0.51249409 4294967295
0.45950133 0 0.29637617 4294967295
0.65095043 0 0.18766701 4294967295
0.84883249 0 0.075305104 4294967295
0.080751836 0 0.74293453 4294967295
0.063869879 0 0.79373848 4294967295
0.041851833 0 0.85999882 4294967295
0.033130761 0 0.88624376 4294967295
0.19166054 0 0.40916979 4294967295
0.019807901 0 0.92633712 4294967295
0.027054366 0 0.90452981 4294967295
0.04661769 0 0.84565663 4294967295
0.25196883 0 0.22768009 4294967295
0.32419947 0 0.010311723 4294967295
0.084032319 0 0.73306239 4294967295
0.25198418 0 0.22763389 4294967295
0.047331464 0 0.84350866 4294967295
0.18486355 0 0.42962438 4294967295
0.26235458 0 0.19642556 4294967295
0.13483487 0 0.58017898 4294967295
0.19634321 0 0.39507788 4294967295
0.14688204 0 0.54392457 4294967295
0.29172486 0 0.10803968 4294967295
0.10238005 0 0.67784739 4294967295
0.011637045 0 0.95092618 4294967295
0.055075198 0 0.48602682 4294967295
0.1151215 0 0.20124674 4294967295
0.13039455 0 0.12881166 4294967295
0.12883987 0 0.13618499 4294967295
0.062065214 0 0.45287547 4294967295
0.10910468 0 0.22978258 4294967295
0.022904212 0 0.63860333 4294967295
0.059850991 0 0.46337679 4294967295
0.14793806 0 0.045608461 4294967295
0.053619102 0 0.49293262 4294967295
0.079977445 0 0.36792359 4294967295
0.0063159047 0 0.71727633 4294967295
0.14578825 0 0.055804312 4294967295
0.089503027 0 0.32274684 4294967295
0.019326292 0 0.6555723 4294967295
0.010651929 0 0.69671196 4294967295
0.053119633 0 0.49530146 4294967295
0.017678477 0 0.6633873 4294967295
0.051062893 0 0.5050559 4294967295
0.016743626 0 0.66782099 4294967295
0.040440079 0 0.55543643 4294967295
0.59361595 0 0.3009358 4294967295
0.43319297 0 0.46473545 4294967295
0.31569114 0 0.58471048 4294967295
0.49627101 0 0.40032971 4294967295
0.71079344 0 0.18129194 4294967295
0.34724465 0 0.55249286 4294967295
0.6362344 0 0.2574203 4294967295
0.48624617 0 0.41056556 4294967295
0.65777779 0 0.23542345 4294967295
0.39698148 0 0.5017091 4294967295
0.33310792 0 0.56692713 4294967295
0.49587375 0 0.40073532 4294967295
0.74692672 0 0.14439809 4294967295
0.059929971 0 0.84585506 4294967295
0.62501568 0 0.26887518 4294967295
0.19603936 0 0.70688075 4294967295
0.0057081725 0 0.90121812 4294967295
0.038990736 0 0.867235 4294967295
0.64698011 0 0.2464484 4294967295
0.041319441 0 0.86485732 4294967295
0.86099565 0 0.027928174 4294967295
0.010911692 0 0.16294803 4294967295
0.18775801 0 0.061999522 4294967295
0.083393671 0 0.12157342 4294967295
0.10696466 0 0.10811848 4294967295
0.21925399 0 0.044020802 4294967295
0.15946436 0 0.07815028 4294967295
0.073874205 0 0.12700738 4294967295
0.19170518 0 0.059746377 4294967295
0.061135504 0 0.13427897 4294967295
0.21839651 0 0.044510268 4294967295
0.0006547501 0 0.16880296 4294967295
0.22670199 0 0.039769277 4294967295
0.15916054 0 0.078323714 4294967295
0.11650289 0 0.10267381 4294967295
0.14259157 0 0.087781712 4294967295
0.025010856 0 0.15489987 4294967295
0.039579771 0 0.14658354 4294967295
0.27503297 0 0.012180701 4294967295
0.1361427 0 0.091462895 4294967295
0.20501372 0 0.052149512 4294967295
0.22785179 0 0.03911294 4294967295
0.52128625 0 0.0041576326 4294967295
0.28093186 0 0.18451272 4294967295
0.23138624 0 0.22169034 4294967295
0.37814507 0 0.11156669 4294967295
0.30543599 0 0.16612552 4294967295
0.21516514 0 0.23386221 4294967295
0.0074546831 0 0.38972223 4294967295
0.39456284 0 0.099247277 4294967295
0.23456162 0 0.21930763 4294967295
0.34121123 0 0.1392808 4294967295
0.015975516 0 0.38332844 4294967295
0.42470083 0 0.076632589 4294967295
0.20412773 0 0.24214436 4294967295
0.29943761 0 0.17062654 4294967295
0.029191822 0 0.3734113 4294967295
0.018073758 0 0.38175398 4294967295
0.40811139 0 0.089080811 4294967295
0.41741103 0 0.082102627 4294967295
0.019237636 0 0.38088062 4294967295
0.28426737 0 0.18200986 4294967295
0.17350607 0 0.265122 4294967295
0.1777447 0 0.012140474 4294967295
0.24194148 0 0.0090460852 4294967295
0.40757763 0 0.0010621548 4294967295
0.37509391 0 0.0026279222 4294967295
0.10951118 0 0.015429441 4294967295
0.30825287 0 0.0058497693 4294967295
0.17181247 0 0.012426417 4294967295
0.2793442 0 0.0072432142 4294967295
0.30373457 0 0.0060675582 4294967295
0.40090489 0 0.0013837907 4294967295
0.038420197 0 0.018856142 4294967295
0.18248844 0 0.011911819 4294967295
0.22036645 0 0.010086037 4294967295
0.2138816 0 0.010398618 4294967295
0.18856753 0 0.011618797 4294967295
0.11250858 0 0.015284961 4294967295
0.40516031 0 0.0011786725 4294967295
0.037202884 0 0.018914819 4294967295
0.12553619 0 0.014657009 4294967295
0.32187918 0 0.0051929587 4294967295
0.20366357 0 0.010891143 4294967295
0.43749601 0 0.39558598 4294967295
0.54668444 0 0.29349583 4294967295
0.51372916 0 0.32430869 4294967295
0.46892118 0 0.36620373 4294967295
0.1504564 0 0.66396534 4294967295
0.79715621 0 0.059307039 4294967295
0.83864081 0 0.020519316 4294967295
0.16827749 0 0.64730281 4294967295
0.29262158 0 0.53104222 4294967295
0.4627029 0 0.37201777 4294967295
0.12413643 0 0.68857431 4294967295
0.18341015 0 0.63315392 4294967295
0.68207198 0 0.16690969 4294967295
0.74161822 0 0.11123455 4294967295
0.52757907 0 0.31135917 4294967295
0.38105804 0 0.44835496 4294967295
0.48946217 0 0.3469981 4294967295
0.47007138 0 0.36512831 4294967295
0.45802009 0 0.37639615 4294967295
0.85501683 0 0.0052078962 4294967295
0.050915167 0 0.75703549 4294967295
0.0096523073 0 0.29361445 4294967295
0.029257765 0 0.011612833 4294967295
0.015605233 0 0.20798856 4294967295
0.018437557 0 0.16724887 4294967295
0.021718338 0 0.12005869 4294967295
0.02985798 0 0.0029794276 4294967295
0.014246083 0 0.22753835 4294967295
0.015844837 0 0.20454213 4294967295
0.015077047 0 0.21558589 4294967295
0.0032797134 0 0.38527676 4294967295
0.0037271564 0 0.3788408 4294967295
0.0013939748 0 0.4124009 4294967295
0.0085359979 0 0.30967125 4294967295
0.0015111712 0 0.41071516 4294967295
0.00062727608 0 0.42342898 4294967295
0.014414873 0 0.2251105 4294967295
0.011734082 0 0.26367053 4294967295
0.016792081 0 0.19091713 4294967295
0.018751653 0 0.16273099 4294967295
