# .PCD v0.7 - Point Cloud Data file format
VERSION 0.7
FIELDS x y z rgba
SIZE 4 4 4 4
TYPE F F F U
COUNT 1 1 1 1
WIDTH 1316
HEIGHT 1
VIEWPOINT 0 0 0 1 0 0 0
POINTS 1316
DATA ascii
0 0.83831024 0.20438372 4294967295
0 0.75482374 0.094076298 4294967295
0 0.51874006 0.14011098 4294967295
0 0.67416024 0.2812224 4294967295
0 0.75761533 0.32532033 4294967295
0 0.78225315 0.0089125074 4294967295
0 0.7131809 0.17058639 4294967295
0 0.58383149 0.37954843 4294967295
0 0.6640681 0.28459683 4294967295
0 0.74927193 0.23712569 4294967295
0 0.64207238 0.025908012 4294967295
0 0.543872 0.17328584 4294967295
0 0.52753884 0.073182963 4294967295
0 0.62381542 0.43609679 4294967295
0 0.96521974 0.44218123 4294967295
0 0.50861484 0.30352992 4294967295
0 0.64656496 0.26343858 4294967295
0 0.89760625 0.16530499 4294967295
0 0.90354955 0.071766451 4294967295
0 0.94652736 0.16116489 4294967295
0 0.89708674 0.22878052 4294967295
0 0.67007744 0.11026767 4294967295
0 0.89936692 0.25390887 4294967295
0 0.98981607 0.06343504 4294967295
0 0.53850573 0.23908803 4294967295
0 0.80056071 0.1805781 4294967295
0 0.76499605 0.34443274 4294967295
0 0.85386395 0.29253492 4294967295
0 0.91761565 0.47767937 4294967295
0 0.72863168 0.38283539 4294967295
0 0.9198606 0.23724653 4294967295
0 0.68636531 0.066425562 4294967295
0 0.5006851 0.083971515 4294967295
0 0.73173058 0.40423471 4294967295
0 0.655738 0.17825793 4294967295
0 0.56539959 0.052824732 4294967295
0 0.90703845 0.23547702 4294967295
0 0.66309237 0.30640537 4294967295
0 0.9893859 0.1529085 4294967295
0 0.86984038 0.027891615 4294967295
0 0.8919965 0.17040116 4294967295
0 0.70846975 0.15699258 4294967295
0 0.51483387 0.062333666 4294967295
0 0.9495275 0.43244958 4294967295
0 0.54001302 0.17815918 4294967295
0 0.81528497 0.45987365 4294967295
0 0.91540575 0.0016502668 4294967295
0 0.52629918 0.41609085 4294967295
0 0.58562177 0.25802973 4294967295
0 0.82032555 0.24135974 4294967295
0 0.93628764 0.38572514 4294967295
0 0.79418445 0.34332612 4294967295
0 0.62120217 0.45727688 4294967295
0 0.64973152 0.11058805 4294967295
0 0.61018538 0.0195719 4294967295
0 0.63847965 0.0021819065 4294967295
0 0.68997306 0.3469494 4294967295
0 0.6591745 0.20480694 4294967295
0 0.90928304 0.10870197 4294967295
0 0.6372565 0.44929609 4294967295
0 0.78686118 0.45254147 4294967295
0 0.90916967 0.20226687 4294967295
0 0.95419174 0.43546891 4294967295
0 0.61835772 0.039813526 4294967295
0 0.69349861 0.43868324 4294967295
0 0.78117323 0.12978631 4294967295
0 0.82440841 0.075357735 4294967295
0 0.97311246 0.44561055 4294967295
0 0.53263462 0.12284391 4294967295
0 0.5561986 0.14281999 4294967295
0 0.64241582 0.19467826 4294967295
0 0.64500189 0.33238888 4294967295
0 0.54162765 0.30417636 4294967295
0 0.5371958 0.45091069 4294967295
0 0.91287839 0.17445232 4294967295
0 0.9002068 0.19973952 4294967295
0 0.62699378 0.30937648 4294967295
0 0.90200639 0.081185557 4294967295
0 0.74484539 0.020364096 4294967295
0 0.6209991 0.43834403 4294967295
0 0.95904732 0.40217236 4294967295
0 0.56813037 0.28345573 4294967295
0 0.97753012 0.041242775 4294967295
0 0.72906625 0.010164698 4294967295
0 0.6640867 0.28526488 4294967295
0 0.65298468 0.30650249 4294967295
0 0.97994316 0.29798657 4294967295
0 0.63889134 0.021570776 4294967295
0 0.60216296 0.17608719 4294967295
0 0.97248149 0.015041292 4294967295
0 0.85053951 0.37268826 4294967295
0 0.71478081 0.47753331 4294967295
0 0.68206477 0.11678719 4294967295
0 0.55871886 0.42691013 4294967295
0 0.6371513 0.17971796 4294967295
0 0.86525416 0.096198633 4294967295
0 0.58189029 0.43338454 4294967295
0 0.87965441 0.059420399 4294967295
0 0.97462732 0.10872065 4294967295
0 0.56958508 0.138714 4294967295
0 0.89398551 0.22256978 4294967295
0 0.94521654 0.37392867 4294967295
0 0.52055633 0.084107876 4294967295
0 0.89549947 0.12271928 4294967295
0 0.76019508 0.3679809 4294967295
0 0.63776058 0.11073457 4294967295
0 0.74066913 0.35254139 4294967295
0 0.58826792 0.4227339 4294967295
0 0.96932852 0.14698677 4294967295
0 0.84964406 0.10647985 4294967295
0 0.82670474 0.21489823 4294967295
0 0.7026785 0.40859503 4294967295
0 0.64828277 0.082332857 4294967295
0 0.96801543 0.12291007 4294967295
0 0.69105351 0.037600528 4294967295
0 0.7616241 0.085039034 4294967295
0 0.76017034 0.20684057 4294967295
0 0.95896769 0.28072664 4294967295
0 0.79094845 0.35446712 4294967295
0 0.90344596 0.051143516 4294967295
0 0.72244805 0.041206487 4294967295
0 0.66187811 0.46311721 4294967295
0 0.89374787 0.25014597 4294967295
0 0.88585109 0.36307642 4294967295
0 0.89713275 0.23549514 4294967295
0 0.96955627 0.22383748 4294967295
0 0.95039332 0.17223476 4294967295
0 0.63243252 0.098676115 4294967295
0 0.75456762 0.10044794 4294967295
0 0.72158617 0.44562113 4294967295
0 0.63804847 0.48321027 4294967295
0 0.53066015 0.39821878 4294967295
0 0.69005084 0.48962787 4294967295
0 0.67894542 0.48099929 4294967295
0 0.84409499 0.082391322 4294967295
0 0.53214282 0.066543028 4294967295
0 0.6235978 0.1940209 4294967295
0 0.52966022 0.017345671 4294967295
0 0.9441669 0.41551131 4294967295
0 0.88042212 0.34129962 4294967295
0 0.65100646 0.34997836 4294967295
0 0.56513709 0.10139982 4294967295
0 0.5222131 0.19756961 4294967295
0 0.70007592 0.27678072 4294967295
0 0.7980175 0.42166212 4294967295
0 0.72240186 0.436066 4294967295
0 0.90487242 0.25306201 4294967295
0 0.83428478 0.094923206 4294967295
0 0.74268985 0.013230186 4294967295
0 0.57592249 0.086784855 4294967295
0 0.59562153 0.1080653 4294967295
0 0.65332788 0.21921933 4294967295
0 0.80208623 0.18298811 4294967295
0 0.73656499 0.24625307 4294967295
0 0.59849942 0.11698708 4294967295
0 0.58755267 0.24950589 4294967295
0 0.96696544 0.1526898 4294967295
0 0.85090572 0.48917857 4294967295
0 0.85025942 0.050981633 4294967295
0 0.76595926 0.14827695 4294967295
0 0.97264373 0.48836115 4294967295
0 0.58434296 0.37751612 4294967295
0 0.74142319 0.41862774 4294967295
0 0.97243935 0.48411304 4294967295
0.22282358 0.5 0.43360832 4294967295
0.44038233 0.5 0.083538011 4294967295
0.49642152 0.5 0.18192904 4294967295
0.15181918 0.5 0.11896569 4294967295
0.28216398 0.5 0.24825002 4294967295
0.11089375 0.5 0.2129041 4294967295
0.045892116 0.5 0.16173647 4294967295
0.16764413 0.5 0.38399324 4294967295
0.35255891 0.5 0.29134637 4294967295
0.011864947 0.5 0.28842294 4294967295
0.48413336 0.5 0.020025272 4294967295
0.19477995 0.5 0.072825201 4294967295
0.17032993 0.5 0.41556355 4294967295
0.46879429 0.5 0.29451689 4294967295
0.28509066 0.5 0.29314753 4294967295
0.0067061065 0.5 0.0079142274 4294967295
0.22675586 0.5 0.44708842 4294967295
0.091452241 0.5 0.22317739 4294967295
0.12901747 0.5 0.24327143 4294967295
0.34214309 0.5 0.41118145 4294967295
0.49152145 0.5 0.45303681 4294967295
0.12408554 0.5 0.037413571 4294967295
0.1147733 0.5 0.29172966 4294967295
0.42140681 0.5 0.46733218 4294967295
0.083076052 0.5 0.43327177 4294967295
0.25575513 0.5 0.067209415 4294967295
0.45329705 0.5 0.45053509 4294967295
0.14003462 0.5 0.12362696 4294967295
0.36609864 0.5 0.10882891 4294967295
0.41814384 0.5 0.15118928 4294967295
0.40197644 0.5 0.42484996 4294967295
0.15910351 0.5 0.12873229 4294967295
0.37193838 0.5 0.25055575 4294967295
0.3519097 0.5 0.0009558599 4294967295
0.49382719 0.5 0.19405277 4294967295
0.4121373 0.5 0.48534864 4294967295
0.14708959 0.5 0.036222849 4294967295
0.022762207 0.5 0.2618629 4294967295
0.3279525 0.5 0.44416901 4294967295
0.22919509 0.5 0.41102856 4294967295
0.37744078 0.5 0.48495021 4294967295
0.47823799 0.5 0.33073783 4294967295
0.4354853 0.5 0.1182726 4294967295
0.45436481 0.5 0.30158395 4294967295
0.22710152 0.5 0.37250865 4294967295
0.45277321 0.5 0.12907796 4294967295
0.2973586 0.5 0.11187674 4294967295
0.25781024 0.5 0.16929698 4294967295
0.36243251 0.5 0.10971994 4294967295
0.17025284 0.5 0.35625967 4294967295
0.30377272 0.5 0.082390144 4294967295
0.34160832 0.5 0.45086229 4294967295
0.118613 0.5 0.36437052 4294967295
0.21272519 0.5 0.44656551 4294967295
0.30853954 0.5 0.44192028 4294967295
0.35759407 0.5 0.18598035 4294967295
0.4268705 0.5 0.33583206 4294967295
0.016718177 0.5 0.3623558 4294967295
0.45410466 0.5 0.47108296 4294967295
0.16393973 0.5 0.18120618 4294967295
0.3435916 0.5 0.11671296 4294967295
0.31028414 0.5 0.1409502 4294967295
0.2285897 0.5 0.068094388 4294967295
0.31024718 0.5 0.091022193 4294967295
0.17781432 0.5 0.48050001 4294967295
0.44728187 0.5 0.48158702 4294967295
0.062890165 0.5 0.28889018 4294967295
0.43244934 0.5 0.18150316 4294967295
0.15326072 0.5 0.14517452 4294967295
0.12806867 0.5 0.46180028 4294967295
0.087094784 0.5 0.48566276 4294967295
0.14778063 0.5 0.01396528 4294967295
0.32149482 0.5 0.16449881 4294967295
0.37632108 0.5 0.27559951 4294967295
0.13558176 0.5 0.040260796 4294967295
0.45680568 0.5 0.47917336 4294967295
0.15697375 0.5 0.26708981 4294967295
0.12012358 0.5 0.38556343 4294967295
0.33518422 0.5 0.43037075 4294967295
0.47658566 0.5 0.012998537 4294967295
0.41087076 0.5 0.42386752 4294967295
0.49458557 0.5 0.47376093 4294967295
0.21275772 0.5 0.42703488 4294967295
0.15526409 0.5 0.36601844 4294967295
0.07220941 0.5 0.28333277 4294967295
0.32781872 0.5 0.1593042 4294967295
0.26899552 0.5 0.47559935 4294967295
0.17326948 0.5 0.090490356 4294967295
0.14009814 0.5 0.049590547 4294967295
0.36608985 0.5 0.27567992 4294967295
0.089851342 0.5 0.32289556 4294967295
0.25485328 0.5 0.2468251 4294967295
0.089985371 0.5 0.37497687 4294967295
0.13238855 0.5 0.42516959 4294967295
0.30534762 0.5 0.10897418 4294967295
0.43816811 0.5 0.2162184 4294967295
0.032841705 0.5 0.43275368 4294967295
0.18997933 0.5 0.24559942 4294967295
0.35978857 0.5 0.34524342 4294967295
0.11161787 0.5 0.43199798 4294967295
0.12857619 0.5 0.43943658 4294967295
0.091302186 0.5 0.39757171 4294967295
0.41503593 0.5 0.26457167 4294967295
0.48806208 0.5 0.055134069 4294967295
0.31416222 0.5 0.35415193 4294967295
0.33081397 0.5 0.40401354 4294967295
0.17704748 0.5 0.085667267 4294967295
0.15083864 0.5 0.26703283 4294967295
0.46064413 0.5 0.28322718 4294967295
0.19220242 0.5 0.26599175 4294967295
0.39220136 0.5 0.13037054 4294967295
0.48221013 0.5 0.42504308 4294967295
0.063124225 0.5 0.17218947 4294967295
0.17064251 0.5 0.42291281 4294967295
0.0174329 0.5 0.28226036 4294967295
0.35491079 0.5 0.1460091 4294967295
0.22169696 0.5 0.44621298 4294967295
0.043580819 0.5 0.13673289 4294967295
0.21078464 0.5 0.031642891 4294967295
0.19186695 0.5 0.024946857 4294967295
0.38579482 0.5 0.022680935 4294967295
0.42896041 0.5 0.062842295 4294967295
0.1083482 0.5 0.079799056 4294967295
0.32987514 0.5 0.068992332 4294967295
0.36302626 0.5 0.022077557 4294967295
0.33498409 0.5 0.25522763 4294967295
0.15244809 0.5 0.31719422 4294967295
0.1802707 0.5 0.21557231 4294967295
0.4893837 0.5 0.3509132 4294967295
0.13848512 0.5 0.0068165977 4294967295
0.13317357 0.5 0.49339592 4294967295
0.1528257 0.5 0.35487053 4294967295
0.4396089 0.5 0.19640651 4294967295
0.4916034 0.5 0.15039353 4294967295
0.22804941 0.5 0.18347037 4294967295
0.17534038 0.5 0.11384423 4294967295
0.20615131 0.5 0.1043008 4294967295
0.17668653 0.5 0.3144995 4294967295
0.18409985 0.5 0.0065616607 4294967295
0.38349184 0.5 0.047126107 4294967295
0.028639218 0.5 0.21847591 4294967295
0.30235374 0.5 0.18108732 4294967295
0.035670135 0.5 0.48262441 4294967295
0.39665964 0.5 0.025053833 4294967295
0.33353764 0.5 0.03514475 4294967295
0.031870432 0.5 0.46671119 4294967295
0.02854066 0.5 0.18469612 4294967295
0.32158172 0.5 0.46814954 4294967295
0.38110265 0.5 0.31318516 4294967295
0.11854308 0.5 0.10915205 4294967295
0.49665552 0.5 0.29388347 4294967295
0.22299628 0.5 0.20280683 4294967295
0.39818427 0.5 0.39968279 4294967295
0.017306328 0.5 0.082284138 4294967295
0.40624446 0.5 0.40079817 4294967295
0.12941025 0.5 0.43488368 4294967295
0.11927407 0.5 0.43176398 4294967295
0.11597099 0.5 0.15494421 4294967295
0.41438839 0.5 0.01263062 4294967295
0.17999804 0.5 0.24792603 4294967295
0.047775369 0.5 0.21186848 4294967295
0.21463722 0.5 0.076316029 4294967295
0.3965646 0.5 0.036218956 4294967295
0.044465579 0.5 0.27766722 4294967295
0.3494041 0.5 0.16300866 4294967295
0.38681927 0.5 0.34605962 4294967295
0.45689213 0.5 0.10981556 4294967295
0.048866447 0.5 0.3550764 4294967295
0.0094983578 0.5 0.066172779 4294967295
0.43736055 0.5 0.41574281 4294967295
0.46697095 0.5 0.066770799 4294967295
0.3506265 0.5 0.086245015 4294967295
0.49853477 0.5 0.4665975 4294967295
0.24118923 0.5 0.41292316 4294967295
0.47922811 0.5 0.42118728 4294967295
0.16084918 0.5 0.027003475 4294967295
0.13305575 0.5 0.3754864 4294967295
0.1033195 0.5 0.029620346 4294967295
0.41170537 0.5 0.14778508 4294967295
0.30728757 0.5 0.26110947 4294967295
0.31079376 0.5 0.19410688 4294967295
0.1071691 0.5 0.26768589 4294967295
0.30392241 0.5 0.15603554 4294967295
0.1227623 0.5 0.31342077 4294967295
0.22220832 0.5 0.060122851 4294967295
0.2291636 0.5 0.18917927 4294967295
0.12689365 0.5 0.0797901 4294967295
0.27542427 0.5 0.12542842 4294967295
0.046387587 0.5 0.016613504 4294967295
0.038351584 0.5 0.02561569 4294967295
0.43780077 0.5 0.19920078 4294967295
0.052619163 0.5 0.070856519 4294967295
0.07468719 0.5 0.15593867 4294967295
0.10047686 0.5 0.48639256 4294967295
0.30372375 0.5 0.40776443 4294967295
0.24750204 0.5 0.1145175 4294967295
0.10187132 0.5 0.35467115 4294967295
0.38220337 0.5 0.40579376 4294967295
0.01070669 0.5 0.0049656816 4294967295
0.21921453 0.5 0.23291501 4294967295
0.065088533 0.5 0.44837815 4294967295
0.42209429 0.5 0.19198218 4294967295
0.028168239 0.5 0.19751856 4294967295
0.31741059 0.5 0.074555822 4294967295
0.21413207 0.5 0.35576218 4294967295
0.10017151 0.5 0.15193284 4294967295
0.054962963 0.5 0.15279068 4294967295
0.22278936 0.5 0.12965015 4294967295
0.30872935 0.5 0.32326621 4294967295
0.11604271 0.5 0.1124531 4294967295
0.23103067 0.5 0.36354476 4294967295
0.2269706 0.5 0.33290198 4294967295
0.2182159 0.5 0.10917398 4294967295
0.23869574 0.5 0.22892258 4294967295
0.11413965 0.5 0.45791027 4294967295
0.46183759 0.5 0.17922819 4294967295
0.40628842 0.5 0.38393188 4294967295
0.37121037 0.5 0.43445665 4294967295
0.08145044 0.5 0.18862098 4294967295
0.0090124728 0.5 0.2955825 4294967295
0.044383164 0.5 0.10918399 4294967295
0.44751534 0.5 0.099346124 4294967295
0.26197466 0.5 0.1703047 4294967295
0.22899628 0.5 0.070704013 4294967295
0.49357092 0.5 0.34503898 4294967295
0.18315712 0.5 0.22460158 4294967295
0.20858374 0.5 0.4101277 4294967295
0.057503574 0.5 0.42679963 4294967295
0.019301683 0.5 0.29619932 4294967295
0.15572222 0.5 0.13344134 4294967295
0.25410959 0.5 0.11755982 4294967295
0.31266952 0.5 0.16039799 4294967295
0.0014916977 0.5 0.18387991 4294967295
0.094854638 0.5 0.082942136 4294967295
0.3725009 0.5 0.10386711 4294967295
0.37852463 0.5 0.41688403 4294967295
0.2130511 0.5 0.32604 4294967295
0.016230173 0.5 0.47502577 4294967295
0.49634469 0.5 0.24522646 4294967295
0.045729779 0.5 0.48991561 4294967295
0.090265445 0.5 0.22888689 4294967295
0.21451719 0.5 0.2988492 4294967295
0.1390146 0.5 0.27202076 4294967295
0.22564882 0.5 0.15831628 4294967295
0.068220071 0.5 0.38137105 4294967295
0.29175761 0.5 0.32232964 4294967295
0.49893087 0.5 0.10442715 4294967295
0.48272765 0.5 0.00042255432 4294967295
0.28830704 0.5 0.07758227 4294967295
0.083364695 0.5 0.16080794 4294967295
0.18144938 0.5 0.46188933 4294967295
0.077691987 0.5 0.39450046 4294967295
0.28792933 0.5 0.093922161 4294967295
0.36952624 0.5 0.28427401 4294967295
0.33914861 0.5 0.41525602 4294967295
0.27418962 0.5 0.42941406 4294967295
0.14414291 0.5 0.4887068 4294967295
0.22826324 0.5 0.2831575 4294967295
0.26072755 0.5 0.45391205 4294967295
0.44147378 0.5 0.32894763 4294967295
0.3352831 0.5 0.23323141 4294967295
0.15127729 0.5 0.33421394 4294967295
0.33765855 0.5 0.13400492 4294967295
0.33463651 0.5 0.12596561 4294967295
0.21158719 0.5 0.4180012 4294967295
0.28677353 0.5 0.39303657 4294967295
0.37989053 0.5 0.36446553 4294967295
0.28753704 0.5 0.16781987 4294967295
0.45838767 0.5 0.15706328 4294967295
0.45209387 0.5 0.29753628 4294967295
0.072319292 0.5 0.22628349 4294967295
0.22695035 0.5 0.21646219 4294967295
0.21499029 0.5 0.45521358 4294967295
0.49961969 0.5 0.47571784 4294967295
0.40912566 0.5 0.44109347 4294967295
0.30466551 0.5 0.24440876 4294967295
0.17432489 0.5 0.45594278 4294967295
0.078622706 0.5 0.011983443 4294967295
0.089947693 0.5 0.41325921 4294967295
0.13794905 0.5 0.30153489 4294967295
0.33126041 0.5 0.42472258 4294967295
0.19457145 0.5 0.21115096 4294967295
0.28918812 0.5 0.48210847 4294967295
0.37897083 0.5 0.24757582 4294967295
0.13917176 0.5 0.3310647 4294967295
0.045112111 0.5 0.21149105 4294967295
0.057348203 0.5 0.27206245 4294967295
0.42795324 0.5 0.27233848 4294967295
0.22727606 0.5 0.42757297 4294967295
0.24805635 0.5 0.1364017 4294967295
0.36866644 0.5 0.052721843 4294967295
0.38081044 0.5 0.042991333 4294967295
0.0086646164 0.5 0.45943317 4294967295
0.054974776 0.5 0.098612309 4294967295
0.37269238 0.5 0.19292383 4294967295
0.4001472 0.5 0.2039528 4294967295
0.11764643 0.5 0.094718635 4294967295
0.41510376 0.5 0.40683454 4294967295
0.076827124 0.5 0.29407459 4294967295
0.15441036 0.5 0.21599889 4294967295
0.12513931 0.5 0.19952247 4294967295
0.42748994 0.5 0.18248752 4294967295
0.47158495 0.5 0.35544318 4294967295
0.454826 0.5 0.19886099 4294967295
0.28301615 0.5 0.20288236 4294967295
0.33526269 0.5 0.15168259 4294967295
0.25560421 0.5 0.21607313 4294967295
0.19467391 0.5 0.26426882 4294967295
0.17550629 0.5 0.24964869 4294967295
0.36288112 0.5 0.048198666 4294967295
0.4425725 0.5 0.26302832 4294967295
0.25215146 0.5 0.060218941 4294967295
0.35774696 0.5 0.16725524 4294967295
0.4670535 0.5 0.43457407 4294967295
0.46132982 0.5 0.12146385 4294967295
0.15057296 0.5 0.086469144 4294967295
0.32098633 0.5 0.078062899 4294967295
0.26895666 0.5 0.29257125 4294967295
0.43350607 0.5 0.22378266 4294967295
0.49143225 0.5 0.21652223 4294967295
0.42666501 0.5 0.32669491 4294967295
0.3682048 0.5 0.18226922 4294967295
0.042768046 0.5 0.062878735 4294967295
0.44653803 0.5 0.21827434 4294967295
0.31252742 0.5 0.30941916 4294967295
0.266473 0.5 0.25509995 4294967295
0.072447479 0.5 0.018624468 4294967295
0.31531888 0.5 0.43019444 4294967295
0.18587969 0.5 0.28237239 4294967295
0.36476851 0.5 0.14720953 4294967295
0.40383622 0.5 0.015341464 4294967295
0.23367867 0.5 0.22482255 4294967295
0.09340436 0.5 0.0026353279 4294967295
0.017393799 0.5 0.026910447 4294967295
0.22641799 0.5 0.0088260341 4294967295
0.24343267 0.5 0.15308301 4294967295
0.33552095 0.5 0.1116375 4294967295
0.33535224 0.5 0.37828898 4294967295
0.17451623 0.5 0.28189027 4294967295
0.096563332 0.5 0.48704365 4294967295
0.091309428 0.5 0.36303633 4294967295
0.2421436 0.5 0.16375691 4294967295
0.38166079 0.5 0.05746248 4294967295
0.093951337 0.5 0.067540504 4294967295
0.33983487 0.5 0.45871985 4294967295
0.21475004 0.5 0.24367107 4294967295
0.47406131 0.5 0.44842872 4294967295
0.46849364 0.5 0.06746567 4294967295
0.45106402 0.5 0.48588744 4294967295
0.094376117 0.5 0.17748202 4294967295
0.49471346 0.5 0.33780879 4294967295
0.33056504 0.5 0.33023441 4294967295
0.44944629 0.5 0.16591726 4294967295
0.20852341 0.5 0.12396251 4294967295
0.44780752 0.5 0.30508673 4294967295
0.11100616 0.5 0.039116956 4294967295
0.16812308 0.5 0.35314977 4294967295
0.20287387 0.5 0.049783882 4294967295
0.41061223 0.5 0.2968252 4294967295
0.11732438 0.5 0.25044709 4294967295
0.25554505 0.5 0.33207443 4294967295
0.49411818 0.5 0.22960636 4294967295
0.28050312 0.5 0.46261179 4294967295
0.29707202 0.5 0.23156716 4294967295
0.44849923 0.5 0.39144817 4294967295
0.40904918 0.5 0.44321269 4294967295
0.22925696 0.5 0.23961422 4294967295
0.2734471 0.5 0.17870323 4294967295
0.40553147 0.5 0.48197049 4294967295
0.30266574 0.5 0.35333902 4294967295
0.28705725 0.5 0.41367191 4294967295
0.39245597 0.5 0.45518032 4294967295
0.26682168 0.5 0.095329829 4294967295
0.0049642073 0.5 0.17743392 4294967295
0.39215505 0.5 0.12228859 4294967295
0.427881 0.5 0.14770009 4294967295
0.45436302 0.5 0.42199919 4294967295
0.37730646 0.5 0.23486614 4294967295
0.38461098 0.5 0.1743785 4294967295
0.46643329 0.5 0.33311021 4294967295
0.065826647 0.5 0.37548247 4294967295
0.2763229 0.5 0.29508361 4294967295
0.1150967 0.5 0.04976999 4294967295
0.47378683 0.5 0.020628175 4294967295
0.031740494 0.5 0.2764526 4294967295
0.37396717 0.5 0.31879774 4294967295
0.19012451 0.5 0.26642314 4294967295
0.27397805 0.5 0.45694619 4294967295
0.36175299 0.5 0.27894229 4294967295
0.13438012 0.5 0.25390801 4294967295
0.40123087 0.5 0.062261123 4294967295
0.40160811 0.5 0.35559389 4294967295
0.48426032 0.5 0.27891457 4294967295
0.090460017 0.5 0.3688713 4294967295
0.45329306 0.5 0.056893311 4294967295
0.20198151 0.5 0.019119704 4294967295
0.43237579 0.5 0.47830442 4294967295
0.31420329 0.5 0.047472484 4294967295
0.0280744 0.5 0.28799015 4294967295
0.068100661 0.5 0.059814893 4294967295
0.064442739 0.5 0.44206783 4294967295
0.37861264 0.5 0.25456727 4294967295
0.208491 0.5 0.15259069 4294967295
0.21151344 0.5 0.07024397 4294967295
0.43153298 0.5 0.34589356 4294967295
0.32415199 0.5 0.33276385 4294967295
0.4081547 0.5 0.2257601 4294967295
0.18835771 0.5 0.39241499 4294967295
0.0046746591 0.5 0.27881771 4294967295
0.26128629 0.5 0.45796773 4294967295
0.33571103 0.5 0.4632678 4294967295
0.47708741 0.5 0.26808682 4294967295
0.44157222 0.5 0.29129073 4294967295
0.31555933 0.5 0.4696466 4294967295
0.079280868 0.5 0.38365999 4294967295
0.029461503 0.5 0.14372361 4294967295
0.32572782 0.5 0.40807414 4294967295
0.39829087 0.5 0.034218807 4294967295
0.060664836 0.5 0.10980432 4294967295
0.10446278 0.5 0.49219781 4294967295
0.45569786 0.5 0.42861477 4294967295
0.32496163 0.5 0.36385256 4294967295
0.15437485 0.5 0.013319359 4294967295
0.25626755 0.5 0.15904953 4294967295
0.29213709 0.5 0.01755384 4294967295
0.11701723 0.5 0.12784812 4294967295
0.48082164 0.5 0.094104655 4294967295
0.39593494 0.5 0.42239386 4294967295
0.38539538 0.5 0.21149427 4294967295
0.39204046 0.5 0.46467623 4294967295
0.095154241 0.5 0.42150196 4294967295
0.10839985 0.5 0.42088205 4294967295
0.3295761 0.5 0.0066907229 4294967295
0.45510086 0.5 0.39024094 4294967295
0.11649504 0.5 0.059563644 4294967295
0.38243875 0.5 0.072192915 4294967295
0.4881784 0.5 0.2074004 4294967295
0.43604547 0.5 0.14255327 4294967295
0.22071975 0.5 0.19231302 4294967295
0.30160278 0.5 0.012856836 4294967295
0.20986687 0.5 0.41862002 4294967295
0.14070496 0.5 0.19068851 4294967295
0.012724672 0.5 0.036639914 4294967295
0.11308235 0.5 0.39812005 4294967295
0.24813418 0.5 0.0051228087 4294967295
0.36279631 0.5 0.34328842 4294967295
0.42662477 0.5 0.47119614 4294967295
0.26417047 0.5 0.25620088 4294967295
0.47788689 0.5 0.21927135 4294967295
0.1464418 0.5 0.094381914 4294967295
0.278835 0.5 0.02888055 4294967295
0.16657482 0.5 0.2670134 4294967295
0.23628095 0.5 0.1026203 4294967295
0.40956667 0.5 0.4570007 4294967295
0.29493332 0.5 0.21116945 4294967295
0.46985751 0.5 0.0048001753 4294967295
0.12978947 0.5 0.11056249 4294967295
0.19548868 0.5 0.14251414 4294967295
0.1472024 0.5 0.30857104 4294967295
0.040634196 0.5 0.3953366 4294967295
0.31369382 0.5 0.40343049 4294967295
0.238625 0.5 0.24031861 4294967295
0.37462664 0.5 0.00279549 4294967295
0.49651948 0.5 0.35251352 4294967295
0.22206683 0.5 0.14296128 4294967295
0.44689542 0.5 0.00090182759 4294967295
0.17184183 0.5 0.11347024 4294967295
0.26791522 0.5 0.40812278 4294967295
0.21609055 0.5 0.17748189 4294967295
0.36512345 0.5 0.011023854 4294967295
0.38865134 0.5 0.33498099 4294967295
0.015824029 0.5 0.01844082 4294967295
0.44554347 0.5 0.21131271 4294967295
0.16095497 0.5 0.092745878 4294967295
0.019883733 0.5 0.20158917 4294967295
0.48808247 0.5 0.33357757 4294967295
0.10501965 0.5 0.22670747 4294967295
0.07389617 0.5 0.4796463 4294967295
0.22950296 0.5 0.070415646 4294967295
0.33215979 0.5 0.4515698 4294967295
0.21337692 0.5 0.27905521 4294967295
0.45247164 0.5 0.38521877 4294967295
0.39252546 0.5 0.22038686 4294967295
0.29334152 0.5 0.10861599 4294967295
0.39786875 0.5 0.15846498 4294967295
0.11963984 0.5 0.28652009 4294967295
0.49344596 0.5 0.13546388 4294967295
0.30496091 0.5 0.43898946 4294967295
0.34677657 0.5 0.46591589 4294967295
0.031735335 0.5 0.36666033 4294967295
0.16750504 0.5 0.019817799 4294967295
0.20023789 0.5 0.27252468 4294967295
0.24652527 0.5 0.27413407 4294967295
0.25217098 0.5 0.47602823 4294967295
0.34454972 0.5 0.084330775 4294967295
0.42759803 0.5 0.057926629 4294967295
0.36338598 0.5 0.38006967 4294967295
0.44314539 0.5 0.25591144 4294967295
0.10045653 0.5 0.23648691 4294967295
0.36452743 0.5 0.49832529 4294967295
0.39495191 0.5 0.48416728 4294967295
0.28484538 0.5 0.38839787 4294967295
0.11963116 0.5 0.089806288 4294967295
0.32738733 0.5 0.46640775 4294967295
0.05572217 0.5 0.35912266 4294967295
0.33306807 0.5 0.22322722 4294967295
0.37894046 0.5 0.033305943 4294967295
0.49575192 0.5 0.12546574 4294967295
0.30744001 0.5 0.2479229 4294967295
0.10149397 0.5 0.1519897 4294967295
0.33225366 0.5 0.029092012 4294967295
0.20991632 0.5 0.19563965 4294967295
0.40916169 0.5 0.15306172 4294967295
0.45155111 0.5 0.0096182087 4294967295
0.38954863 0.5 0.31607854 4294967295
0.0079434831 0.5 0.28450054 4294967295
0.30024582 0.5 0.29278886 4294967295
0.1728984 0.5 0.41987699 4294967295
0.38259515 0.5 0.00028572767 4294967295
0.38628474 0.5 0.4383173 4294967295
0.35940838 0.5 0.2193528 4294967295
0.16154452 0.5 0.23834884 4294967295
0.25265872 0.5 0.15729643 4294967295
0.36381459 0.5 0.060098734 4294967295
0.40521932 0.5 0.46530855 4294967295
0.21208844 0.5 0.237473 4294967295
0.49440056 0.5 0.42200476 4294967295
0.43311265 0.5 0.40356225 4294967295
0.075066477 0.5 0.38466376 4294967295
0.41318047 0.5 0.46461511 4294967295
0.2007423 0.5 0.42112395 4294967295
0.24911563 0.5 0.00098813442 4294967295
0.2139128 0.5 0.42201403 4294967295
0.42086512 0.5 0.096507929 4294967295
0.42229977 0.5 0.30714986 4294967295
0.034825239 0.5 0.28170815 4294967295
0.026502647 0.5 0.19636977 4294967295
0.020056996 0.5 0.27916139 4294967295
0.35366619 0.5 0.38387159 4294967295
0.33926013 0.5 0.25888553 4294967295
0.34918013 0.5 0.051348556 4294967295
0.49635851 0.5 0.34358069 4294967295
0.47335333 0.5 0.42947119 4294967295
0.24714294 0.5 0.0484198 4294967295
0.31413496 0.5 0.1603234 4294967295
0.013034906 0.5 0.014877264 4294967295
0.081447341 0.5 0.26215053 4294967295
0.015865399 0.5 0.29536015 4294967295
0.18416457 0.5 0.43673053 4294967295
0.39186805 0.5 0.10646433 4294967295
0.24388038 0.5 0.42669332 4294967295
0.38817248 0.5 0.27038303 4294967295
0.12306307 0.5 0.40822947 4294967295
0.049544409 0.5 0.47672927 4294967295
0.29210106 0.5 0.38880453 4294967295
0.23561479 0.5 0.14128117 4294967295
0.44015309 0.5 0.23197332 4294967295
0.48486188 0.5 0.41350639 4294967295
0.16144451 0.5 0.23200482 4294967295
0.46192619 0.5 0.47557947 4294967295
0.39232823 0.5 0.4749611 4294967295
0.49045673 0.5 0.47377557 4294967295
0.23711164 0.5 0.0063221315 4294967295
0.26913571 0.5 0.42127621 4294967295
0.44305265 0.5 0.16100377 4294967295
0.02774054 0.5 0.18693303 4294967295
0.087697081 0.5 0.41591302 4294967295
0.45731604 0.5 0.21076015 4294967295
0.32414249 0.5 0.0068604602 4294967295
0.18748942 0.5 0.11624353 4294967295
0.39566499 0.5 0.42310423 4294967295
0.2575247 0.5 0.33581805 4294967295
0.15507753 0.5 0.24238658 4294967295
0.24932447 0.5 0.31652203 4294967295
0.4743914 0.5 0.21125066 4294967295
0.2921015 0.5 0.36671963 4294967295
0.18621178 0.5 0.28255823 4294967295
0.3404952 0.5 0.42332342 4294967295
0.28888038 0.5 0.10963091 4294967295
0.34459963 0.5 0.23193303 4294967295
0.27063468 0.5 0.37234017 4294967295
0.41886607 0.5 0.35833177 4294967295
0.28825319 0.5 0.37618211 4294967295
0.069091916 0.5 0.11239567 4294967295
0.38304257 0.5 0.25658134 4294967295
0.2286392 0.5 0.27870756 4294967295
0.17968555 0.5 0.48616391 4294967295
0.11452562 0.5 0.33476308 4294967295
0.22855049 0.5 0.36385009 4294967295
0.15128513 0.5 0.20294191 4294967295
0.075100757 0.5 0.44338664 4294967295
0.069661543 0.5 0.26131251 4294967295
0.22594488 0.5 0.41015676 4294967295
0.18463595 0.5 0.014825258 4294967295
0.019787652 0.5 0.029235577 4294967295
0.24675828 0.5 0.29042232 4294967295
0.40157574 0.5 0.16562435 4294967295
0.14875409 0.5 0.18982893 4294967295
0.041806459 0.5 0.21784601 4294967295
0.30222461 0.5 0.42484903 4294967295
0.47442734 0.5 0.030863805 4294967295
0.20355658 0.5 0.15411289 4294967295
0.017027715 0.5 0.31808221 4294967295
0.48887596 0.5 0.24557821 4294967295
0.1819323 0.5 0.14016108 4294967295
0.44852012 0.5 0.25703305 4294967295
0.083547719 0.5 0.018181661 4294967295
0.01834558 0.5 0.30949259 4294967295
0.42833841 0.5 0.20298153 4294967295
0.32431787 0.5 0.44812605 4294967295
0.2322171 0.5 0.071076147 4294967295
0.23854838 0.5 0.13379285 4294967295
0.23670049 0.5 0.38730249 4294967295
0.32362178 0.5 0.27850696 4294967295
0.10514849 0.5 0.12584639 4294967295
0.20335598 0.5 0.079575837 4294967295
0.15671019 0.5 0.40691257 4294967295
0.23368871 0.5 0.17373791 4294967295
0.22499478 0.5 0.22256468 4294967295
0.41931611 0.5 0.40692708 4294967295
0.36272576 0.5 0.36783624 4294967295
0.16396013 0.5 0.44627348 4294967295
0.38601789 0.5 0.18230571 4294967295
0.25576609 0.5 0.3143563 4294967295
0.38528723 0.5 0.080083936 4294967295
0.26248237 0.5 0.11750434 4294967295
0.15116009 0.5 0.001030755 4294967295
0.25129718 0.5 0.38786057 4294967295
0.38833323 0.5 0.07491897 4294967295
0.16636753 0.5 0.49348173 4294967295
0.20076536 0.5 0.3697235 4294967295
0.07305757 0.5 0.35747555 4294967295
0.27663606 0.5 0.3067463 4294967295
0.031213457 0.5 0.0016308506 4294967295
0.029310971 0.5 0.45052958 4294967295
0.40855792 0.5 0.39203674 4294967295
0.31836581 0.5 0.072518051 4294967295
0.33831021 0.5 0.20438372 4294967295
0.25482374 0.5 0.094076298 4294967295
0.018740028 0.5 0.14011098 4294967295
0.17416024 0.5 0.2812224 4294967295
0.25761533 0.5 0.32532033 4294967295
0.28225315 0.5 0.0089125074 4294967295
0.2131809 0.5 0.17058639 4294967295
0.083831474 0.5 0.37954843 4294967295
0.16406813 0.5 0.28459683 4294967295
0.24927193 0.5 0.23712569 4294967295
0.14207238 0.5 0.025908012 4294967295
0.043871991 0.5 0.17328584 4294967295
0.027538862 0.5 0.073182963 4294967295
0.12381542 0.5 0.43609679 4294967295
0.46521971 0.5 0.44218123 4294967295
0.0086148363 0.5 0.30352992 4294967295
0.14656496 0.5 0.26343858 4294967295
0.39760622 0.5 0.16530499 4294967295
0.40354958 0.5 0.071766451 4294967295
0.44652739 0.5 0.16116489 4294967295
0.39708677 0.5 0.22878052 4294967295
0.17007741 0.5 0.11026767 4294967295
0.39936692 0.5 0.25390887 4294967295
0.4898161 0.5 0.06343504 4294967295
0.038505718 0.5 0.23908803 4294967295
0.30056074 0.5 0.1805781 4294967295
0.26499605 0.5 0.34443274 4294967295
0.35386395 0.5 0.29253492 4294967295
0.41761568 0.5 0.47767937 4294967295
0.22863169 0.5 0.38283539 4294967295
0.4198606 0.5 0.23724653 4294967295
0.18636531 0.5 0.066425562 4294967295
0.00068512256 0.5 0.083971515 4294967295
0.23173055 0.5 0.40423471 4294967295
0.15573797 0.5 0.17825793 4294967295
0.065399602 0.5 0.052824732 4294967295
0.40703845 0.5 0.23547702 4294967295
0.1630924 0.5 0.30640537 4294967295
0.4893859 0.5 0.1529085 4294967295
0.36984041 0.5 0.027891615 4294967295
0.39199653 0.5 0.17040116 4294967295
0.20846972 0.5 0.15699258 4294967295
0.014833884 0.5 0.062333666 4294967295
0.4495275 0.5 0.43244958 4294967295
0.04001303 0.5 0.17815918 4294967295
0.31528497 0.5 0.45987365 4294967295
0.41540572 0.5 0.0016502668 4294967295
0.026299192 0.5 0.41609085 4294967295
0.085621782 0.5 0.25802973 4294967295
0.32032555 0.5 0.24135974 4294967295
0.43628767 0.5 0.38572514 4294967295
0.29418448 0.5 0.34332612 4294967295
0.12120216 0.5 0.45727688 4294967295
0.14973149 0.5 0.11058805 4294967295
0.11018537 0.5 0.0195719 4294967295
0.13847966 0.5 0.0021819065 4294967295
0.18997306 0.5 0.3469494 4294967295
0.15917449 0.5 0.20480694 4294967295
0.40928304 0.5 0.10870197 4294967295
0.13725652 0.5 0.44929609 4294967295
0.28686115 0.5 0.45254147 4294967295
0.4091697 0.5 0.20226687 4294967295
0.45419174 0.5 0.43546891 4294967295
0.11835771 0.5 0.039813526 4294967295
0.19349864 0.5 0.43868324 4294967295
0.28117326 0.5 0.12978631 4294967295
0.32440838 0.5 0.075357735 4294967295
0.47311243 0.5 0.44561055 4294967295
0.032634608 0.5 0.12284391 4294967295
0.056198593 0.5 0.14281999 4294967295
0.14241582 0.5 0.19467826 4294967295
0.14500189 0.5 0.33238888 4294967295
0.041627642 0.5 0.30417636 4294967295
0.037195809 0.5 0.45091069 4294967295
0.41287836 0.5 0.17445232 4294967295
0.40020677 0.5 0.19973952 4294967295
0.12699381 0.5 0.30937648 4294967295
0.40200639 0.5 0.081185557 4294967295
0.24484541 0.5 0.020364096 4294967295
0.12099908 0.5 0.43834403 4294967295
0.45904735 0.5 0.40217236 4294967295
0.068130352 0.5 0.28345573 4294967295
0.47753009 0.5 0.041242775 4294967295
0.22906628 0.5 0.010164698 4294967295
0.16408668 0.5 0.28526488 4294967295
0.15298468 0.5 0.30650249 4294967295
0.47994313 0.5 0.29798657 4294967295
0.13889137 0.5 0.021570776 4294967295
0.10216294 0.5 0.17608719 4294967295
0.47248146 0.5 0.015041292 4294967295
0.35053951 0.5 0.37268826 4294967295
0.21478081 0.5 0.47753331 4294967295
0.18206474 0.5 0.11678719 4294967295
0.058718875 0.5 0.42691013 4294967295
0.13715129 0.5 0.17971796 4294967295
0.36525419 0.5 0.096198633 4294967295
0.081890307 0.5 0.43338454 4294967295
0.37965438 0.5 0.059420399 4294967295
0.47462732 0.5 0.10872065 4294967295
0.069585092 0.5 0.138714 4294967295
0.39398554 0.5 0.22256978 4294967295
0.44521651 0.5 0.37392867 4294967295
0.020556338 0.5 0.084107876 4294967295
0.39549944 0.5 0.12271928 4294967295
0.26019508 0.5 0.3679809 4294967295
0.13776056 0.5 0.11073457 4294967295
0.24066916 0.5 0.35254139 4294967295
0.088267893 0.5 0.4227339 4294967295
0.46932855 0.5 0.14698677 4294967295
0.34964404 0.5 0.10647985 4294967295
0.32670471 0.5 0.21489823 4294967295
0.20267849 0.5 0.40859503 4294967295
0.14828275 0.5 0.082332857 4294967295
0.46801543 0.5 0.12291007 4294967295
0.19105351 0.5 0.037600528 4294967295
0.26162407 0.5 0.085039034 4294967295
0.26017031 0.5 0.20684057 4294967295
0.45896769 0.5 0.28072664 4294967295
0.29094845 0.5 0.35446712 4294967295
0.40344593 0.5 0.051143516 4294967295
0.22244804 0.5 0.041206487 4294967295
0.16187809 0.5 0.46311721 4294967295
0.39374787 0.5 0.25014597 4294967295
0.38585109 0.5 0.36307642 4294967295
0.39713275 0.5 0.23549514 4294967295
0.46955627 0.5 0.22383748 4294967295
0.45039335 0.5 0.17223476 4294967295
0.13243251 0.5 0.098676115 4294967295
0.25456762 0.5 0.10044794 4294967295
0.22158618 0.5 0.44562113 4294967295
0.13804847 0.5 0.48321027 4294967295
0.030660158 0.5 0.39821878 4294967295
0.19005083 0.5 0.48962787 4294967295
0.17894541 0.5 0.48099929 4294967295
0.34409499 0.5 0.082391322 4294967295
0.032142803 0.5 0.066543028 4294967295
0.12359781 0.5 0.1940209 4294967295
0.029660225 0.5 0.017345671 4294967295
0.44416687 0.5 0.41551131 4294967295
0.38042209 0.5 0.34129962 4294967295
0.15100646 0.5 0.34997836 4294967295
0.065137103 0.5 0.10139982 4294967295
0.022213122 0.5 0.19756961 4294967295
0.20007594 0.5 0.27678072 4294967295
0.29801753 0.5 0.42166212 4294967295
0.22240186 0.5 0.436066 4294967295
0.40487239 0.5 0.25306201 4294967295
0.33428478 0.5 0.094923206 4294967295
0.24268986 0.5 0.013230186 4294967295
0.075922497 0.5 0.086784855 4294967295
0.095621511 0.5 0.1080653 4294967295
0.15332788 0.5 0.21921933 4294967295
0.3020862 0.5 0.18298811 4294967295
0.23656499 0.5 0.24625307 4294967295
0.098499432 0.5 0.11698708 4294967295
0.087552696 0.5 0.24950589 4294967295
0.46696544 0.5 0.1526898 4294967295
0.35090572 0.5 0.48917857 4294967295
0.35025939 0.5 0.050981633 4294967295
0.26595929 0.5 0.14827695 4294967295
0.47264376 0.5 0.48836115 4294967295
0.084342964 0.5 0.37751612 4294967295
0.24142317 0.5 0.41862774 4294967295
0.47243935 0.5 0.48411304 4294967295
0.22282358 0.93360829 0 4294967295
0.44038233 0.583538 0 4294967295
0.49642152 0.68192905 0 4294967295
0.15181918 0.61896569 0 4294967295
0.28216398 0.74825001 0 4294967295
0.11089375 0.7129041 0 4294967295
0.045892116 0.66173649 0 4294967295
0.16764413 0.88399327 0 4294967295
0.35255891 0.79134637 0 4294967295
0.011864947 0.78842294 0 4294967295
0.48413336 0.52002525 0 4294967295
0.19477995 0.57282519 0 4294967295
0.17032993 0.91556358 0 4294967295
0.46879429 0.79451692 0 4294967295
0.28509066 0.79314756 0 4294967295
0.0067061065 0.50791425 0 4294967295
0.22675586 0.94708842 0 4294967295
0.091452241 0.72317737 0 4294967295
0.12901747 0.74327141 0 4294967295
0.34214309 0.91118145 0 4294967295
0.49152145 0.95303679 0 4294967295
0.12408554 0.5374136 0 4294967295
0.1147733 0.79172969 0 4294967295
0.42140681 0.96733218 0 4294967295
0.083076052 0.93327177 0 4294967295
0.25575513 0.56720942 0 4294967295
0.45329705 0.95053506 0 4294967295
0.14003462 0.62362695 0 4294967295
0.36609864 0.6088289 0 4294967295
0.41814384 0.65118927 0 4294967295
0.40197644 0.92484999 0 4294967295
0.15910351 0.62873232 0 4294967295
0.37193838 0.75055575 0 4294967295
0.3519097 0.50095588 0 4294967295
0.49382719 0.69405276 0 4294967295
0.4121373 0.98534864 0 4294967295
0.14708959 0.53622288 0 4294967295
0.022762207 0.76186287 0 4294967295
0.3279525 0.94416904 0 4294967295
0.22919509 0.91102856 0 4294967295
0.37744078 0.98495018 0 4294967295
0.47823799 0.83073783 0 4294967295
0.4354853 0.6182726 0 4294967295
0.45436481 0.80158395 0 4294967295
0.22710152 0.87250865 0 4294967295
0.45277321 0.62907797 0 4294967295
0.2973586 0.61187673 0 4294967295
0.25781024 0.66929698 0 4294967295
0.36243251 0.60971993 0 4294967295
0.17025284 0.8562597 0 4294967295
0.30377272 0.58239013 0 4294967295
0.34160832 0.95086229 0 4294967295
0.118613 0.86437052 0 4294967295
0.21272519 0.94656551 0 4294967295
0.30853954 0.94192028 0 4294967295
0.35759407 0.68598032 0 4294967295
0.4268705 0.83583206 0 4294967295
0.016718177 0.86235583 0 4294967295
0.45410466 0.97108293 0 4294967295
0.16393973 0.68120617 0 4294967295
0.3435916 0.61671293 0 4294967295
0.31028414 0.6409502 0 4294967295
0.2285897 0.56809437 0 4294967295
0.31024718 0.59102219 0 4294967295
0.17781432 0.98049998 0 4294967295
0.44728187 0.98158705 0 4294967295
0.062890165 0.78889018 0 4294967295
0.43244934 0.68150318 0 4294967295
0.15326072 0.6451745 0 4294967295
0.12806867 0.96180028 0 4294967295
0.087094784 0.98566276 0 4294967295
0.14778063 0.51396531 0 4294967295
0.32149482 0.66449881 0 4294967295
0.37632108 0.77559948 0 4294967295
0.13558176 0.54026079 0 4294967295
0.45680568 0.97917336 0 4294967295
0.15697375 0.76708984 0 4294967295
0.12012358 0.88556343 0 4294967295
0.33518422 0.93037075 0 4294967295
0.47658566 0.51299852 0 4294967295
0.41087076 0.92386752 0 4294967295
0.49458557 0.97376096 0 4294967295
0.21275772 0.92703485 0 4294967295
0.15526409 0.86601841 0 4294967295
0.07220941 0.78333277 0 4294967295
0.32781872 0.6593042 0 4294967295
0.26899552 0.97559935 0 4294967295
0.17326948 0.59049034 0 4294967295
0.14009814 0.54959053 0 4294967295
0.36608985 0.77567995 0 4294967295
0.089851342 0.82289553 0 4294967295
0.25485328 0.7468251 0 4294967295
0.089985371 0.87497687 0 4294967295
0.13238855 0.92516959 0 4294967295
0.30534762 0.60897416 0 4294967295
0.43816811 0.71621841 0 4294967295
0.032841705 0.93275368 0 4294967295
0.18997933 0.74559939 0 4294967295
0.35978857 0.84524345 0 4294967295
0.11161787 0.93199801 0 4294967295
0.12857619 0.93943655 0 4294967295
0.091302186 0.89757168 0 4294967295
0.41503593 0.76457167 0 4294967295
0.48806208 0.55513406 0 4294967295
0.31416222 0.85415196 0 4294967295
0.33081397 0.90401351 0 4294967295
0.17704748 0.58566725 0 4294967295
0.15083864 0.76703286 0 4294967295
0.46064413 0.78322721 0 4294967295
0.19220242 0.76599175 0 4294967295
0.39220136 0.63037056 0 4294967295
0.48221013 0.92504311 0 4294967295
0.063124225 0.67218947 0 4294967295
0.17064251 0.92291284 0 4294967295
0.0174329 0.78226036 0 4294967295
0.35491079 0.64600909 0 4294967295
0.22169696 0.94621301 0 4294967295
0.043580819 0.63673288 0 4294967295
0.21078464 0.53164291 0 4294967295
0.19186695 0.52494687 0 4294967295
0.38579482 0.52268094 0 4294967295
0.42896041 0.56284231 0 4294967295
0.1083482 0.57979906 0 4294967295
0.32987514 0.56899232 0 4294967295
0.36302626 0.52207756 0 4294967295
0.33498409 0.75522763 0 4294967295
0.15244809 0.81719422 0 4294967295
0.1802707 0.7155723 0 4294967295
0.4893837 0.85091317 0 4294967295
0.13848512 0.50681663 0 4294967295
0.13317357 0.99339592 0 4294967295
0.1528257 0.85487056 0 4294967295
0.4396089 0.69640648 0 4294967295
0.4916034 0.65039355 0 4294967295
0.22804941 0.68347037 0 4294967295
0.17534038 0.61384422 0 4294967295
0.20615131 0.6043008 0 4294967295
0.17668653 0.8144995 0 4294967295
0.18409985 0.50656164 0 4294967295
0.38349184 0.54712611 0 4294967295
0.028639218 0.71847594 0 4294967295
0.30235374 0.68108732 0 4294967295
0.035670135 0.98262441 0 4294967295
0.39665964 0.52505386 0 4294967295
0.33353764 0.53514475 0 4294967295
0.031870432 0.96671116 0 4294967295
0.02854066 0.68469614 0 4294967295
0.32158172 0.96814954 0 4294967295
0.38110265 0.81318516 0 4294967295
0.11854308 0.60915208 0 4294967295
0.49665552 0.79388344 0 4294967295
0.22299628 0.70280683 0 4294967295
0.39818427 0.89968276 0 4294967295
0.017306328 0.58228415 0 4294967295
0.40624446 0.9007982 0 4294967295
0.12941025 0.93488371 0 4294967295
0.11927407 0.93176401 0 4294967295
0.11597099 0.65494418 0 4294967295
0.41438839 0.51263064 0 4294967295
0.17999804 0.747926 0 4294967295
0.047775369 0.71186846 0 4294967295
0.21463722 0.576316 0 4294967295
0.3965646 0.53621894 0 4294967295
0.044465579 0.77766722 0 4294967295
0.3494041 0.66300869 0 4294967295
0.38681927 0.84605962 0 4294967295
0.45689213 0.60981554 0 4294967295
0.048866447 0.85507643 0 4294967295
0.0094983578 0.56617278 0 4294967295
0.43736055 0.91574281 0 4294967295
0.46697095 0.56677079 0 4294967295
0.3506265 0.586245 0 4294967295
0.49853477 0.9665975 0 4294967295
0.24118923 0.91292316 0 4294967295
0.47922811 0.92118728 0 4294967295
0.16084918 0.52700347 0 4294967295
0.13305575 0.87548637 0 4294967295
0.1033195 0.52962035 0 4294967295
0.41170537 0.64778507 0 4294967295
0.30728757 0.76110947 0 4294967295
0.31079376 0.69410688 0 4294967295
0.1071691 0.76768589 0 4294967295
0.30392241 0.65603554 0 4294967295
0.1227623 0.81342077 0 4294967295
0.22220832 0.56012285 0 4294967295
0.2291636 0.6891793 0 4294967295
0.12689365 0.57979012 0 4294967295
0.27542427 0.62542844 0 4294967295
0.046387587 0.51661348 0 4294967295
0.038351584 0.52561569 0 4294967295
0.43780077 0.69920075 0 4294967295
0.052619163 0.57085651 0 4294967295
0.07468719 0.65593868 0 4294967295
0.10047686 0.98639256 0 4294967295
0.30372375 0.90776443 0 4294967295
0.24750204 0.61451751 0 4294967295
0.10187132 0.85467112 0 4294967295
0.38220337 0.90579379 0 4294967295
0.01070669 0.50496566 0 4294967295
0.21921453 0.73291504 0 4294967295
0.065088533 0.94837815 0 4294967295
0.42209429 0.69198215 0 4294967295
0.028168239 0.69751859 0 4294967295
0.31741059 0.57455581 0 4294967295
0.21413207 0.85576218 0 4294967295
0.10017151 0.65193284 0 4294967295
0.054962963 0.65279067 0 4294967295
0.22278936 0.62965012 0 4294967295
0.30872935 0.82326621 0 4294967295
0.11604271 0.6124531 0 4294967295
0.23103067 0.86354476 0 4294967295
0.2269706 0.83290195 0 4294967295
0.2182159 0.60917395 0 4294967295
0.23869574 0.72892261 0 4294967295
0.11413965 0.9579103 0 4294967295
0.46183759 0.67922819 0 4294967295
0.40628842 0.88393188 0 4294967295
0.37121037 0.93445665 0 4294967295
0.08145044 0.68862098 0 4294967295
0.0090124728 0.79558253 0 4294967295
0.044383164 0.60918397 0 4294967295
0.44751534 0.5993461 0 4294967295
0.26197466 0.67030472 0 4294967295
0.22899628 0.57070398 0 4294967295
0.49357092 0.84503901 0 4294967295
0.18315712 0.72460157 0 4294967295
0.20858374 0.9101277 0 4294967295
0.057503574 0.92679965 0 4294967295
0.019301683 0.79619932 0 4294967295
0.15572222 0.63344133 0 4294967295
0.25410959 0.61755979 0 4294967295
0.31266952 0.66039801 0 4294967295
0.0014916977 0.68387991 0 4294967295
0.094854638 0.58294213 0 4294967295
0.3725009 0.60386711 0 4294967295
0.37852463 0.91688406 0 4294967295
0.2130511 0.82604003 0 4294967295
0.016230173 0.97502577 0 4294967295
0.49634469 0.74522644 0 4294967295
0.045729779 0.98991561 0 4294967295
0.090265445 0.7288869 0 4294967295
0.21451719 0.79884923 0 4294967295
0.1390146 0.77202076 0 4294967295
0.22564882 0.65831625 0 4294967295
0.068220071 0.88137102 0 4294967295
0.29175761 0.82232964 0 4294967295
0.49893087 0.60442716 0 4294967295
0.48272765 0.50042254 0 4294967295
0.28830704 0.57758224 0 4294967295
0.083364695 0.66080797 0 4294967295
0.18144938 0.96188933 0 4294967295
0.077691987 0.89450049 0 4294967295
0.28792933 0.59392214 0 4294967295
0.36952624 0.78427398 0 4294967295
0.33914861 0.91525602 0 4294967295
0.27418962 0.92941403 0 4294967295
0.14414291 0.98870683 0 4294967295
0.22826324 0.78315747 0 4294967295
0.26072755 0.95391202 0 4294967295
0.44147378 0.82894766 0 4294967295
0.3352831 0.73323143 0 4294967295
0.15127729 0.83421397 0 4294967295
0.33765855 0.63400495 0 4294967295
0.33463651 0.6259656 0 4294967295
0.21158719 0.91800117 0 4294967295
0.28677353 0.8930366 0 4294967295
0.37989053 0.86446553 0 4294967295
0.28753704 0.66781986 0 4294967295
0.45838767 0.65706325 0 4294967295
0.45209387 0.79753625 0 4294967295
0.072319292 0.72628349 0 4294967295
0.22695035 0.71646219 0 4294967295
0.21499029 0.95521355 0 4294967295
0.49961969 0.97571784 0 4294967295
0.40912566 0.94109344 0 4294967295
0.30466551 0.74440873 0 4294967295
0.17432489 0.95594275 0 4294967295
0.078622706 0.51198345 0 4294967295
0.089947693 0.91325921 0 4294967295
0.13794905 0.80153489 0 4294967295
0.33126041 0.92472255 0 4294967295
0.19457145 0.71115094 0 4294967295
0.28918812 0.98210847 0 4294967295
0.37897083 0.74757582 0 4294967295
0.13917176 0.8310647 0 4294967295
0.045112111 0.71149105 0 4294967295
0.057348203 0.77206242 0 4294967295
0.42795324 0.77233851 0 4294967295
0.22727606 0.92757297 0 4294967295
0.24805635 0.63640171 0 4294967295
0.36866644 0.55272186 0 4294967295
0.38081044 0.54299134 0 4294967295
0.0086646164 0.9594332 0 4294967295
0.054974776 0.59861231 0 4294967295
0.37269238 0.69292384 0 4294967295
0.4001472 0.70395279 0 4294967295
0.11764643 0.59471864 0 4294967295
0.41510376 0.90683454 0 4294967295
0.076827124 0.79407459 0 4294967295
0.15441036 0.71599889 0 4294967295
0.12513931 0.6995225 0 4294967295
0.42748994 0.68248749 0 4294967295
0.47158495 0.85544318 0 4294967295
0.454826 0.698861 0 4294967295
0.28301615 0.70288235 0 4294967295
0.33526269 0.65168262 0 4294967295
0.25560421 0.71607316 0 4294967295
0.19467391 0.76426882 0 4294967295
0.17550629 0.74964869 0 4294967295
0.36288112 0.54819864 0 4294967295
0.4425725 0.76302832 0 4294967295
0.25215146 0.56021893 0 4294967295
0.35774696 0.66725522 0 4294967295
0.4670535 0.93457407 0 4294967295
0.46132982 0.62146384 0 4294967295
0.15057296 0.58646917 0 4294967295
0.32098633 0.57806289 0 4294967295
0.26895666 0.79257125 0 4294967295
0.43350607 0.72378266 0 4294967295
0.49143225 0.71652222 0 4294967295
0.42666501 0.82669491 0 4294967295
0.3682048 0.68226922 0 4294967295
0.042768046 0.56287873 0 4294967295
0.44653803 0.71827435 0 4294967295
0.31252742 0.80941916 0 4294967295
0.266473 0.75509995 0 4294967295
0.072447479 0.51862448 0 4294967295
0.31531888 0.93019444 0 4294967295
0.18587969 0.78237236 0 4294967295
0.36476851 0.64720953 0 4294967295
0.40383622 0.51534146 0 4294967295
0.23367867 0.72482252 0 4294967295
0.09340436 0.5026353 0 4294967295
0.017393799 0.52691042 0 4294967295
0.22641799 0.50882602 0 4294967295
0.24343267 0.65308303 0 4294967295
0.33552095 0.61163747 0 4294967295
0.33535224 0.87828898 0 4294967295
0.17451623 0.78189027 0 4294967295
0.096563332 0.98704362 0 4294967295
0.091309428 0.86303633 0 4294967295
0.2421436 0.66375691 0 4294967295
0.38166079 0.55746245 0 4294967295
0.093951337 0.56754053 0 4294967295
0.33983487 0.95871985 0 4294967295
0.21475004 0.74367106 0 4294967295
0.47406131 0.94842875 0 4294967295
0.46849364 0.56746566 0 4294967295
0.45106402 0.98588741 0 4294967295
0.094376117 0.67748201 0 4294967295
0.49471346 0.83780879 0 4294967295
