# .PCD v0.7 - Point Cloud Data file format
VERSION 0.7
FIELDS x y z rgba
SIZE 4 4 4 4
TYPE F F F U
COUNT 1 1 1 1
WIDTH 1366
HEIGHT 1
VIEWPOINT 0 0 0 1 0 0 0
POINTS 1366
DATA ascii
0 0.2766214 0.99316591 4294967295
0 0.54520178 0.2054192 4294967295
0 0.42326781 0.76628846 4294967295
0 0.71778613 0.14174512 4294967295
0 0.56932688 0.95255321 4294967295
0 0.71893054 0.27331266 4294967295
0 0.10968444 0.47596031 4294967295
0 0.37050566 0.82891959 4294967295
0 0.81352985 0.47350746 4294967295
0 0.38711715 0.90204996 4294967295
0 0.89610708 0.97829938 4294967295
0 0.083462007 0.27008593 4294967295
0 0.62599218 0.060310781 4294967295
0 0.17499298 0.69134468 4294967295
0 0.24162467 0.38544986 4294967295
0 0.46324584 0.51824605 4294967295
0 0.37861577 0.0084476359 4294967295
0 0.72366524 0.80188358 4294967295
0 0.77473611 0.4414514 4294967295
0 0.94362873 0.34406295 4294967295
0 0.39400458 0.66255927 4294967295
0 0.61737561 0.50368905 4294967295
0 0.13851956 0.98788124 4294967295
0 0.33260861 0.95204943 4294967295
0 0.46138871 0.71972573 4294967295
0 0.85409939 0.35749581 4294967295
0 0.69802511 0.93756139 4294967295
0 0.62758172 0.32401729 4294967295
0 0.99787217 0.80257475 4294967295
0 0.015361981 0.23949686 4294967295
0 0.18802458 0.47860783 4294967295
0 0.75774294 0.56664032 4294967295
0 0.48705548 0.48140818 4294967295
0 0.36852393 0.26179156 4294967295
0 0.92285955 0.31215262 4294967295
0 0.60585451 0.31686416 4294967295
0 0.97471184 0.22323012 4294967295
0 0.82055318 0.11323142 4294967295
0 0.21111138 0.15316179 4294967295
0 0.065280847 0.67250007 4294967295
0 0.87288755 0.91938025 4294967295
0 0.029995926 0.57091266 4294967295
0 0.8569417 0.65757769 4294967295
0 0.89493001 0.85481387 4294967295
0 0.46015239 0.91029197 4294967295
0 0.094310731 0.64817697 4294967295
0 0.38889977 0.85205364 4294967295
0 0.21481732 0.87595522 4294967295
0 0.33346185 0.58334124 4294967295
0 0.13774681 0.25632143 4294967295
0 0.89549387 0.74360132 4294967295
0 0.57318556 0.8702057 4294967295
0 0.96683145 0.39373878 4294967295
0 0.98343712 0.17794281 4294967295
0 0.54690057 0.048717976 4294967295
0 0.85044295 0.41978812 4294967295
0 0.96809822 0.88043886 4294967295
0 0.99070078 0.82503992 4294967295
0 0.5380165 0.88563079 4294967295
0 0.6798538 0.99816889 4294967295
0 0.79592276 0.7741645 4294967295
0 0.64634591 0.18482253 4294967295
0 0.62621814 0.8611632 4294967295
0 0.060777783 0.95968002 4294967295
0 0.44450444 0.19852459 4294967295
0 0.21600141 0.3399983 4294967295
0 0.94212592 0.78918701 4294967295
0 0.21020402 0.90895736 4294967295
0 0.18292578 0.19364116 4294967295
0 0.08690016 0.72982633 4294967295
0 0.24235913 0.93734306 4294967295
0 0.14961447 0.21045735 4294967295
0 0.81778193 0.14031528 4294967295
0 0.035497259 0.35579845 4294967295
0 0.025946058 0.71535105 4294967295
0 0.35396737 0.82186878 4294967295
0 0.48951554 0.00031325361 4294967295
0 0.0066913292 0.11573368 4294967295
0 0.86147648 0.067469113 4294967295
0 0.075413682 0.30598092 4294967295
0 0.26599371 0.2914151 4294967295
0 0.64597923 0.20811962 4294967295
0 0.080602087 0.85618323 4294967295
0 0.11707696 0.26352787 4294967295
0 0.049824394 0.20397712 4294967295
0 0.9933542 0.29218352 4294967295
0 0.1413202 0.14296867 4294967295
0 0.5026409 0.95910215 4294967295
0 0.28328395 0.53813815 4294967295
0 0.31490058 0.30923 4294967295
0 0.25348917 0.66886795 4294967295
0 0.13109881 0.74300468 4294967295
0 0.66918117 0.13779013 4294967295
0 0.85873836 0.53065765 4294967295
0 0.20525925 0.93415207 4294967295
0 0.83663857 0.47125295 4294967295
0 0.22556716 0.4826178 4294967295
0 0.67937255 0.30616924 4294967295
0 0.33880106 0.79644954 4294967295
0 0.56969714 0.38862544 4294967295
0 0.00042663002 0.56305134 4294967295
0 0.68080896 0.14174683 4294967295
0 0.70602 0.18344983 4294967295
0 0.10084895 0.98930395 4294967295
0 0.72158796 0.41574952 4294967295
0 0.29853392 0.97507715 4294967295
0 0.084617451 0.42963272 4294967295
0 0.71808183 0.7537986 4294967295
0 0.56742287 0.57682025 4294967295
0 0.28445628 0.77268213 4294967295
0 0.51097232 0.12109485 4294967295
0 0.24393505 0.73653948 4294967295
0 0.60371268 0.9233076 4294967295
0 0.042708728 0.9425137 4294967295
0 0.71975714 0.61240584 4294967295
0 0.33113915 0.72018373 4294967295
0 0.17545716 0.011948107 4294967295
0 0.86193061 0.88147718 4294967295
0 0.19539794 0.96277952 4294967295
0 0.87078106 0.91698593 4294967295
0 0.37852904 0.16931501 4294967295
0 0.89206308 0.46314651 4294967295
0 0.59894776 0.61014491 4294967295
0 0.21694513 0.1663706 4294967295
0 0.18696514 0.50140142 4294967295
0 0.9390527 0.69793743 4294967295
0 0.62249625 0.18298776 4294967295
0 0.43447691 0.22620893 4294967295
0 0.10629537 0.47718564 4294967295
0 0.16872263 0.82605249 4294967295
0 0.089591481 0.49986178 4294967295
0 0.54623622 0.26504865 4294967295
0 0.51180989 0.40816683 4294967295
0 0.1465258 0.7072078 4294967295
0 0.37094635 0.017306872 4294967295
0 0.62419373 0.74947542 4294967295
0 0.18662189 0.51625681 4294967295
0 0.21262191 0.78556961 4294967295
0 0.12640169 0.42956704 4294967295
0 0.95194024 0.31336683 4294967295
0 0.93096846 0.89099294 4294967295
0 0.011304263 0.55346471 4294967295
0 0.073980704 0.44578117 4294967295
0 0.77967364 0.18027607 4294967295
0 0.92296684 0.94839627 4294967295
0 0.0063285651 0.012558291 4294967295
0 0.44825804 0.5525648 4294967295
0 0.27760693 0.96006793 4294967295
0 0.96073163 0.42413273 4294967295
0 0.66727573 0.331678 4294967295
0 0.4414396 0.29146948 4294967295
0 0.0811534 0.62806147 4294967295
0 0.80772626 0.29377532 4294967295
0 0.41363111 0.93412799 4294967295
0 0.72334236 0.36557135 4294967295
0 0.2474948 0.65431082 4294967295
0 0.25656429 0.25879908 4294967295
0 0.20777555 0.33054498 4294967295
0 0.70458025 0.98744917 4294967295
0 0.51082104 0.62754703 4294967295
0 0.93584543 0.51714963 4294967295
0 0.64010537 0.38410351 4294967295
0 0.069714427 0.91771227 4294967295
0 0.34417143 0.03044606 4294967295
0 0.34184501 0.011447196 4294967295
0 0.36212406 0.7832846 4294967295
0 0.30291668 0.44327745 4294967295
0 0.41134608 0.11064298 4294967295
0 0.7370528 0.82497722 4294967295
0 0.044770952 0.46039513 4294967295
0 0.19054854 0.29226574 4294967295
0 0.11470596 0.4471128 4294967295
0 0.55106485 0.32248151 4294967295
0 0.77765781 0.25564507 4294967295
0 0.30993068 0.28847885 4294967295
0 0.88319212 0.24577615 4294967295
0 0.80562848 0.52329743 4294967295
0 0.62987965 0.87534291 4294967295
0 0.44100973 0.97405112 4294967295
0 0.90578896 0.78285474 4294967295
0 0.98549831 0.26791301 4294967295
0 0.56613934 0.28841498 4294967295
0 0.71119046 0.97748542 4294967295
0 0.39905795 0.44824323 4294967295
0 0.80246264 0.44382891 4294967295
0 0.90863836 0.99301118 4294967295
0 0.73609465 0.023344316 4294967295
0 0.44012398 0.28715947 4294967295
0 0.34582582 0.21778175 4294967295
0 0.54280454 0.65575647 4294967295
0 0.50626057 0.42599666 4294967295
0 0.90153265 0.31188908 4294967295
0 0.94929409 0.5314123 4294967295
0 0.18723196 0.39030385 4294967295
0 0.50546342 0.093020916 4294967295
0 0.17315859 0.4909617 4294967295
0 0.36093393 0.73929793 4294967295
0 0.77937669 0.072124377 4294967295
0 0.71678334 0.17843463 4294967295
0 0.52036762 0.51924598 4294967295
0 0.62226355 0.42900595 4294967295
0 0.5122571 0.3583582 4294967295
0 0.45235029 0.95238107 4294967295
0 0.64551771 0.79817611 4294967295
0 0.17016283 0.18832223 4294967295
0 0.45393261 0.67642343 4294967295
0 0.61431891 0.35546526 4294967295
0 0.98831248 0.563613 4294967295
0 0.88687754 0.17554446 4294967295
0 0.95391685 0.39234096 4294967295
0 0.26856539 0.12707543 4294967295
0 0.88330263 0.62949932 4294967295
0 0.86637336 0.66267931 4294967295
0 0.70162368 0.5831567 4294967295
0 0.84111392 0.22199129 4294967295
0 0.10240264 0.46337745 4294967295
0 0.65099728 0.61465973 4294967295
0 0.82173568 0.10334753 4294967295
0 0.5670408 0.46725333 4294967295
0 0.90152365 0.73720366 4294967295
0 0.65557557 0.35545623 4294967295
0 0.41362706 0.26989445 4294967295
0 0.71092147 0.40193957 4294967295
0 0.83350748 0.59779906 4294967295
0 0.57748401 0.78742433 4294967295
0 0.99013996 0.84604943 4294967295
0 0.91449976 0.87344265 4294967295
0 0.47554871 0.78087306 4294967295
0 0.5361219 0.17717239 4294967295
0 0.36402977 0.37723586 4294967295
0 0.39916369 0.46643239 4294967295
0 0.84061331 0.050160933 4294967295
0 0.081092149 0.66234899 4294967295
0 0.15350847 0.64813298 4294967295
0 0.12960231 0.055032104 4294967295
0 0.38533661 0.78517789 4294967295
0 0.41048834 0.79896367 4294967295
0 0.055072334 0.12140983 4294967295
0 0.20090324 0.88857979 4294967295
0 0.71920884 0.77838725 4294967295
0 0.67600411 0.70934886 4294967295
0 0.62443668 0.59050387 4294967295
0 0.58279145 0.099985376 4294967295
0 0.37137693 0.1189134 4294967295
0 0.27715775 0.7354067 4294967295
0 0.49614927 0.67632145 4294967295
0 0.20183909 0.33676258 4294967295
0 0.72648239 0.28293124 4294967295
0 0.99911153 0.87999082 4294967295
0 0.93106419 0.12871386 4294967295
0 0.93502295 0.31640083 4294967295
0 0.91389173 0.34551129 4294967295
0 0.11536449 0.9689641 4294967295
0 0.46692112 0.31626773 4294967295
0 0.85754389 0.18612997 4294967295
0 0.094655 0.533548 4294967295
0 0.89547884 0.71909165 4294967295
0 0.12405182 0.47827029 4294967295
0 0.81907701 0.49542874 4294967295
0 0.5971837 0.096234798 4294967295
0 0.23083544 0.093332961 4294967295
0 0.77255625 0.43267453 4294967295
0 0.43009555 0.49903861 4294967295
0 0.7156058 0.42920709 4294967295
0 0.37902945 0.64666998 4294967295
0 0.55792093 0.3140524 4294967295
0 0.96307081 0.4718127 4294967295
0 0.65956372 0.078435294 4294967295
0 0.44077677 0.12648481 4294967295
0 0.39470303 0.29832065 4294967295
0 0.31261477 0.48935801 4294967295
0 0.83186865 0.2080936 4294967295
0 0.20844969 0.95592046 4294967295
0 0.68636388 0.027526721 4294967295
0 0.4513492 0.28354758 4294967295
0 0.12376152 0.68218464 4294967295
0 0.37688056 0.89631778 4294967295
0 0.11485917 0.80697608 4294967295
0 0.39535639 0.83046496 4294967295
0 0.23618318 0.77438587 4294967295
0 0.47713491 0.79410416 4294967295
0 0.088438272 0.44020572 4294967295
0 0.26591685 0.74800199 4294967295
0 0.518641 0.70669365 4294967295
0 0.8744868 0.91334403 4294967295
0 0.0050142747 0.18710156 4294967295
0 0.40270206 0.83688289 4294967295
0 0.39519516 0.61115175 4294967295
0 0.79280335 0.081559055 4294967295
0 0.63867849 0.24415258 4294967295
0 0.36510664 0.76243997 4294967295
0 0.92633718 0.74198723 4294967295
0 0.65875775 0.041196384 4294967295
0 0.54896331 0.054114148 4294967295
0 0.87166131 0.78514647 4294967295
0 0.82850003 0.34879625 4294967295
0 0.57925063 0.91693825 4294967295
0 0.78900194 0.84516746 4294967295
0 0.66494024 0.307643 4294967295
0 0.55186111 0.53942704 4294967295
0 0.22098702 0.55687535 4294967295
0 0.72652858 0.62368906 4294967295
0 0.39375827 0.12172375 4294967295
0 0.23484083 0.18656163 4294967295
0 0.2032828 0.8735193 4294967295
0 0.43071419 0.56838948 4294967295
0 0.63595927 0.3570514 4294967295
0 0.31037664 0.29471704 4294967295
0 0.39824778 0.85933995 4294967295
0 0.34883121 0.26990911 4294967295
0 0.64448643 0.17733121 4294967295
0 0.61870533 0.22373703 4294967295
0 0.094269477 0.40770733 4294967295
0 0.068904497 0.75920975 4294967295
0 0.71535033 0.62076557 4294967295
0 0.29863673 0.93633735 4294967295
0 0.17764093 0.025165338 4294967295
0 0.56002641 0.57139921 4294967295
0 0.14688909 0.79486722 4294967295
0 0.7579608 0.35017189 4294967295
0 0.66838652 0.18867502 4294967295
0 0.91856134 0.30434585 4294967295
0 0.54572642 0.22893801 4294967295
0 0.59906286 0.9439742 4294967295
0 0.088277966 0.9478941 4294967295
0 0.21388331 0.73276436 4294967295
0 0.12522528 0.83258867 4294967295
0 0.95650142 0.21949476 4294967295
0 0.24029601 0.025405919 4294967295
0 0.97870445 0.95564634 4294967295
0 0.64617151 0.27734122 4294967295
0 0.89198363 0.82381243 4294967295
0 0.30250657 0.45201007 4294967295
0 0.39521161 0.44939566 4294967295
0 0.24687731 0.15317242 4294967295
0 0.79956758 0.91526389 4294967295
0 0.34184742 0.71812892 4294967295
0 0.21960969 0.88757384 4294967295
0 0.9470669 0.8186726 4294967295
0 0.83154804 0.035344895 4294967295
0 0.76656663 0.045431364 4294967295
0 0.76810926 0.89179194 4294967295
0 0.87802005 0.72461069 4294967295
0 0.11128669 0.11831605 4294967295
0 0.75001663 0.089991175 4294967295
0 0.073962368 0.39618811 4294967295
0 0.3673324 0.96594602 4294967295
0 0.22000054 0.66983896 4294967295
0 0.41795611 0.61521214 4294967295
0 0.11923463 0.66483343 4294967295
0 0.76838458 0.9188022 4294967295
0 0.58009726 0.110232 4294967295
0 0.63693112 0.799707 4294967295
0 0.99780583 0.58399802 4294967295
0 0.61837953 0.82935387 4294967295
0 0.61934292 0.3849462 4294967295
0 0.87478524 0.38745221 4294967295
0 0.27673814 0.75280529 4294967295
0 0.11206292 0.38802484 4294967295
0 0.87112135 0.86207956 4294967295
0 0.47801602 0.94508374 4294967295
0 0.25826767 0.84534842 4294967295
0 0.91102976 0.47826821 4294967295
0 0.51518738 0.32898584 4294967295
0 0.093480356 0.634422 4294967295
0 0.99381924 0.86186492 4294967295
0 0.55322421 0.57391655 4294967295
0 0.97209692 0.19015531 4294967295
0 0.37362352 0.96990275 4294967295
0 0.77415335 0.99200308 4294967295
0 0.79925668 0.39349625 4294967295
0 0.37694928 0.67404193 4294967295
0 0.78094846 0.65368742 4294967295
0 0.42684722 0.89301139 4294967295
0 0.041712265 0.29796857 4294967295
0 0.75509095 0.5197283 4294967295
0 0.24305227 0.013358593 4294967295
0 0.36507672 0.15408203 4294967295
0 0.4916268 0.8802641 4294967295
0 0.48306787 0.58510715 4294967295
0 0.51468611 0.47688714 4294967295
0 0.44697207 0.067910351 4294967295
0 0.050803673 0.41906902 4294967295
0 0.25806567 0.42442718 4294967295
0 0.38897178 0.032219 4294967295
0 0.41643026 0.18822843 4294967295
0 0.42571527 0.79337955 4294967295
0 0.86227036 0.20666373 4294967295
0 0.44706696 0.28911757 4294967295
0 0.099675104 0.48877925 4294967295
0 0.58708614 0.85476601 4294967295
0 0.0085075246 0.83013839 4294967295
0 0.8681246 0.37358424 4294967295
0 0.98422045 0.35975143 4294967295
0 0.25384834 0.46728829 4294967295
0 0.94485855 0.76853448 4294967295
0 0.94417542 0.39183065 4294967295
0 0.83644485 0.99497908 4294967295
0 0.81089967 0.094510488 4294967295
0 0.41940629 0.19987145 4294967295
0 0.12672949 0.83583653 4294967295
0 0.38809988 0.55244476 4294967295
0 0.62921607 0.25037023 4294967295
0 0.75910848 0.076283075 4294967295
0 0.53948778 0.85878354 4294967295
0 0.56506234 0.12657392 4294967295
0 0.71354961 0.57356983 4294967295
0 0.95671231 0.58167422 4294967295
0 0.94715405 0.94093275 4294967295
0 0.94142562 0.20100242 4294967295
0 0.40822104 0.88628423 4294967295
0 0.9695369 0.35239646 4294967295
0 0.27811489 0.8059817 4294967295
0 0.34737557 0.08901456 4294967295
0 0.90049219 0.76678187 4294967295
0 0.28888601 0.027221702 4294967295
0 0.6026184 0.67698592 4294967295
0 0.57966644 0.2318345 4294967295
0 0.92735612 0.33877492 4294967295
0 0.30811757 0.46684393 4294967295
0 0.19755849 0.87317991 4294967295
0 0.59341782 0.91110808 4294967295
0 0.44674975 0.55013013 4294967295
0 0.49278229 0.39390382 4294967295
0 0.49106291 0.43420795 4294967295
0 0.59490621 0.89928395 4294967295
0 0.32049218 0.56444311 4294967295
0 0.2516804 0.59860706 4294967295
0 0.37042484 0.59905601 4294967295
0 0.68762159 0.27091706 4294967295
0 0.36583784 0.9765076 4294967295
0 0.29813874 0.96845621 4294967295
0 0.65349352 0.87780517 4294967295
0 0.20029074 0.58084965 4294967295
0 0.21658012 0.50840831 4294967295
0 0.047693562 0.41413862 4294967295
0 0.38158822 0.64111137 4294967295
0 0.32524669 0.82833797 4294967295
0 0.19124156 0.81802899 4294967295
0 0.22224176 0.68230444 4294967295
0 0.25223696 0.81714797 4294967295
0 0.58158839 0.57272911 4294967295
0 0.38159111 0.83326882 4294967295
0 0.17133619 0.75201595 4294967295
0 0.4323248 0.85895783 4294967295
0 0.022932982 0.79816264 4294967295
0 0.83546543 0.32107174 4294967295
0 0.76661885 0.48895893 4294967295
0 0.19887693 0.96690959 4294967295
0 0.06980858 0.41545704 4294967295
0 0.47531793 0.11750214 4294967295
0 0.82959569 0.85690612 4294967295
0 0.75861353 0.15484236 4294967295
0 0.68524408 0.94985509 4294967295
0 0.97287136 0.90748584 4294967295
0 0.63215953 0.22510834 4294967295
0 0.72463381 0.21374796 4294967295
0 0.7978375 0.10622494 4294967295
0 0.047016781 0.96917367 4294967295
0 0.8582409 0.47934157 4294967295
0 0.82813144 0.88117385 4294967295
0 0.27750421 0.66359687 4294967295
0 0.20224559 0.044123068 4294967295
0 0.15255581 0.40112251 4294967295
0 0.011032671 0.22236438 4294967295
0 0.81657958 0.4863506 4294967295
0 0.33986652 0.64617521 4294967295
0 0.34325674 0.098480053 4294967295
0 0.80101758 0.028500829 4294967295
0 0.048335146 0.77388895 4294967295
0 0.9359867 0.68049473 4294967295
0 0.99899733 0.66062051 4294967295
0 0.89424264 0.79683477 4294967295
0 0.76684546 0.94125944 4294967295
0 0.76600844 0.62508637 4294967295
0 0.42060101 0.59413987 4294967295
0 0.50626022 0.69810522 4294967295
0 0.25773674 0.70850581 4294967295
0 0.74222827 0.41029254 4294967295
0 0.10962833 0.75326097 4294967295
0 0.63265693 0.9262079 4294967295
0 0.23961157 0.97252345 4294967295
0 0.57238311 0.58286828 4294967295
0 0.071003512 0.37340072 4294967295
0 0.61136913 0.11933865 4294967295
0 0.14728969 0.54735583 4294967295
0 0.79983336 0.14628699 4294967295
0 0.20797634 0.694076 4294967295
0 0.94312179 0.97482181 4294967295
0 0.63533545 0.70913017 4294967295
0 0.59990817 0.055936463 4294967295
0 0.30327007 0.10616838 4294967295
0 0.75404167 0.56100678 4294967295
0 0.8146742 0.49627 4294967295
0 0.97129935 0.92430252 4294967295
0 0.24953096 0.60395628 4294967295
0 0.85051042 0.48914251 4294967295
0 0.57647973 0.42289355 4294967295
0 0.072010815 0.64748323 4294967295
0 0.79629427 0.68337995 4294967295
0 0.76682192 0.94358397 4294967295
0 0.23073575 0.56665528 4294967295
0 0.08987096 0.43871209 4294967295
0 0.26073125 0.032992728 4294967295
0 0.41353393 0.89606673 4294967295
0 0.74212295 0.013442079 4294967295
0 0.95200318 0.045392983 4294967295
0 0.11961046 0.70604485 4294967295
0 0.60639977 0.93428463 4294967295
0 0.20231485 0.57769912 4294967295
0 0.85858715 0.45184579 4294967295
0 0.18165544 0.70909756 4294967295
0 0.9409883 0.75813514 4294967295
0 0.13199113 0.012999136 4294967295
0 0.4056184 0.92828542 4294967295
0 0.69637907 0.17244032 4294967295
0 0.87186939 0.92711484 4294967295
0 0.73909557 0.96174031 4294967295
0 0.36582693 0.99982685 4294967295
0 0.99473304 0.77936083 4294967295
0 0.89589351 0.73685598 4294967295
0 0.79280293 0.8478967 4294967295
0 0.78224897 0.91241336 4294967295
0 0.55394161 0.38864875 4294967295
0 0.84669805 0.75625646 4294967295
0 0.96634787 0.70528519 4294967295
0 0.20810226 0.14800332 4294967295
0 0.41438279 0.14909057 4294967295
0 0.90613848 0.5463739 4294967295
0 0.16208971 0.31175691 4294967295
0 0.47465932 0.85846877 4294967295
0 0.48419723 0.34652871 4294967295
0 0.78558362 0.2232928 4294967295
0 0.30826902 0.15141053 4294967295
0 0.22311963 0.30300209 4294967295
0 0.93077135 0.11901318 4294967295
0 0.039858077 0.72357428 4294967295
0 0.96690989 0.82210702 4294967295
0 0.63598764 0.52085149 4294967295
0 0.2107558 0.48268569 4294967295
0 0.27710792 0.1771037 4294967295
0 0.18797088 0.48521018 4294967295
0 0.32510704 0.60235363 4294967295
0 0.63430077 0.23124553 4294967295
0 0.14872758 0.79639047 4294967295
0 0.54300243 0.62338692 4294967295
0 0.65485924 0.027199669 4294967295
0 0.96991563 0.44044286 4294967295
0 0.25049245 0.27818462 4294967295
0 0.59185338 0.4736121 4294967295
0 0.58118671 0.52262479 4294967295
0 0.59262526 0.62104481 4294967295
0 0.24619904 0.55953515 4294967295
0 0.44315186 0.88218671 4294967295
0 0.080386631 0.65390766 4294967295
0 0.3648724 0.35749456 4294967295
0 0.83101135 0.55284327 4294967295
0 0.84270471 0.15611838 4294967295
0 0.15519693 0.47700545 4294967295
0 0.38736391 0.3039245 4294967295
0 0.27339593 0.93036634 4294967295
0 0.92731142 0.92825514 4294967295
0 0.95756602 0.89722699 4294967295
0 0.368698 0.20805849 4294967295
0 0.17541164 0.96055138 4294967295
0 0.68167061 0.75659835 4294967295
0 0.48317617 0.27429584 4294967295
0 0.3776432 0.72937518 4294967295
0 0.83383101 0.82079506 4294967295
0 0.61156189 0.91421765 4294967295
0 0.47470269 0.97643429 4294967295
0 0.27171218 0.30571404 4294967295
0 0.52927756 0.11441691 4294967295
0 0.46183243 0.68447453 4294967295
0 0.59142238 0.84919631 4294967295
0 0.98839903 0.86481827 4294967295
0 0.77956271 0.91571045 4294967295
0 0.79307348 0.73712873 4294967295
0 0.81293744 0.16177146 4294967295
0 0.94518721 0.98834908 4294967295
0 0.12232286 0.62685776 4294967295
0 0.74494743 0.60549903 4294967295
0 0.90115362 0.12259065 4294967295
0 0.33487421 0.73498464 4294967295
0 0.94338566 0.94643617 4294967295
0 0.64920223 0.41808838 4294967295
0 0.92287046 0.92091441 4294967295
0 0.72380239 0.45214802 4294967295
0 0.035331346 0.18563484 4294967295
0 0.13662253 0.62675375 4294967295
0 0.034831174 0.12502155 4294967295
0 0.49157202 0.81439388 4294967295
0 0.040731978 0.28464547 4294967295
0 0.55152255 0.8536694 4294967295
0 0.44641691 0.49670976 4294967295
0 0.84201849 0.56873977 4294967295
0 0.12356752 0.58696598 4294967295
0 0.17423879 0.024721134 4294967295
0 0.70955658 0.50911301 4294967295
0 0.75970572 0.6529423 4294967295
0 0.45554915 0.40890801 4294967295
0 0.071030661 0.37841961 4294967295
0 0.32982242 0.79483306 4294967295
0 0.8305676 0.36515379 4294967295
0 0.98046792 0.96719015 4294967295
0 0.99190748 0.015299086 4294967295
0 0.092211716 0.4834795 4294967295
0 0.82969296 0.13294369 4294967295
0 0.768125 0.38121551 4294967295
0 0.98661309 0.21454188 4294967295
0 0.87792528 0.82863158 4294967295
0 0.78328168 0.001492782 4294967295
0 0.41559756 0.95752043 4294967295
0 0.026213918 0.12515415 4294967295
0 0.46663347 0.78591967 4294967295
0 0.77809644 0.92218262 4294967295
0 0.19482766 0.84912711 4294967295
0 0.30060223 0.5246501 4294967295
0 0.64396018 0.13116984 4294967295
0 0.88980389 0.62442809 4294967295
0 0.098360002 0.88171136 4294967295
0 0.63972718 0.19057173 4294967295
0 0.36519086 0.46942011 4294967295
0 0.32351542 0.13331585 4294967295
0 0.85063565 0.31012851 4294967295
0 0.34785774 0.72856086 4294967295
0 0.13876012 0.1311394 4294967295
0 0.73005366 0.55435765 4294967295
0 0.088659845 0.75626761 4294967295
0 0.67951185 0.55529332 4294967295
0 0.54218721 0.45760825 4294967295
0 0.47747594 0.73701489 4294967295
0 0.30673537 0.77807814 4294967295
0 0.26166499 0.95069551 4294967295
0 0.90924799 0.15146886 4294967295
0 0.57512361 0.0076079923 4294967295
0 0.033180229 0.21485078 4294967295
0 0.19817971 0.3983711 4294967295
0 0.68427092 0.52169514 4294967295
0 0.53168696 0.53490651 4294967295
0 0.83182365 0.87954468 4294967295
0 0.2634674 0.97058374 4294967295
0 0.010684079 0.99352103 4294967295
0 0.52494144 0.099343926 4294967295
0 0.74978864 0.20445324 4294967295
0 0.65463722 0.29197589 4294967295
0 0.66206151 0.13211316 4294967295
0 0.02899079 0.96879691 4294967295
0 0.9101913 0.29065579 4294967295
0 0.91949242 0.81943929 4294967295
0 0.44212463 0.49461603 4294967295
0 0.82704729 0.47530487 4294967295
0 0.70946681 0.025226999 4294967295
0 0.873676 0.39373773 4294967295
0 0.54692215 0.40536293 4294967295
0 0.92864424 0.37874576 4294967295
0 0.28490761 0.19211166 4294967295
0 0.3493295 0.29559168 4294967295
0 0.18563272 0.87427092 4294967295
0 0.39493561 0.93542135 4294967295
0 0.078724183 0.049572852 4294967295
0 0.22739725 0.74078572 4294967295
0 0.18168601 0.25638804 4294967295
0 0.70958257 0.091877319 4294967295
0 0.5470438 0.62907499 4294967295
0 0.91131663 0.98916847 4294967295
0 0.12369103 0.73836392 4294967295
0 0.46447334 0.83315784 4294967295
0 0.76359093 0.33814934 4294967295
0 0.22689559 0.31051302 4294967295
0 0.74351227 0.15553984 4294967295
0 0.68925875 0.02841988 4294967295
0 0.34765151 0.038588282 4294967295
0 0.32401156 0.53328425 4294967295
0 0.9128592 0.71894717 4294967295
0 0.46870559 0.99158341 4294967295
0 0.76852006 0.69610286 4294967295
0 0.73236907 0.95020604 4294967295
0 0.95249087 0.44195166 4294967295
0 0.042083383 0.4995347 4294967295
0 0.071026668 0.95340002 4294967295
0 0.48870319 0.19471769 4294967295
0 0.69176388 0.9531765 4294967295
0 0.02787555 0.45535481 4294967295
0 0.29132587 0.25477114 4294967295
0 0.76586783 0.034838125 4294967295
0 0.41031098 0.45512661 4294967295
0 0.063258007 0.75796247 4294967295
0 0.49371487 0.38726959 4294967295
0 0.29124668 0.4065741 4294967295
0 0.10621677 0.75995231 4294967295
0 0.39815748 0.87473685 4294967295
0 0.4560551 0.13052659 4294967295
0 0.82494289 0.408546 4294967295
0 0.57247823 0.86702627 4294967295
0 0.9080807 0.64350492 4294967295
0 0.82042629 0.39678386 4294967295
0 0.83822262 0.51219016 4294967295
0 0.34996039 0.86609817 4294967295
0 0.96754497 0.64128625 4294967295
0 0.12086931 0.7334128 4294967295
0 0.67612439 0.53118026 4294967295
0 0.1885394 0.73938239 4294967295
0 0.28914276 0.68225431 4294967295
0 0.12665197 0.58038944 4294967295
0 0.088828385 0.23286875 4294967295
0 0.34034175 0.48698586 4294967295
0 0.10760557 0.79639685 4294967295
0 0.61751246 0.93254846 4294967295
0 0.20494284 0.18999071 4294967295
0 0.79957473 0.11302353 4294967295
0 0.83349562 0.62000096 4294967295
0 0.50980741 0.67171824 4294967295
0 0.13219115 0.85976779 4294967295
0 0.53781641 0.099736132 4294967295
0 0.50105405 0.65868574 4294967295
0 0.83314896 0.17717844 4294967295
0 0.18986602 0.021688335 4294967295
0 0.91656083 0.47900876 4294967295
0 0.7039426 0.043212809 4294967295
0 0.059398226 0.79277098 4294967295
0 0.27608156 0.39973995 4294967295
0 0.27975687 0.38368714 4294967295
0 0.1961368 0.89726931 4294967295
0 0.31623557 0.40107965 4294967295
0 0.087260053 0.1158103 4294967295
0 0.51410317 0.92075568 4294967295
0 0.73581129 0.023910586 4294967295
0 0.59247392 0.86800241 4294967295
0 0.88367838 0.13029037 4294967295
0 0.96773857 0.38473246 4294967295
0 0.78897613 0.80088753 4294967295
0 0.56191093 0.97884214 4294967295
0 0.82257581 0.47847173 4294967295
0 0.4578509 0.52651846 4294967295
0 0.52168453 0.51724911 4294967295
0 0.31928945 0.79776609 4294967295
0 0.91698909 0.59904635 4294967295
0 0.18145323 0.1131259 4294967295
0 0.49631569 0.4976888 4294967295
0 0.51420552 0.58357573 4294967295
0 0.6134991 0.028308723 4294967295
0 0.50433141 0.3493104 4294967295
0 0.052219309 0.096805371 4294967295
0 0.21731283 0.93589771 4294967295
0 0.22709575 0.1850514 4294967295
0 0.32063013 0.01607186 4294967295
0 0.98593891 0.88254106 4294967295
0 0.994914 0.80851471 4294967295
0 0.36101279 0.4527649 4294967295
0 0.33503318 0.88269734 4294967295
0 0.97001404 0.65432262 4294967295
0 0.68046343 0.88700312 4294967295
0 0.25336897 0.86191666 4294967295
0 0.00012899889 0.74968463 4294967295
0 0.35960549 0.51433456 4294967295
0 0.33326039 0.9731046 4294967295
0 0.54264325 0.83759183 4294967295
0 0.32241496 0.59486258 4294967295
0 0.93439716 0.53972781 4294967295
0 0.53076029 0.16149291 4294967295
0 0.72477919 0.85139042 4294967295
0 0.17756477 0.7107181 4294967295
0 0.73393148 0.17247877 4294967295
0 0.51923281 0.094944246 4294967295
0 0.62524366 0.85426599 4294967295
0 0.97764158 0.5952577 4294967295
0 0.50858867 0.65810502 4294967295
0 0.48226076 0.76195765 4294967295
0 0.52002168 0.48238978 4294967295
0 0.51164228 0.87962717 4294967295
0 0.99672431 0.84490269 4294967295
0 0.85273176 0.53936756 4294967295
0 0.68249446 0.17514673 4294967295
0 0.13423015 0.61689162 4294967295
0 0.71487451 0.66499043 4294967295
0 0.77838457 0.43965372 4294967295
0 0.51638085 0.95594931 4294967295
0 0.15037182 0.2503123 4294967295
0 0.1284281 0.66960466 4294967295
0 0.34525654 0.75367177 4294967295
0 0.52387065 0.32289812 4294967295
0 0.34892944 0.032459319 4294967295
0 0.98100317 0.83119017 4294967295
0 0.79441696 0.50102484 4294967295
0 0.31357998 0.30605924 4294967295
0 0.38065198 0.31030428 4294967295
0 0.15096192 0.23338373 4294967295
0 0.84967184 0.8334564 4294967295
0 0.40853044 0.98390204 4294967295
0 0.45034802 0.12340498 4294967295
0 0.64889246 0.22873259 4294967295
0 0.56305873 0.16527328 4294967295
0 0.18468192 0.71343052 4294967295
0 0.41558558 0.31311002 4294967295
0 0.38303518 0.76084214 4294967295
0 0.066781767 0.90690583 4294967295
0 0.083740257 0.41571119 4294967295
0 0.93936515 0.064743392 4294967295
0 0.24690139 0.73378211 4294967295
0 0.56576824 0.56048137 4294967295
0 0.03984138 0.94642019 4294967295
0 0.87078565 0.1908033 4294967295
0 0.17980392 0.72045749 4294967295
0 0.024259694 0.58833438 4294967295
0 0.70435953 0.47460774 4294967295
0 0.71173936 0.35325196 4294967295
0 0.70334029 0.27479807 4294967295
0 0.51852524 0.88802224 4294967295
0 0.98822862 0.93411082 4294967295
0 0.20113225 0.37126377 4294967295
0 0.69495296 0.26791403 4294967295
0 0.27816963 0.7786932 4294967295
0 0.68362522 0.21753481 4294967295
0 0.8434366 0.93052661 4294967295
0 0.95131695 0.40920481 4294967295
0 0.49100795 0.99115831 4294967295
0 0.355625 0.36179361 4294967295
0 0.18196161 0.53542894 4294967295
0 0.082251117 0.20622131 4294967295
0 0.12376332 0.78661066 4294967295
0 0.68082905 0.83550268 4294967295
0 0.1398626 0.38416937 4294967295
0 0.11030073 0.65838784 4294967295
0 0.27219158 0.098529331 4294967295
0 0.59249866 0.47332385 4294967295
0 0.46979311 0.2874516 4294967295
0 0.74123788 0.74796277 4294967295
0 0.066144794 0.4248631 4294967295
0 0.96549755 0.90958136 4294967295
0 0.35538971 0.91681451 4294967295
0 0.3187862 0.8463977 4294967295
0 0.90797281 0.67441118 4294967295
0 0.20819129 0.089934431 4294967295
0 0.20984013 0.29044241 4294967295
0 0.29615575 0.33360344 4294967295
0 0.07705304 0.9769848 4294967295
0 0.16910611 0.21691564 4294967295
0 0.36115414 0.27940685 4294967295
0 0.87530345 0.63334572 4294967295
0 0.37793618 0.46780211 4294967295
0 0.10666958 0.84772933 4294967295
0 0.75525373 0.84790748 4294967295
0 0.59569204 0.8213985 4294967295
0 0.27277058 0.56118959 4294967295
0 0.73097986 0.6281603 4294967295
0 0.47800413 0.049766071 4294967295
0 0.47455797 0.38597694 4294967295
0 0.72417724 0.68274927 4294967295
0 0.47591135 0.93401742 4294967295
0 0.97319168 0.77206707 4294967295
0 0.26762083 0.050244704 4294967295
0 0.74905187 0.43672696 4294967295
0 0.26716033 0.11020601 4294967295
0 0.71613383 0.1424638 4294967295
0 0.74355173 0.094069988 4294967295
0 0.61026591 0.85022134 4294967295
0 0.94179928 0.36551961 4294967295
0 0.69812876 0.53749132 4294967295
0 0.18691812 0.97089934 4294967295
0 0.098680966 0.917898 4294967295
0 0.59905964 0.57668507 4294967295
0 0.96766406 0.073617622 4294967295
0 0.96266198 0.69184136 4294967295
0 0.75636691 0.43857336 4294967295
0 0.62585872 0.72955853 4294967295
0 0.21064046 0.89347959 4294967295
0 0.77980328 0.95969236 4294967295
0 0.33020654 0.046963587 4294967295
0 0.069898345 0.046340358 4294967295
0 0.18942739 0.8134501 4294967295
0 0.14041035 0.79969329 4294967295
0 0.66367137 0.082209632 4294967295
0 0.16521293 0.36180019 4294967295
0 0.61970097 0.35213107 4294967295
0 0.33269954 0.71838194 4294967295
0 0.27002907 0.93175918 4294967295
0 0.29506701 0.23769315 4294967295
0 0.005376813 0.25772902 4294967295
0 0.92953449 0.76174372 4294967295
0 0.69630241 0.55539328 4294967295
0 0.49130225 0.90694284 4294967295
0 0.44887286 0.2711055 4294967295
0 0.8666352 0.77907938 4294967295
0 0.31806907 0.93653357 4294967295
0 0.82541978 0.50749648 4294967295
0 0.74998361 0.96583009 4294967295
0 0.30718979 0.41365501 4294967295
0 0.048039738 0.47240272 4294967295
0 0.77545524 0.6677407 4294967295
0 0.82453376 0.10815475 4294967295
0 0.38612264 0.094562843 4294967295
0 0.039913941 0.68118966 4294967295
0 0.33225599 0.045290753 4294967295
0 0.93891871 0.26179048 4294967295
0 0.80703443 0.63522112 4294967295
0 0.81718373 0.29833668 4294967295
0 0.54216397 0.2660566 4294967295
0 0.56944221 0.40879917 4294967295
0 0.045136005 0.88751125 4294967295
0 0.34533274 0.87055576 4294967295
0 0.39500773 0.095316365 4294967295
0 0.83638585 0.70219749 4294967295
0 0.50897139 0.88442564 4294967295
0 0.17460023 0.2844266 4294967295
0 0.55216634 0.999134 4294967295
0 0.39258134 0.93828899 4294967295
0 0.093696848 0.4324953 4294967295
0 0.61947864 0.42595282 4294967295
0 0.47778603 0.55839735 4294967295
0 0.68774331 0.2848205 4294967295
0 0.19361846 0.5049271 4294967295
0 0.58315718 0.73578244 4294967295
0 0.7709837 0.15259938 4294967295
0 0.14458162 0.81611967 4294967295
0 0.040110644 0.48991436 4294967295
0 0.68667543 0.43511838 4294967295
0 0.58523071 0.52306134 4294967295
0 0.1373159 0.094202101 4294967295
0 0.40748695 0.31191611 4294967295
0 0.3786287 0.95965326 4294967295
0 0.31105012 0.77121001 4294967295
0 0.89794225 0.40474698 4294967295
0 0.20370533 0.51742089 4294967295
0 0.8306998 0.68149137 4294967295
0 0.07581827 0.51844317 4294967295
0 0.96631187 0.26943675 4294967295
0 0.023370218 0.54946905 4294967295
0 0.0052191787 0.7943539 4294967295
0 0.70206845 0.14980079 4294967295
0 0.61047357 0.7421791 4294967295
0 0.63971514 0.29714903 4294967295
0 0.17729746 0.22494586 4294967295
0 0.82021034 0.31461334 4294967295
0 0.31914794 0.2276973 4294967295
0 0.62652946 0.69777668 4294967295
0 0.18735057 0.93757963 4294967295
0 0.46898669 0.085292831 4294967295
0 0.34232658 0.672692 4294967295
0 0.60271376 0.17302638 4294967295
0 0.35418341 0.678532 4294967295
0 0.69146955 0.32049528 4294967295
0 0.94796878 0.71483976 4294967295
0 0.8699643 0.95318794 4294967295
0 0.50919366 0.57203275 4294967295
0 0.10298873 0.11966722 4294967295
0 0.31421185 0.74270386 4294967295
0 0.41681623 0.49150929 4294967295
0 0.96764976 0.2370266 4294967295
0 0.80612266 0.2867977 4294967295
0 0.46472391 0.43265212 4294967295
0 0.98457432 0.65207446 4294967295
0 0.37023172 0.45356104 4294967295
0 0.73736733 0.71255833 4294967295
0 0.12625305 0.34008104 4294967295
0 0.88558471 0.48043644 4294967295
0 0.018613063 0.5770542 4294967295
0 0.80093169 0.96658182 4294967295
0 0.29189396 0.67089605 4294967295
0 0.91976976 0.80108762 4294967295
0 0.2429288 0.022758484 4294967295
0 0.92075479 0.55714065 4294967295
0 0.76546234 0.33757105 4294967295
0 0.048649933 0.7331121 4294967295
0 0.57459766 0.85477257 4294967295
0 0.01990978 0.039321568 4294967295
0 0.28742471 0.004484117 4294967295
0 0.69139606 0.65765643 4294967295
0 0.45804515 0.42876336 4294967295
0 0.37021473 0.58429819 4294967295
0 0.76884443 0.25579944 4294967295
0 0.064734645 0.78745747 4294967295
0 0.83285367 0.86566639 4294967295
0 0.75403929 0.1247476 4294967295
0 0.53656238 0.67380905 4294967295
0 0.92583519 0.77949119 4294967295
0 0.69656754 0.84659004 4294967295
0 0.33663183 0.46202987 4294967295
0 0.18416108 0.38528177 4294967295
0 0.19514197 0.75875872 4294967295
0 0.24005435 0.21505174 4294967295
0 0.79808033 0.52747905 4294967295
0 0.21953586 0.48947635 4294967295
0 0.1851355 0.67758101 4294967295
0 0.91823971 0.55535024 4294967295
0 0.26187921 0.68708408 4294967295
0 0.81114966 0.32661384 4294967295
0 0.47454157 0.64400333 4294967295
0 0.19228022 0.22858085 4294967295
0 0.76875091 0.72884262 4294967295
0 0.90238988 0.6945861 4294967295
0 0.5083338 0.59895742 4294967295
0 0.54117614 0.84496564 4294967295
0 0.060987271 0.72533721 4294967295
0 0.23024744 0.25612924 4294967295
0 0.48409596 0.47030181 4294967295
0 0.47118098 0.28217626 4294967295
0 0.99778086 0.69071686 4294967295
0 0.77165264 0.18291634 4294967295
0 0.36829787 0.68989235 4294967295
0 0.73826659 0.63017708 4294967295
0 0.37697643 0.54941624 4294967295
0 0.95679092 0.85151803 4294967295
0 0.19341955 0.14907114 4294967295
0 0.080098867 0.96217048 4294967295
0 0.87791377 0.98248875 4294967295
0 0.65675658 0.38624758 4294967295
0 0.58144617 0.19793274 4294967295
0 0.23121324 0.6424334 4294967295
0 0.92326993 0.46146068 4294967295
0 0.89856267 0.40736592 4294967295
0 0.93176246 0.36974365 4294967295
0 0.68954217 0.92954332 4294967295
0 0.0604605 0.46119481 4294967295
0 0.11245967 0.42875835 4294967295
0 0.15108715 0.85072625 4294967295
0 0.058935437 0.5280636 4294967295
0 0.40014249 0.015726365 4294967295
0 0.3795816 0.59356201 4294967295
0 0.16479751 0.45968047 4294967295
0 0.55573249 0.042711265 4294967295
0 0.44216922 0.2124891 4294967295
0 0.42895883 0.023615371 4294967295
0 0.41042185 0.6601721 4294967295
0 0.66604877 0.33369181 4294967295
0 0.12163276 0.56461143 4294967295
0 0.74105769 0.053395234 4294967295
0 0.93435508 0.4305999 4294967295
0 0.98293853 0.99481559 4294967295
0 0.89179474 0.095398217 4294967295
0 0.42357397 0.042881861 4294967295
0 0.94612443 0.4825094 4294967295
0 0.57094544 0.34626696 4294967295
0 0.49823576 0.95052707 4294967295
0 0.93982899 0.66303331 4294967295
0 0.41020754 0.49556148 4294967295
0 0.70574456 0.85237676 4294967295
0 0.70805061 0.1347034 4294967295
0 0.87599212 0.11847243 4294967295
0 0.7948755 0.54204094 4294967295
0 0.45216423 0.91650826 4294967295
0 0.10665238 0.19322194 4294967295
0 0.96990347 0.041007478 4294967295
0 0.62382185 0.952842 4294967295
0 0.035823081 0.51561654 4294967295
0 0.048240248 0.45939705 4294967295
0 0.55849844 0.99436474 4294967295
0 0.94190645 0.12944387 4294967295
0 0.34063166 0.44014224 4294967295
0 0.079970933 0.28046063 4294967295
0 0.10317551 0.49017847 4294967295
0 0.77602214 0.80892009 4294967295
0 0.34255522 0.48407272 4294967295
0 0.94362342 0.21854737 4294967295
0 0.60254514 0.73849893 4294967295
0 0.76058829 0.054709375 4294967295
0 0.65500718 0.86724067 4294967295
0 0.24793132 0.62491065 4294967295
0 0.90824813 0.87175316 4294967295
0 0.57775265 0.94407123 4294967295
0 0.38736972 0.62599289 4294967295
0 0.40346828 0.94586813 4294967295
0 0.62035763 0.34537473 4294967295
0 0.075311996 0.9609893 4294967295
0 0.78551698 0.15528293 4294967295
0 0.24144992 0.8886925 4294967295
0 0.64546138 0.017472045 4294967295
0 0.69761252 0.98801666 4294967295
0 0.50154477 0.64123601 4294967295
0 0.20656401 0.10408991 4294967295
0 0.3797349 0.9671523 4294967295
0 0.15879929 0.03474208 4294967295
0 0.83439296 0.40673059 4294967295
0 0.65965271 0.74264109 4294967295
0 0.27848375 0.23740539 4294967295
0 0.68671232 0.6658535 4294967295
0 0.86339831 0.090180606 4294967295
0 0.61172158 0.48375595 4294967295
0 0.43555534 0.68703359 4294967295
0 0.44474521 0.2210723 4294967295
0 0.84231651 0.68619514 4294967295
0 0.10976476 0.48777792 4294967295
0 0.70366716 0.80737728 4294967295
0 0.47579455 0.20521195 4294967295
0 0.44861329 0.68235856 4294967295
0 0.30930185 0.82834816 4294967295
0 0.64951086 0.46810114 4294967295
0 0.86309028 0.48390383 4294967295
0 0.87483174 0.52274299 4294967295
0 0.22654495 0.15331551 4294967295
0 0.76014841 0.9132573 4294967295
0 0.81916898 0.62354672 4294967295
0 0.0034378939 0.43089059 4294967295
0 0.10730264 0.43899322 4294967295
0 0.11792418 0.55204785 4294967295
0 0.66006553 0.96024072 4294967295
0 0.238243 0.76983029 4294967295
0 0.44801864 0.94191021 4294967295
0 0.57720757 0.92381322 4294967295
0 0.14712213 0.025820859 4294967295
0 0.60617179 0.456424 4294967295
0 0.85416907 0.25568265 4294967295
0 0.92452514 0.71725929 4294967295
0 0.73958647 0.79935688 4294967295
0 0.2400023 0.96613145 4294967295
0 0.95267242 0.00015068101 4294967295
0 0.87938875 0.77184141 4294967295
0 0.6236974 0.88282663 4294967295
0 0.20273198 0.73100001 4294967295
0 0.32181987 0.32065618 4294967295
0 0.28304785 0.98188537 4294967295
0 0.28089687 0.52129084 4294967295
0 0.75171566 0.72891551 4294967295
0 0.46320105 0.32892326 4294967295
0 0.65272874 0.61032319 4294967295
0 0.35474411 0.25890052 4294967295
0 0.066747174 0.20891316 4294967295
0 0.51458317 0.99127233 4294967295
0 0.92617249 0.25416967 4294967295
0 0.79062921 0.16617477 4294967295
0 0.22030112 0.74330163 4294967295
0 0.16632545 0.099689849 4294967295
0 0.51514304 0.79002285 4294967295
0 0.98251647 0.717875 4294967295
0 0.52102286 0.30433634 4294967295
0 0.038531184 0.80407071 4294967295
0 0.28622171 0.31942806 4294967295
0 0.32536155 0.037937395 4294967295
0 0.048343588 0.7885626 4294967295
0 0.36686066 0.70107234 4294967295
0 0.39888579 0.72160476 4294967295
0 0.95997286 0.46563295 4294967295
0 0.93051791 0.474556 4294967295
0 0.45690528 0.85669041 4294967295
0 0.72872567 0.2475345 4294967295
0 0.022865169 0.94902682 4294967295
0 0.99083614 0.18919061 4294967295
0 0.048716653 0.50597918 4294967295
0 0.97921342 0.031233132 4294967295
0 0.22385417 0.50023627 4294967295
0 0.33556947 0.26238537 4294967295
0 0.30430698 0.62179118 4294967295
0 0.5818134 0.62966853 4294967295
0 0.65972859 0.63015699 4294967295
0 0.41823113 0.026589245 4294967295
0 0.33122933 0.81711692 4294967295
0 0.74819404 0.29120216 4294967295
0 0.28274986 0.67871195 4294967295
0 0.76575816 0.73965514 4294967295
0 0.53540236 0.49448386 4294967295
0 0.98718965 0.55826753 4294967295
0 0.44351065 0.97802579 4294967295
0 0.74745816 0.49222732 4294967295
0 0.48400491 0.72667158 4294967295
0 0.52346045 0.7078591 4294967295
0 0.22690785 0.85902995 4294967295
0 0.97024447 0.53121483 4294967295
0 0.4808211 0.55205786 4294967295
0 0.16088335 0.1405497 4294967295
0 0.18221487 0.5791145 4294967295
0 0.16713895 0.51344419 4294967295
0 0.39623141 0.91533297 4294967295
0 0.80464637 0.6789813 4294967295
0 0.59404492 0.57040453 4294967295
0 0.41863644 0.12944727 4294967295
0 0.06488841 0.40582609 4294967295
0 0.68771482 0.50839907 4294967295
0 0.38385186 0.43517295 4294967295
0 0.00062639173 0.86785674 4294967295
0 0.16184451 0.52408683 4294967295
0 0.57571584 0.38875237 4294967295
0 0.38311675 0.54596031 4294967295
0 0.91996717 0.86393785 4294967295
0 0.098018169 0.080850556 4294967295
0 0.0044875802 0.28023306 4294967295
0 0.65996504 0.17162652 4294967295
0 0.79367727 0.056196459 4294967295
0 0.086959496 0.59832364 4294967295
0 0.73517776 0.68100441 4294967295
0 0.16872817 0.15381418 4294967295
0 0.81045169 0.23361659 4294967295
0 0.55964023 0.49816647 4294967295
0 0.74201566 0.94349211 4294967295
0 0.93333942 0.74264205 4294967295
0 0.81134886 0.095183924 4294967295
0 0.26672891 0.38706473 4294967295
0 0.48393628 0.64984566 4294967295
0 0.93302506 0.40390348 4294967295
0 0.51378351 0.031043213 4294967295
0 0.48475406 0.51827109 4294967295
0 0.31127626 0.14471909 4294967295
0 0.68989766 0.10495351 4294967295
0 0.20091556 0.77685714 4294967295
0 0.70327711 0.93609327 4294967295
0 0.45786154 0.87200528 4294967295
0 0.089907475 0.26831323 4294967295
0 0.10562189 0.64954776 4294967295
0 0.76647973 0.84763753 4294967295
0 0.59303981 0.69981915 4294967295
0 0.59027958 0.40438873 4294967295
0 0.79500306 0.85700852 4294967295
0 0.79145342 0.27893937 4294967295
0 0.50685418 0.72447848 4294967295
0 0.68284285 0.020637684 4294967295
0 0.75552171 0.16759689 4294967295
0 0.53890878 0.066797964 4294967295
0 0.312316 0.22880644 4294967295
0 0.17175147 0.51323152 4294967295
0 0.0056635789 0.87502861 4294967295
0 0.44932485 0.46352515 4294967295
0 0.74703389 0.53923231 4294967295
0 0.73183835 0.85265583 4294967295
0 0.18878005 0.49831811 4294967295
0 0.70029336 0.78181988 4294967295
0 0.19813722 0.29057297 4294967295
0 0.18620861 0.99314028 4294967295
0 0.14758146 0.97766209 4294967295
0 0.27207965 0.65443563 4294967295
0 0.70214057 0.9549225 4294967295
0 0.67507327 0.45766225 4294967295
0 0.12251937 0.21398209 4294967295
0 0.5244602 0.43483537 4294967295
0 0.44278854 0.6962117 4294967295
0 0.94806689 0.44845212 4294967295
0 0.57124031 0.39739174 4294967295
0 0.91197723 0.31827423 4294967295
0 0.93662405 0.64381564 4294967295
0 0.17093003 0.12540412 4294967295
0 0.14213371 0.87122339 4294967295
0 0.907224 0.34027094 4294967295
0 0.16179635 0.093432635 4294967295
0 0.33341122 0.30937779 4294967295
0 0.071094692 0.60549086 4294967295
0 0.96381342 0.77323526 4294967295
0 0.56041336 0.63888669 4294967295
0 0.2308975 0.68293273 4294967295
0 0.8528688 0.75535774 4294967295
0 0.11776809 0.29565731 4294967295
0 0.45156944 0.065834992 4294967295
0 0.74410945 0.02280974 4294967295
0 0.46322674 0.65608668 4294967295
0 0.34108397 0.39985082 4294967295
0 0.29990229 0.51201397 4294967295
0 0.52525496 0.442036 4294967295
0 0.38323739 0.43247896 4294967295
0 0.78230691 0.54503375 4294967295
0 0.52591157 0.11571816 4294967295
0 0.85441154 0.59700626 4294967295
0 0.72120905 0.81822497 4294967295
0 0.37024152 0.28162238 4294967295
0 0.45711166 0.60113901 4294967295
0 0.96455508 0.30998045 4294967295
0 0.35649675 0.082323179 4294967295
0 0.60563779 0.80806619 4294967295
0 0.14815816 0.34974718 4294967295
0 0.83087593 0.61138493 4294967295
0 0.0058338647 0.17195989 4294967295
0 0.011235721 0.30573615 4294967295
0 0.68397391 0.53649068 4294967295
0 0.74777216 0.067211293 4294967295
0 0.96896964 0.53007907 4294967295
0 0.61224502 0.49488121 4294967295
0 0.64579725 0.46665657 4294967295
0 0.091887496 0.36700627 4294967295
0 0.28488153 0.46212903 4294967295
0 0.64862865 0.74199319 4294967295
0 0.063268058 0.61318374 4294967295
0 0.05197363 0.41976482 4294967295
0 0.69550693 0.65761137 4294967295
0 0.22783101 0.84366506 4294967295
0 0.0073585915 0.058706943 4294967295
0 0.45504999 0.013192456 4294967295
0 0.23066685 0.46628571 4294967295
0 0.3189286 0.91464072 4294967295
0 0.0027763662 0.066700749 4294967295
0 0.98185205 0.97174597 4294967295
0 0.59677982 0.59409708 4294967295
0 0.46662721 0.24257706 4294967295
0 0.060753636 0.55851471 4294967295
0 0.60958332 0.34563515 4294967295
0 0.020643722 0.25821194 4294967295
0 0.087628342 0.083911784 4294967295
0 0.87139565 0.13960198 4294967295
0 0.50367659 0.56690258 4294967295
0 0.79721338 0.7315076 4294967295
0 0.41056764 0.80457199 4294967295
0 0.79021454 0.86561763 4294967295
0 0.8177644 0.020881407 4294967295
0 0.33190334 0.13669302 4294967295
0 0.93552214 0.33467972 4294967295
0 0.20339377 0.91737419 4294967295
0 0.30642569 0.80017358 4294967295
0 0.51147127 0.77305287 4294967295
0 0.042750664 0.57222486 4294967295
0 0.33156759 0.65233397 4294967295
0 0.91786003 0.35221133 4294967295
0 0.91054595 0.0054883794 4294967295
0 0.4361231 0.78194159 4294967295
0 0.14509034 0.93979973 4294967295
0 0.3488442 0.94230372 4294967295
0 0.67130733 0.75941187 4294967295
0 0.74687564 0.46152189 4294967295
0 0.6250295 0.5646401 4294967295
0 0.48240328 0.95693284 4294967295
0 0.70133311 0.41792545 4294967295
0 0.29161254 0.90472686 4294967295
0 0.33529961 0.59803826 4294967295
0 0.7049005 0.84677088 4294967295
0 0.37109113 0.74765116 4294967295
0 0.41899574 0.70265871 4294967295
0 0.39998513 0.3368558 4294967295
0 0.054870032 0.31053108 4294967295
0 0.34234416 0.49099314 4294967295
0 0.09247268 0.48743451 4294967295
0 0.43079284 0.44131687 4294967295
0 0.42973822 0.10210016 4294967295
0 0.20072871 0.1766139 4294967295
0 0.56362206 0.82575822 4294967295
0 0.74125397 0.046025332 4294967295
0 0.782691 0.44258708 4294967295
0 0.46395078 0.074303567 4294967295
0 0.34731397 0.79925036 4294967295
0 0.67234182 0.05221444 4294967295
0 0.64602125 0.043432921 4294967295
0 0.7998656 0.065017007 4294967295
0 0.74609166 0.19985071 4294967295
0 0.40187278 0.80096167 4294967295
0 0.51038176 0.74421698 4294967295
0 0.29195482 0.60285443 4294967295
0 0.23165147 0.72274762 4294967295
0 0.044171326 0.66138971 4294967295
0 0.82484782 0.24490005 4294967295
0 0.83800358 0.38846985 4294967295
0 0.070658252 0.57925761 4294967295
0 0.43449515 0.85334927 4294967295
0 0.021844672 0.89844596 4294967295
0 0.92765284 0.36915863 4294967295
0 0.69769633 0.59999466 4294967295
0 0.42137307 0.34371758 4294967295
0 0.64342755 0.22123866 4294967295
0 0.40873459 0.38951918 4294967295
0 0.42108935 0.81060737 4294967295
0 0.19048087 0.93147111 4294967295
0 0.55482435 0.48243567 4294967295
0 0.5343256 0.78647584 4294967295
0 0.20518331 0.57849693 4294967295
0 0.44786552 0.0300311 4294967295
0 0.82339698 0.28586912 4294967295
0 0.41850093 0.89405519 4294967295
0 0.86512673 0.85299611 4294967295
0 0.74740446 0.88697135 4294967295
0 0.75144202 0.67505735 4294967295
0 0.25613001 0.44913837 4294967295
0 0.27505195 0.67750311 4294967295
0 0.79285598 0.9184795 4294967295
0 0.89874172 0.20159055 4294967295
0 0.30799872 0.3198311 4294967295
0 0.012197942 0.49847957 4294967295
0 0.25130224 0.56702232 4294967295
0 0.98091525 0.78562784 4294967295
0 0.35349813 0.18609856 4294967295
0 0.36412475 0.80136365 4294967295
0 0.21612966 0.1875217 4294967295
0 0.087232769 0.63463062 4294967295
0 0.081576899 0.9523595 4294967295
0 0.4876267 0.8289814 4294967295
