ply
format ascii 1.0
comment PCL generated
element vertex 1154
property float x
property float y
property float z
property uchar red
property uchar green
property uchar blue
property uchar alpha
element camera 0
property float view_px
property float view_py
property float view_pz
property float x_axisx
property float x_axisy
property float x_axisz
property float y_axisx
property float y_axisy
property float y_axisz
property float z_axisx
property float z_axisy
property float z_axisz
property float focal
property float scalex
property float scaley
property float centerx
property float centery
property int viewportx
property int viewporty
property float k1
property float k2
end_header
0.98554832 -0 0.82597291 255 255 255 255
0.27254683 -0 0.32843113 255 255 255 255
0.96281576 -0 0.92033213 255 255 255 255
0.17177698 -0 0.56444716 255 255 255 255
0.017122272 -0 0.23715281 255 255 255 255
0.73428404 -0 0.923069 255 255 255 255
0.90718865 -0 0.3679958 255 255 255 255
0.17436206 -0 0.21421933 255 255 255 255
0.89583409 -0 0.85430223 255 255 255 255
0.97481352 -0 0.32941198 255 255 255 255
0.3989546 -0 0.58767909 255 255 255 255
0.79175359 -0 0.86661708 255 255 255 255
0.34216607 -0 0.77435589 255 255 255 255
0.99488741 -0 0.8802458 255 255 255 255
0.59537315 -0 0.44202417 255 255 255 255
0.26799712 -0 0.37188277 255 255 255 255
0.70031393 -0 0.58092147 255 255 255 255
0.5012536 -0 0.54054391 255 255 255 255
0.1049911 -0 0.66312969 255 255 255 255
0.9002825 -0 0.67303061 255 255 255 255
0.59609956 -0 0.12211337 255 255 255 255
0.49010918 -0 0.63456655 255 255 255 255
0.84878588 -0 0.50328821 255 255 255 255
0.35759047 -0 0.66447121 255 255 255 255
0.99388319 -0 0.74461997 255 255 255 255
0.33229905 -0 0.33240399 255 255 255 255
0.19902106 -0 0.39283779 255 255 255 255
0.1671937 -0 0.12405267 255 255 255 255
0.0042984569 -0 0.54118711 255 255 255 255
0.98321128 -0 0.16208111 255 255 255 255
0.53396386 -0 0.5996716 255 255 255 255
0.18059309 -0 0.25120842 255 255 255 255
0.79175234 -0 0.2342778 255 255 255 255
0.89740747 -0 0.68184668 255 255 255 255
0.35487729 -0 0.89674348 255 255 255 255
0.018856823 -0 0.79768997 255 255 255 255
0.43225655 -0 0.95097685 255 255 255 255
0.45426509 -0 0.50896597 255 255 255 255
0.17343721 -0 0.28104243 255 255 255 255
0.02566243 -0 0.81185555 255 255 255 255
0.14425954 -0 0.1673204 255 255 255 255
0.56015819 -0 0.35796151 255 255 255 255
0.48201418 -0 0.34328061 255 255 255 255
0.88446772 -0 0.7273519 255 255 255 255
0.88943297 -0 0.48631263 255 255 255 255
0.085984252 -0 0.86767906 255 255 255 255
0.11888745 -0 0.42339686 255 255 255 255
0.65767467 -0 0.26657733 255 255 255 255
0.94842404 -0 0.91063982 255 255 255 255
0.80738324 -0 0.55508214 255 255 255 255
0.35277212 -0 0.30330133 255 255 255 255
0.25427821 -0 0.82624006 255 255 255 255
0.33520606 -0 0.7850287 255 255 255 255
0.066071115 -0 0.7085433 255 255 255 255
0.52039886 -0 0.50864327 255 255 255 255
0.67596364 -0 0.091733545 255 255 255 255
0.44969505 -0 0.66465837 255 255 255 255
0.0079389913 -0 0.23612186 255 255 255 255
0.96347374 -0 0.93170923 255 255 255 255
0.41802183 -0 0.8924067 255 255 255 255
0.76008576 -0 0.8529067 255 255 255 255
0.27630359 -0 0.50400609 255 255 255 255
0.77058345 -0 0.87897325 255 255 255 255
0.78961301 -0 0.93397826 255 255 255 255
0.4890604 -0 0.71900749 255 255 255 255
0.022308812 -0 0.59699631 255 255 255 255
0.42323637 -0 0.84183252 255 255 255 255
0.62686121 -0 0.27658701 255 255 255 255
0.98513031 -0 0.75844246 255 255 255 255
0.26708573 -0 0.69293231 255 255 255 255
0.78466582 -0 0.50552917 255 255 255 255
0.17018755 -0 0.94304937 255 255 255 255
0.17917125 -0 0.23436089 255 255 255 255
0.16607009 -0 0.17812654 255 255 255 255
0.070533268 -0 0.14264499 255 255 255 255
0.99555171 -0 0.5840919 255 255 255 255
0.088097997 -0 0.83061904 255 255 255 255
0.70959228 -0 0.27185532 255 255 255 255
0.20583357 -0 0.85868144 255 255 255 255
0.57768887 -0 0.49920529 255 255 255 255
0.096201584 -0 0.69489396 255 255 255 255
0.53672647 -0 0.5999977 255 255 255 255
0.87658471 -0 0.51943797 255 255 255 255
0.2778804 -0 0.16358767 255 255 255 255
0.85652 -0 0.86171502 255 255 255 255
0.36724418 -0 0.54496616 255 255 255 255
0.48801553 -0 0.64118582 255 255 255 255
0.87554669 -0 0.53743172 255 255 255 255
0.71555829 -0 0.6671868 255 255 255 255
0.80983174 -0 0.041616812 255 255 255 255
0.6257087 -0 0.78609151 255 255 255 255
0.61671054 -0 0.8053835 255 255 255 255
0.077238806 -0 0.71380675 255 255 255 255
0.57248813 -0 0.32630283 255 255 255 255
0.82550812 -0 0.28307238 255 255 255 255
0.97796631 -0 0.15017703 255 255 255 255
0.75017476 -0 0.92170972 255 255 255 255
0.44114766 -0 0.51469284 255 255 255 255
0.67828047 -0 0.62675947 255 255 255 255
0.48847446 -0 0.71902806 255 255 255 255
0.26399419 -0 0.53480047 255 255 255 255
0.17598632 -0 0.85571867 255 255 255 255
0.39315036 -0 0.75200975 255 255 255 255
0.41919649 -0 0.05153304 255 255 255 255
0.093149848 -0 0.10870863 255 255 255 255
0.89480019 -0 0.22902825 255 255 255 255
0.034411747 -0 0.7188586 255 255 255 255
0.43266532 -0 0.51151073 255 255 255 255
0.83781356 -0 0.11165055 255 255 255 255
0.39472291 -0 0.0051534474 255 255 255 255
0.15533048 -0 0.66332167 255 255 255 255
0.58503139 -0 0.37268925 255 255 255 255
0.88738209 -0 0.90550524 255 255 255 255
0.53226465 -0 0.026179021 255 255 255 255
0.74520707 -0 0.56566256 255 255 255 255
0.10046306 -0 0.020739131 255 255 255 255
0.87645775 -0 0.0092012854 255 255 255 255
0.76121098 -0 0.27644938 255 255 255 255
0.3279824 -0 0.26960814 255 255 255 255
0.37831679 -0 0.18040749 255 255 255 255
0.40943575 -0 0.42113227 255 255 255 255
0.13999084 -0 0.27311695 255 255 255 255
0.78462768 -0 0.44384751 255 255 255 255
0.55549806 -0 0.57265615 255 255 255 255
0.57780957 -0 0.62244123 255 255 255 255
0.28576291 -0 0.950221 255 255 255 255
0.32291022 -0 0.73314005 255 255 255 255
0.63864529 -0 0.8707943 255 255 255 255
0.89697331 -0 0.21029231 255 255 255 255
0.7759549 -0 0.17090996 255 255 255 255
0.19164908 -0 0.64218038 255 255 255 255
0.65138167 -0 0.87641793 255 255 255 255
0.1528673 -0 0.06810686 255 255 255 255
0.337715 -0 0.41259268 255 255 255 255
0.59300017 -0 0.48084971 255 255 255 255
0.90198195 -0 0.71603179 255 255 255 255
0.98914874 -0 0.0024359394 255 255 255 255
0.44628343 -0 0.041972812 255 255 255 255
0.61462897 -0 0.77377641 255 255 255 255
0.39621767 -0 0.001781499 255 255 255 255
0.95200247 -0 0.19243854 255 255 255 255
0.92557859 -0 0.68198061 255 255 255 255
0.55277485 -0 0.27491271 255 255 255 255
0.48520502 -0 0.56422389 255 255 255 255
0.73513389 -0 0.44974816 255 255 255 255
0.091928564 -0 0.2611599 255 255 255 255
0.13757782 -0 0.92678297 255 255 255 255
0.9948898 -0 0.74331021 255 255 255 255
0.15590292 -0 0.29044512 255 255 255 255
0.77129483 -0 0.3326048 255 255 255 255
0.048636585 -0 0.7489031 255 255 255 255
0.75133902 -0 0.67327678 255 255 255 255
0.7152496 -0 0.037785321 255 255 255 255
0.81156176 -0 0.19762249 255 255 255 255
0.19940399 -0 0.32987857 255 255 255 255
0.52231711 -0 0.20777941 255 255 255 255
0.88976002 -0 0.15140647 255 255 255 255
0.42631918 -0 0.44789577 255 255 255 255
0.012119662 -0 0.44253486 255 255 255 255
0.89228302 -0 0.91152418 255 255 255 255
0.17268407 -0 0.74725354 255 255 255 255
0.67403644 -0 0.98421162 255 255 255 255
0.72752184 -0 0.31026191 255 255 255 255
0.60070699 -0 0.6689263 255 255 255 255
0.0015310762 -0 0.88342476 255 255 255 255
0.63232785 -0 0.37200186 255 255 255 255
0.045278672 -0 0.050167665 255 255 255 255
0.087952986 -0 0.3836669 255 255 255 255
0.58128941 -0 0.76052833 255 255 255 255
0.09040688 -0 0.89951473 255 255 255 255
0.10729413 -0 0.78069335 255 255 255 255
0.93209982 -0 0.61272401 255 255 255 255
0.060619764 -0 0.9970541 255 255 255 255
0.43958899 -0 0.358419 255 255 255 255
0.26994318 -0 0.072739422 255 255 255 255
0.81999296 -0 0.33187202 255 255 255 255
0.31608361 -0 0.44262725 255 255 255 255
0.75288916 -0 0.49402943 255 255 255 255
0.16295569 -0 0.043605451 255 255 255 255
0.92703021 -0 0.35359618 255 255 255 255
0.72559804 -0 0.16448677 255 255 255 255
0.21465443 -0 0.55935806 255 255 255 255
0.94302499 -0 0.77087671 255 255 255 255
0.53140503 -0 0.30260742 255 255 255 255
0.20212214 -0 0.52431434 255 255 255 255
0.30500776 -0 0.62181187 255 255 255 255
0.2345359 -0 0.30941626 255 255 255 255
0.30647039 -0 0.23710759 255 255 255 255
0.59552664 -0 0.29515567 255 255 255 255
0.3678951 -0 0.74605936 255 255 255 255
0.077931404 -0 0.86546981 255 255 255 255
0.30809706 -0 0.18788804 255 255 255 255
0.68191743 -0 0.39401501 255 255 255 255
0.43762046 -0 0.060986225 255 255 255 255
0.4145824 -0 0.84487313 255 255 255 255
0.0093599111 -0 0.3646507 255 255 255 255
0.92400873 -0 0.14018045 255 255 255 255
0.91105717 -0 0.22401434 255 255 255 255
0.52662176 -0 0.86703372 255 255 255 255
0.39134809 -0 0.44246218 255 255 255 255
0.064274058 -0 0.72874391 255 255 255 255
0.038160156 -0 0.69635588 255 255 255 255
0.93346345 -0 0.29880995 255 255 255 255
0.59396565 -0 0.34463054 255 255 255 255
0.090689935 -0 0.52899009 255 255 255 255
0.39445987 -0 0.96186072 255 255 255 255
0.14974874 -0 0.16862135 255 255 255 255
0.56263638 -0 0.70255691 255 255 255 255
0.76354313 -0 0.83166623 255 255 255 255
0.67653936 -0 0.00025683595 255 255 255 255
0.36490753 -0 0.17812556 255 255 255 255
0.318306 -0 0.68589926 255 255 255 255
0.9099136 -0 0.28891629 255 255 255 255
0.15595001 -0 0.22936316 255 255 255 255
0.67182535 -0 0.43653536 255 255 255 255
0.16527924 -0 0.54729813 255 255 255 255
0.24365397 -0 0.73609942 255 255 255 255
0.034909356 -0 0.2034394 255 255 255 255
0.54806995 -0 0.17711742 255 255 255 255
0.7061075 -0 0.62887496 255 255 255 255
0.59073567 -0 0.63875991 255 255 255 255
0.80738121 -0 0.10056734 255 255 255 255
0.80312425 -0 0.74048442 255 255 255 255
0.57215065 -0 0.37001759 255 255 255 255
0.37027442 -0 0.56666744 255 255 255 255
0.744793 -0 0.24868999 255 255 255 255
0.93458927 -0 0.73518193 255 255 255 255
0.024098217 -0 0.063098982 255 255 255 255
0.29246214 -0 0.84450287 255 255 255 255
0.28103819 -0 0.18004823 255 255 255 255
0.72734636 -0 0.96428746 255 255 255 255
0.70038688 -0 0.44631743 255 255 255 255
0.64975685 -0 0.97100031 255 255 255 255
0.14811772 -0 0.73529625 255 255 255 255
0.36417121 -0 0.19782679 255 255 255 255
0.83658665 -0 0.85422522 255 255 255 255
0.95479256 -0 0.95490688 255 255 255 255
0.69539136 -0 0.64396787 255 255 255 255
0.013985482 -0 0.75791681 255 255 255 255
0.32458425 -0 0.26754197 255 255 255 255
0.51623195 -0 0.38425991 255 255 255 255
0.11944184 -0 0.069377229 255 255 255 255
0.13247621 -0 0.45082122 255 255 255 255
0.29532409 -0 0.14354007 255 255 255 255
0.32358828 -0 0.42493835 255 255 255 255
0.38922584 -0 0.57636225 255 255 255 255
0.022679722 -0 0.050934628 255 255 255 255
0.021934934 -0 0.089612737 255 255 255 255
0.82490897 -0 0.67243654 255 255 255 255
0.87026334 -0 0.17005266 255 255 255 255
0.02427787 -0 0.18908019 255 255 255 255
0.1439871 -0 0.70684999 255 255 255 255
0.35081792 -0 0.97907043 255 255 255 255
0.73698723 -0 0.83937848 255 255 255 255
0.10692044 -0 0.3648034 255 255 255 255
0.74906331 -0 0.06157149 255 255 255 255
0.13094872 -0 0.62315243 255 255 255 255
0.073973641 -0 0.86850512 255 255 255 255
0.012045214 -0 0.26342493 255 255 255 255
0.68836331 -0 0.36929771 255 255 255 255
0.94566 -0 0.33563352 255 255 255 255
0.38656813 -0 0.077589147 255 255 255 255
0.16720188 -0 0.96833974 255 255 255 255
0.64077628 -0 0.40850306 255 255 255 255
0.5785557 -0 0.99211085 255 255 255 255
0.18119104 -0 0.51103961 255 255 255 255
0.21788965 -0 0.60283357 255 255 255 255
0.58190399 -0 0.32517815 255 255 255 255
0.16455659 -0 0.56870759 255 255 255 255
0.93351096 -0 0.31889126 255 255 255 255
0.38046277 -0 0.27147704 255 255 255 255
0.89462942 -0 0.68257427 255 255 255 255
0.55107939 -0 0.51141149 255 255 255 255
0.77483642 -0 0.96860307 255 255 255 255
0.33790082 -0 0.5631246 255 255 255 255
0.89875811 -0 0.4631997 255 255 255 255
0.54078883 -0 0.28356081 255 255 255 255
0.25190052 -0 0.28532627 255 255 255 255
0.6938293 -0 0.70799071 255 255 255 255
0.70010155 -0 0.89267683 255 255 255 255
0.40371644 -0 0.27238506 255 255 255 255
0.87521863 -0 0.88129264 255 255 255 255
0.20647077 -0 0.62160611 255 255 255 255
0.19031365 -0 0.45712265 255 255 255 255
0.77601391 -0 0.37102738 255 255 255 255
0.64250439 -0 0.12382461 255 255 255 255
0.80639887 -0 0.15647668 255 255 255 255
0.66788816 -0 0.53713387 255 255 255 255
0.50573695 -0 0.35747829 255 255 255 255
0.92060292 -0 0.44272456 255 255 255 255
0.90592426 -0 0.84363776 255 255 255 255
0.12719855 -0 0.81936103 255 255 255 255
0.1046873 -0 0.44671306 255 255 255 255
0.1547038 -0 0.37909907 255 255 255 255
0.2717759 -0 0.79851663 255 255 255 255
0.070901677 -0 0.85480535 255 255 255 255
0.73609799 -0 0.67549235 255 255 255 255
0.29709843 -0 0.94612032 255 255 255 255
0.40324298 -0 0.94256872 255 255 255 255
0.3135961 -0 0.48741207 255 255 255 255
0.61123669 -0 0.1792569 255 255 255 255
0.33573356 -0 0.95610052 255 255 255 255
0.49323437 -0 0.41763556 255 255 255 255
0.77511382 -0 0.0036217212 255 255 255 255
0.44634625 -0 0.99897128 255 255 255 255
0.84260905 -0 0.69571674 255 255 255 255
0.51507777 -0 0.35227051 255 255 255 255
0.79898357 -0 0.96980762 255 255 255 255
0.34890667 -0 0.6197651 255 255 255 255
0.4182817 -0 0.95368737 255 255 255 255
0.80849272 -0 0.62068254 255 255 255 255
0.29617488 -0 0.4891834 255 255 255 255
0.43530372 -0 0.54459071 255 255 255 255
0.48715943 -0 0.59327328 255 255 255 255
0.080685385 -0 0.83854669 255 255 255 255
0.017803589 -0 0.80075556 255 255 255 255
0.75685608 -0 0.69192207 255 255 255 255
0.10955763 -0 0.35353717 255 255 255 255
0.3571589 -0 0.25009045 255 255 255 255
0.24906173 -0 0.88467145 255 255 255 255
0.58038825 -0 0.80350512 255 255 255 255
0.15577565 -0 0.091670781 255 255 255 255
0.061478376 -0 0.095466025 255 255 255 255
0.71523112 -0 0.95475924 255 255 255 255
0.90844661 -0 0.41038504 255 255 255 255
0.031067614 -0 0.13351282 255 255 255 255
0.62269622 -0 0.71693933 255 255 255 255
0.26153001 -0 0.32724249 255 255 255 255
0.92051584 -0 0.057999924 255 255 255 255
0.8965466 -0 0.74868947 255 255 255 255
0.54944503 -0 0.0012012008 255 255 255 255
0.69312328 -0 0.91435021 255 255 255 255
0.26788735 -0 0.30630109 255 255 255 255
0.55639154 -0 0.80268091 255 255 255 255
0.68735236 -0 0.62504625 255 255 255 255
0.42855141 -0 0.80545324 255 255 255 255
0.89712405 -0 0.26774061 255 255 255 255
0.36320662 -0 0.58432704 255 255 255 255
0.53908628 -0 0.95860243 255 255 255 255
0.36898747 -0 0.078437746 255 255 255 255
0.21195057 -0 0.44753286 255 255 255 255
0.16447219 -0 0.40005508 255 255 255 255
0.7272976 -0 0.83464682 255 255 255 255
0.89264673 -0 0.4260022 255 255 255 255
0.17469166 -0 0.64781338 255 255 255 255
0.64901459 -0 0.78919333 255 255 255 255
0.70354354 -0 0.72413665 255 255 255 255
0.03043776 -0 0.34213787 255 255 255 255
0.14481878 -0 0.9714309 255 255 255 255
0.59647715 -0 0.5868293 255 255 255 255
0.39228255 -0 0.83217114 255 255 255 255
0.099911757 -0 0.025028558 255 255 255 255
0.60935563 -0 0.2894066 255 255 255 255
0.24800901 -0 0.46311837 255 255 255 255
0.54155612 -0 0.14844191 255 255 255 255
0.5959748 -0 0.61699647 255 255 255 255
0.017051566 -0 0.75350672 255 255 255 255
0.58815348 -0 0.76044697 255 255 255 255
0.18644917 -0 0.74434918 255 255 255 255
0.39216256 -0 0.48080021 255 255 255 255
0.26999354 -0 0.36114082 255 255 255 255
0.08527749 -0 0.041177168 255 255 255 255
0.38331506 -0 0.97353709 255 255 255 255
0.94496799 -0 0.11571525 255 255 255 255
0.70254451 -0 0.52813381 255 255 255 255
0.36030498 -0 0.54144514 255 255 255 255
0.56647372 -0 0.094827093 255 255 255 255
0.38423368 -0 0.46021673 255 255 255 255
0.92333513 -0 0.17582931 255 255 255 255
0.3242712 -0 0.63224268 255 255 255 255
0.24923918 -0 0.46489125 255 255 255 255
0.21839796 -0 0.92024601 255 255 255 255
0.68069297 -0 0.26629075 255 255 255 255
0.010639902 -0 0.80655146 255 255 255 255
0.2873517 -0 0.86714214 255 255 255 255
0.22828294 -0 0.40280247 255 255 255 255
0.44397962 -0 0.55734521 255 255 255 255
0.5308823 -0 0.31356043 255 255 255 255
0.42927569 -0 0.82729465 255 255 255 255
0.35542849 -0 0.47585031 255 255 255 255
0.017295443 -0 0.13182023 255 255 255 255
0.22664732 -0 0.71573347 255 255 255 255
0.1759502 -0 0.58376914 255 255 255 255
0.75959843 -0 0.61088103 255 255 255 255
0.24312371 -0 0.099285312 255 255 255 255
0.56417656 -0 0.083869666 255 255 255 255
0.0041156574 -0 0.49236289 255 255 255 255
0.75865364 -0 0.78257453 255 255 255 255
0.58912599 -0 0.68480861 255 255 255 255
0.55195075 -0 0.76929355 255 255 255 255
0.172096 -0 0.87647766 255 255 255 255
0.43382293 -0 0.78023368 255 255 255 255
0.093794137 -0 0.61607563 255 255 255 255
0.44337031 -0 0.96470523 255 255 255 255
0.44055554 -0 0.5230698 255 255 255 255
0.65489006 -0 0.7987988 255 255 255 255
0.51453227 -0 0.45785099 255 255 255 255
0.041620128 -0 0.88153738 255 255 255 255
0.49241838 -0 0.69048244 255 255 255 255
0.7897678 -0 0.80121857 255 255 255 255
0.88508826 -0 0.73554212 255 255 255 255
0.22790498 -0 0.35394433 255 255 255 255
0.13651887 -0 0.88920391 255 255 255 255
0.57401252 -0 0.98655862 255 255 255 255
0.75585216 -0 0.72564489 255 255 255 255
0.60212255 -0 0.12596326 255 255 255 255
0.90619695 -0 0.92794812 255 255 255 255
0.54402375 -0 0.035945468 255 255 255 255
0.00065071182 -0 0.99999112 255 255 255 255
0.52306092 -0 0.98739409 255 255 255 255
0.78619283 -0 0.44120628 255 255 255 255
0.89905727 -0 0.17795098 255 255 255 255
0.059488364 -0 0.30072513 255 255 255 255
0.9912076 -0 0.9406774 255 255 255 255
0.74189597 -0 0.55190676 255 255 255 255
0.28744885 -0 0.78097534 255 255 255 255
0.1349197 -0 0.62698418 255 255 255 255
0.51618809 -0 0.5153538 255 255 255 255
0.50191242 -0 0.27143857 255 255 255 255
0.99708343 -0 0.090200618 255 255 255 255
0.21616387 -0 0.25776458 255 255 255 255
0.18571272 -0 0.59920597 255 255 255 255
0.63515145 -0 0.12236083 255 255 255 255
0.12235192 -0 0.72973651 255 255 255 255
0.71713054 -0 0.63580215 255 255 255 255
0.077008419 -0 0.64541286 255 255 255 255
0.82336384 -0 0.50332344 255 255 255 255
0.80404854 -0 0.9760657 255 255 255 255
0.91674304 -0 0.8828522 255 255 255 255
0.43475893 -0 0.79525614 255 255 255 255
0.57623148 -0 0.65863901 255 255 255 255
0.28562322 -0 0.72220778 255 255 255 255
0.23756161 -0 0.71115118 255 255 255 255
0.98258972 -0 0.80181134 255 255 255 255
0.89201194 -0 0.73947406 255 255 255 255
0.99723864 -0 0.97967321 255 255 255 255
0.57887918 -0 0.10817582 255 255 255 255
0.23053665 -0 0.18295138 255 255 255 255
0.9126879 -0 0.21403059 255 255 255 255
0.84983277 -0 0.35288858 255 255 255 255
0.99830145 -0 0.62981844 255 255 255 255
0.13314186 -0 0.92684114 255 255 255 255
0.90290684 -0 0.82166523 255 255 255 255
0.70451742 -0 0.93719041 255 255 255 255
0.73244655 -0 0.81964988 255 255 255 255
0.47828892 -0 0.13927637 255 255 255 255
0.86148417 -0 0.30867803 255 255 255 255
0.019829229 -0 0.76391214 255 255 255 255
0.56572348 -0 0.099045768 255 255 255 255
0.83851981 -0 0.0024189805 255 255 255 255
0.98209214 -0 0.45773542 255 255 255 255
0.56591123 -0 0.83575845 255 255 255 255
0.018709835 -0 0.56097132 255 255 255 255
0.77500188 -0 0.79644793 255 255 255 255
0.14933649 -0 0.93139768 255 255 255 255
0.56121612 -0 0.62483466 255 255 255 255
0.55167586 -0 0.14763792 255 255 255 255
0.96930319 -0 0.69435799 255 255 255 255
0.6315484 -0 0.45458266 255 255 255 255
0.27423257 -0 0.67382061 255 255 255 255
0.81309694 -0 0.36399499 255 255 255 255
0.67267305 -0 0.75252151 255 255 255 255
0.51643366 -0 0.67458111 255 255 255 255
0.77362686 -0 0.69250226 255 255 255 255
0.69492126 -0 0.082157142 255 255 255 255
0.53989255 -0 0.61214674 255 255 255 255
0.44790518 -0 0.6770134 255 255 255 255
0.23798472 -0 0.10580383 255 255 255 255
0.90225172 -0 0.46661502 255 255 255 255
0.39801273 -0 0.012986626 255 255 255 255
0.63782132 -0 0.051588234 255 255 255 255
0.19922614 -0 0.95922887 255 255 255 255
0.65358686 -0 0.18949711 255 255 255 255
0.6440798 -0 0.16852932 255 255 255 255
0.84234989 -0 0.2851353 255 255 255 255
0.64913028 -0 0.91831237 255 255 255 255
0.67083389 -0 0.65544689 255 255 255 255
0.330028 -0 0.3218033 255 255 255 255
0.014305552 -0 0.18726753 255 255 255 255
0.26942468 -0 0.10365488 255 255 255 255
0.7158016 -0 0.70922679 255 255 255 255
0.38624018 -0 0.80931723 255 255 255 255
0.91512108 -0 0.16370678 255 255 255 255
0.6303218 -0 0.6242249 255 255 255 255
0.6372115 -0 0.8173728 255 255 255 255
0.86896104 -0 0.028334506 255 255 255 255
0.98756337 -0 0.27503282 255 255 255 255
0.46452993 -0 0.0681872 255 255 255 255
0.23671651 -0 0.64115024 255 255 255 255
0.92628551 -0 0.10860972 255 255 255 255
0.026922084 -0 0.079066418 255 255 255 255
0.73451328 -0 0.57541579 255 255 255 255
0.89721912 -0 0.69775593 255 255 255 255
0.88502347 -0 0.064541288 255 255 255 255
0.16819617 -0 0.91152465 255 255 255 255
0.62075144 -0 0.15444815 255 255 255 255
0.96376538 -0 0.88399774 255 255 255 255
0.047704536 -0 0.0069916248 255 255 255 255
0.63121653 -0 0.87888646 255 255 255 255
0.69625932 -0 0.67802632 255 255 255 255
0.70636082 -0 0.26842803 255 255 255 255
0.54346085 -0 0.56522036 255 255 255 255
0.63340753 -0 0.69392419 255 255 255 255
0.33507442 -0 0.007990784 255 255 255 255
0.11660051 -0 0.87012404 255 255 255 255
0.9491905 -0 0.26135996 255 255 255 255
0.83677578 -0 0.14352259 255 255 255 255
0.84127855 -0 0.68370378 255 255 255 255
0.74824506 -0 0.73399484 255 255 255 255
0.6455195 -0 0.72630203 255 255 255 255
0.88075018 -0 0.9164412 255 255 255 255
0.800439 -0 0.26627097 255 255 255 255
0.27326259 -0 0.84451556 255 255 255 255
0.72340202 -0 0.84814352 255 255 255 255
0.52616984 -0 0.90447909 255 255 255 255
0.17290714 -0 0.41966134 255 255 255 255
0.9848817 -0 0.23253068 255 255 255 255
0.9264549 -0 0.71636802 255 255 255 255
0.7243588 -0 0.61828923 255 255 255 255
0.4884133 -0 0.26152933 255 255 255 255
0.52288926 -0 0.84095931 255 255 255 255
0.98448187 -0 0.43760377 255 255 255 255
0.12130755 -0 0.35966504 255 255 255 255
0.0936599 -0 0.82576042 255 255 255 255
0.55206245 -0 0.86955261 255 255 255 255
0.78599381 -0 0.73917943 255 255 255 255
0.0054503833 -0 0.4328126 255 255 255 255
0.27732816 -0 0.58643281 255 255 255 255
0.43457636 -0 0.27871296 255 255 255 255
0.18319207 -0 0.00073021837 255 255 255 255
0.42039156 -0 0.96074623 255 255 255 255
0.1932769 -0 0.35609922 255 255 255 255
0.07246723 -0 0.40527326 255 255 255 255
0.023562485 -0 0.11973178 255 255 255 255
0.38126111 -0 0.796826 255 255 255 255
0.63778532 -0 0.51197577 255 255 255 255
0.9495796 -0 0.90415037 255 255 255 255
0.2638154 -0 0.62226719 255 255 255 255
0.44802761 -0 0.070887126 255 255 255 255
0.94043976 -0 0.35747531 255 255 255 255
0.096654728 -0 9.0056565e-05 255 255 255 255
0.43290266 -0 0.72643358 255 255 255 255
0.31286642 -0 0.10210511 255 255 255 255
0.38081807 -0 0.71023083 255 255 255 255
0.71096104 -0 0.74744278 255 255 255 255
0.70818901 -0 0.56401014 255 255 255 255
0.92010939 -0 0.13135262 255 255 255 255
0.53662586 -0 0.90146589 255 255 255 255
0.021197671 -0 0.9925766 255 255 255 255
0.7894026 -0 0.56018835 255 255 255 255
0.072164133 -0 0.40245876 255 255 255 255
0.30660912 -0 0.42718795 255 255 255 255
0.049455132 -0 0.021743704 255 255 255 255
0.092630826 -0 0.57042456 255 255 255 255
0.92789984 -0 0.49748275 255 255 255 255
0.49757281 -0 0.033070564 255 255 255 255
0.75950414 -0 0.024554575 255 255 255 255
0.12665969 -0 0.93047547 255 255 255 255
0.6407063 -0 0.072370559 255 255 255 255
0.81981331 -0 0.50747776 255 255 255 255
0.071487926 -0 0.35166737 255 255 255 255
0.48301998 -0 0.52800232 255 255 255 255
0.42946821 -0 0.99159729 255 255 255 255
0.98417395 -0 0.019645855 255 255 255 255
0.57983422 -0 0.45066589 255 255 255 255
0.85312462 -0 0.77357656 255 255 255 255
0.20076451 -0 0.65199834 255 255 255 255
0.67374206 -0 0.15973379 255 255 255 255
0.73015833 -0 0.25021964 255 255 255 255
0.74770236 -0 0.76637286 255 255 255 255
0.79944342 -0 0.65805817 255 255 255 255
0.68261272 -0 0.24527518 255 255 255 255
0.17575066 -0 0.55894756 255 255 255 255
0.63131815 -0 0.80927241 255 255 255 255
0.3167502 -0 0.81645697 255 255 255 255
0.16812433 -0 0.45113146 255 255 255 255
0.97913378 -0 0.38823813 255 255 255 255
0.37983543 -0 0.65114433 255 255 255 255
0.6707902 -0 0.408602 255 255 255 255
0.85926789 -0 0.36400938 255 255 255 255
0.13758592 -0 0.25062439 255 255 255 255
0.90262276 -0 0.71239251 255 255 255 255
0.87212628 -0 0.33835042 255 255 255 255
0.58857006 -0 0.57636476 255 255 255 255
0.34273764 -0 0.60228461 255 255 255 255
0.26034281 -0 0.33627245 255 255 255 255
0.58154762 -0 0.14218108 255 255 255 255
0.70112866 -0 0.94295555 255 255 255 255
0.75222796 -0 0.75729829 255 255 255 255
0.57375526 -0 0.33244681 255 255 255 255
0.78357828 -0 0.068978176 255 255 255 255
0.45721632 -0 0.74187958 255 255 255 255
0.39302391 -0 0.76271206 255 255 255 255
0.17131406 -0 0.83705175 255 255 255 255
0.20106111 -0 0.063814089 255 255 255 255
0.31443849 -0 0.030581938 255 255 255 255
0.74297446 -0 0.33864704 255 255 255 255
0.67699748 -0 0.21706121 255 255 255 255
0.79342598 -0 0.6151008 255 255 255 255
0.2173854 -0 0.26556754 255 255 255 255
0.60183996 -0 0.13616364 255 255 255 255
0.27834472 -0 0.47772822 255 255 255 255
0.42068374 -0 0.18338759 255 255 255 255
0.94068587 -0 0.97947341 255 255 255 255
0.3119202 -0 0.17291173 255 255 255 255
0.24188991 -0 0.51444113 255 255 255 255
0.25632069 -0 0.095498472 255 255 255 255
0.8582105 -0 0.69910622 255 255 255 255
0.53615797 -0 0.64934456 255 255 255 255
0.71315867 -0 0.029524589 255 255 255 255
0.060106527 -0 0.7372191 255 255 255 255
0.075866126 -0 0.027597155 255 255 255 255
0.24465837 -0 0.80308098 255 255 255 255
0.41818178 -0 0.75286359 255 255 255 255
0.018431127 -0 0.038084358 255 255 255 255
0.174248 -0 0.63556719 255 255 255 255
0.11329537 -0 0.62027109 255 255 255 255
0.80365866 -0 0.45259273 255 255 255 255
0.43206611 -0 0.53397912 255 255 255 255
0.70689082 -0 0.74434453 255 255 255 255
0.25878564 -0 0.74398631 255 255 255 255
0.83948481 -0 0.94878078 255 255 255 255
0.64788699 -0 0.51510632 255 255 255 255
0.16445091 -0 0.69769531 255 255 255 255
0.72721994 -0 0.18404493 255 255 255 255
0.92126399 -0 0.87760961 255 255 255 255
0.90520674 -0 0.78732646 255 255 255 255
0.59040743 -0 0.99713016 255 255 255 255
0.74999374 -0 0.14986512 255 255 255 255
0.18794948 -0 0.0085891997 255 255 255 255
0.64415634 -0 0.76842487 255 255 255 255
0.38869596 -0 0.36219749 255 255 255 255
0.81479019 -0 0.75745171 255 255 255 255
0.29143086 -0 0.19235463 255 255 255 255
0.93669921 -0 0.24685633 255 255 255 255
0.99084264 -0 0.99832171 255 255 255 255
0.94710249 -0 0.19548483 255 255 255 255
0.71059114 -0 0.83032745 255 255 255 255
0.52802277 -0 0.59498942 255 255 255 255
0.77903438 -0 0.87504208 255 255 255 255
0.75265169 -0 0.25524271 255 255 255 255
0.042569149 -0 0.70029837 255 255 255 255
0.69742852 -0 0.65785843 255 255 255 255
0.80772352 -0 0.63297659 255 255 255 255
0.6415658 -0 0.44742227 255 255 255 255
0.21584712 -0 0.995673 255 255 255 255
0.35787049 -0 0.28572214 255 255 255 255
0.043173887 -0 0.60454309 255 255 255 255
0.79689771 -0 0.17266071 255 255 255 255
0.41951704 -0 0.33460474 255 255 255 255
0.33292645 -0 0.73359692 255 255 255 255
0.92908174 -0 0.41035971 255 255 255 255
0.24068716 -0 0.28002891 255 255 255 255
0.87501836 -0 0.63967294 255 255 255 255
0.51471502 -0 0.76870996 255 255 255 255
0.023952654 -0 0.65405267 255 255 255 255
0.35435107 -0 0.26736668 255 255 255 255
0.92522508 -0 0.066521801 255 255 255 255
0.69949841 -0 0.051779605 255 255 255 255
0.49920186 -0 0.73294866 255 255 255 255
0.72862166 -0 0.34106416 255 255 255 255
0.62678629 -0 0.71504897 255 255 255 255
0.31959209 -0 0.086492173 255 255 255 255
0.25915289 -0 0.6699602 255 255 255 255
0.0045649521 -0 0.11648981 255 255 255 255
0.85008669 -0 0.67866993 255 255 255 255
0.089029633 -0 0.33749139 255 255 255 255
0.61752033 -0 0.77916843 255 255 255 255
0.41884136 -0 0.3297168 255 255 255 255
0.098426744 -0 0.49253866 255 255 255 255
0.14659135 -0 0.93355638 255 255 255 255
0.20092303 -0 0.1223794 255 255 255 255
0.1889012 -0 0.50094247 255 255 255 255
0.55272204 -0 0.12614813 255 255 255 255
0.85909677 -0 0.8883996 255 255 255 255
0.22946376 -0 0.051923916 255 255 255 255
0.7669729 -0 0.58771843 255 255 255 255
0.67421061 -0 0.85625011 255 255 255 255
0.52621031 -0 0.086564988 255 255 255 255
0.20305479 -0 0.9333635 255 255 255 255
0.61203343 -0 0.53077525 255 255 255 255
0.86826664 -0 0.053141501 255 255 255 255
0.83230996 -0 0.7010631 255 255 255 255
0.030779872 -0 0.48578694 255 255 255 255
0.97832561 -0 0.25115132 255 255 255 255
0.18470767 -0 0.12920663 255 255 255 255
0.25158602 -0 0.12491696 255 255 255 255
0.62585938 -0 0.3856307 255 255 255 255
0.51177883 -0 0.44048724 255 255 255 255
0.32888681 -0 0.17858145 255 255 255 255
0.23050535 -0 0.37087563 255 255 255 255
0.95859408 -0 0.55835056 255 255 255 255
0.41460064 -0 0.99747825 255 255 255 255
0.084043249 -0 0.63280469 255 255 255 255
0.56616819 -0 0.94081092 255 255 255 255
0.47158617 -0 0.28709805 255 255 255 255
0.34023955 -0 0.17820166 255 255 255 255
0.87926471 -0 0.33985281 255 255 255 255
0.82563978 -0 0.1725495 255 255 255 255
0.42370081 -0 0.91004461 255 255 255 255
0.039251223 -0 0.80396539 255 255 255 255
0.9288823 -0 0.60840851 255 255 255 255
0.99403918 -0 0.29083726 255 255 255 255
0.73132449 -0 0.55474168 255 255 255 255
0.73332316 -0 0.50581807 255 255 255 255
0.87669367 -0 0.060211282 255 255 255 255
0.61856186 -0 0.9638285 255 255 255 255
0.96130675 -0 0.83528775 255 255 255 255
0.46809244 -0 0.033162504 255 255 255 255
0.97397345 -0 0.045350019 255 255 255 255
0.33244807 -0 0.034260642 255 255 255 255
0.21246229 -0 0.44555962 255 255 255 255
0.78541243 -0 0.67268759 255 255 255 255
0.84523708 -0 0.091727026 255 255 255 255
0.0017716279 -0 0.61105216 255 255 255 255
0.41501755 -0 0.26893792 255 255 255 255
0.8773464 -0 0.041022852 255 255 255 255
0.3318601 -0 0.34389985 255 255 255 255
0.89864159 -0 0.87138563 255 255 255 255
0.37720367 -0 0.063184567 255 255 255 255
0.12339585 -0 0.63196468 255 255 255 255
0.59579319 -0 0.25389731 255 255 255 255
0.089185052 -0 0.74195772 255 255 255 255
0.7751202 -0 0.5571 255 255 255 255
0.60245001 -0 0.5572775 255 255 255 255
0.59153813 -0 0.74909365 255 255 255 255
0.19465326 -0 0.93489808 255 255 255 255
0.60758567 -0 0.80400044 255 255 255 255
0.89572746 -0 0.9800657 255 255 255 255
0.59111786 -0 0.45282277 255 255 255 255
0.72176069 -0 0.89749908 255 255 255 255
0.93852192 -0 0.0061354009 255 255 255 255
0.35003525 -0 0.59910715 255 255 255 255
0.47049275 -0 0.27038202 255 255 255 255
0.33356658 -0 0.24867682 255 255 255 255
0.88064152 -0 0.84769642 255 255 255 255
0.10159372 -0 0.45696244 255 255 255 255
0.19892013 -0 0.47643477 255 255 255 255
0.033534739 -0 0.19077876 255 255 255 255
0.74805623 -0 0.97404033 255 255 255 255
0.72313398 -0 0.63598472 255 255 255 255
0.5708828 -0 0.33959436 255 255 255 255
0.14359479 -0 0.91778725 255 255 255 255
0.8978529 -0 0.17846848 255 255 255 255
0.63129127 -0 0.039322235 255 255 255 255
0.93682128 -0 0.48897076 255 255 255 255
0.49510616 -0 0.35305196 255 255 255 255
0.95215905 -0 0.8753432 255 255 255 255
0.14572525 -0 0.84514141 255 255 255 255
0.093818255 -0 0.4226518 255 255 255 255
0.27034819 -0 0.47929183 255 255 255 255
0.93625426 -0 0.97445977 255 255 255 255
0.45089453 -0 0.37194192 255 255 255 255
0.56272072 -0 0.13517441 255 255 255 255
0.10921475 -0 0.4844293 255 255 255 255
0.12041403 -0 0.31077692 255 255 255 255
0.65037131 -0 0.8323487 255 255 255 255
0.75013596 -0 0.69129682 255 255 255 255
0.86976528 -0 0.79396611 255 255 255 255
0.83328831 -0 0.64798886 255 255 255 255
0.13695966 -0 0.50105655 255 255 255 255
0.85410851 -0 0.77010965 255 255 255 255
0.64545286 -0 0.63206583 255 255 255 255
0.47720724 -0 0.80626756 255 255 255 255
0.22891937 -0 0.79117811 255 255 255 255
0.27046996 -0 0.57102549 255 255 255 255
0.54548532 -0 0.49926758 255 255 255 255
0.8712095 -0 0.20672423 255 255 255 255
0.34189865 -0 0.99637985 255 255 255 255
0.48080915 -0 0.43393019 255 255 255 255
0.74470711 -0 0.4511134 255 255 255 255
0.28346211 -0 0.60122317 255 255 255 255
0.29251999 -0 0.39507842 255 255 255 255
0.18904451 -0 0.033598091 255 255 255 255
0.68158698 -0 0.16228531 255 255 255 255
0.66334188 -0 0.022332836 255 255 255 255
0.79244244 -0 0.81854665 255 255 255 255
0.45061246 -0 0.51745039 255 255 255 255
0.32371795 -0 0.43789533 255 255 255 255
0.22907345 -0 0.92781973 255 255 255 255
0.49884522 -0 0.55263734 255 255 255 255
0.051904902 -0 0.49954343 255 255 255 255
0.70626765 -0 0.044330534 255 255 255 255
0.04071039 -0 0.92311442 255 255 255 255
0.35704458 -0 0.048166282 255 255 255 255
0.49927968 -0 0.52151954 255 255 255 255
0.1227427 -0 0.10175171 255 255 255 255
0.49683014 -0 0.78274179 255 255 255 255
0.81633991 -0 0.4152627 255 255 255 255
0.57754803 -0 0.68587464 255 255 255 255
0.70820749 -0 0.49792686 255 255 255 255
0.31647348 -0 0.24088988 255 255 255 255
0.75834024 -0 0.50064993 255 255 255 255
0.93854529 -0 0.76708597 255 255 255 255
0.6949057 -0 0.082058191 255 255 255 255
0.63469553 -0 0.16761874 255 255 255 255
0.66716212 -0 0.1937509 255 255 255 255
0.23808143 -0 0.68660039 255 255 255 255
0.60971481 -0 0.37342981 255 255 255 255
0.42159608 -0 0.27879182 255 255 255 255
0.80031133 -0 0.96675938 255 255 255 255
0.068511114 -0 0.92087573 255 255 255 255
0.70361757 -0 0.92305404 255 255 255 255
0.33831674 -0 0.56534123 255 255 255 255
0.25121588 -0 0.51995742 255 255 255 255
0.017884295 -0 0.91586477 255 255 255 255
0.15675463 -0 0.95942336 255 255 255 255
0.46007329 -0 0.3343578 255 255 255 255
0.10144375 -0 0.91509485 255 255 255 255
0.99715304 -0 0.39861858 255 255 255 255
0.56623733 -0 0.79634941 255 255 255 255
0.99010032 -0 0.63184857 255 255 255 255
0.31844899 -0 0.23339947 255 255 255 255
0.60682929 -0 0.22818175 255 255 255 255
0.50697356 -0 0.92816383 255 255 255 255
0.89492321 -0 0.028425343 255 255 255 255
0.94930112 -0 0.30728492 255 255 255 255
0.23033896 -0 0.96343434 255 255 255 255
0.52877557 -0 0.65291864 255 255 255 255
0.17287607 -0 0.56865573 255 255 255 255
0.48452047 -0 0.77999145 255 255 255 255
0.73941481 -0 0.19076037 255 255 255 255
0.52511817 -0 0.64127511 255 255 255 255
0.55636996 -0 0.19948812 255 255 255 255
0.59810668 -0 0.62656188 255 255 255 255
0.42291132 -0 0.55352306 255 255 255 255
0.18537165 -0 0.16434403 255 255 255 255
0.39774349 -0 0.41301164 255 255 255 255
0.64119339 -0 0.50382066 255 255 255 255
0.43198445 -0 0.0045727654 255 255 255 255
0.032998111 -0 0.14816695 255 255 255 255
0.45545188 -0 0.32690769 255 255 255 255
0.290342 -0 0.98229921 255 255 255 255
0.63521785 -0 0.68579084 255 255 255 255
0.25444657 -0 0.81911761 255 255 255 255
0.59910905 -0 0.80809391 255 255 255 255
0.99885428 -0 0.738967 255 255 255 255
0.38024214 -0 0.33852386 255 255 255 255
0.53801197 -0 0.52397245 255 255 255 255
0.15053436 -0 0.93661213 255 255 255 255
0.49013519 -0 0.13611871 255 255 255 255
0.30046272 -0 0.57344568 255 255 255 255
0.98645735 -0 0.67550683 255 255 255 255
0.17932749 -0 0.69820625 255 255 255 255
0.702779 -0 0.62765068 255 255 255 255
0.77581763 -0 0.61131197 255 255 255 255
0.93821961 -0 0.73577714 255 255 255 255
0.71807629 -0 0.23126952 255 255 255 255
0.91706038 -0 0.22856164 255 255 255 255
0.047679231 -0 0.35329416 255 255 255 255
0.16138808 -0 0.17150691 255 255 255 255
0.91047394 -0 0.6467883 255 255 255 255
0.98531216 -0 0.16024238 255 255 255 255
0.68421483 -0 0.29071608 255 255 255 255
0.22732821 -0 0.52332413 255 255 255 255
0.65944284 -0 0.83474916 255 255 255 255
0.40819487 -0 0.71746337 255 255 255 255
0.39297023 -0 0.95990556 255 255 255 255
0.65811181 -0 0.39465219 255 255 255 255
0.02230289 -0 0.57229769 255 255 255 255
0.18360966 -0 0.36089084 255 255 255 255
0.096667938 -0 0.79812056 255 255 255 255
0.029390069 -0 0.12182929 255 255 255 255
0.35039091 -0 0.81474423 255 255 255 255
0.16803841 -0 0.94645041 255 255 255 255
0.11795734 -0 0.39807016 255 255 255 255
0.044858437 -0 0.3294265 255 255 255 255
0.48966888 -0 0.028431278 255 255 255 255
0.31914735 -0 0.03017059 255 255 255 255
0.55349475 -0 0.17388371 255 255 255 255
0.0086328909 -0 0.54647559 255 255 255 255
0.26393896 -0 0.21293759 255 255 255 255
0.17284317 -0 0.41682777 255 255 255 255
0.81147993 -0 0.65690917 255 255 255 255
0.2292069 -0 0.83095503 255 255 255 255
0.19184583 -0 0.83378285 255 255 255 255
0.63190335 -0 0.41281658 255 255 255 255
0.53464586 -0 0.28851378 255 255 255 255
0.10325802 -0 0.66129345 255 255 255 255
0.60774386 -0 0.88503677 255 255 255 255
0.28310692 -0 0.27129644 255 255 255 255
0.60072297 -0 0.72570121 255 255 255 255
0.75413251 -0 0.32796538 255 255 255 255
0.35813597 -0 0.09039183 255 255 255 255
0.26427552 -0 0.07327985 255 255 255 255
0.61975539 -0 0.91163069 255 255 255 255
0.12456829 -0 0.27290842 255 255 255 255
0.68973619 -0 0.88369435 255 255 255 255
0.54060358 -0 0.29741147 255 255 255 255
0.12836647 -0 0.50121611 255 255 255 255
0.33499897 -0 0.7698105 255 255 255 255
0.18262705 -0 0.3202123 255 255 255 255
0.60872608 -0 0.96690232 255 255 255 255
0.62819576 -0 0.71727294 255 255 255 255
0.6023097 -0 0.7119841 255 255 255 255
0.98328054 -0 0.23593967 255 255 255 255
0.96164089 -0 0.88541663 255 255 255 255
0.21338201 -0 0.58400345 255 255 255 255
0.67439532 -0 0.71577334 255 255 255 255
0.7890532 -0 0.57151794 255 255 255 255
0.48314866 -0 0.93867081 255 255 255 255
0.21157926 -0 0.40880862 255 255 255 255
0.292503 -0 0.60771698 255 255 255 255
0.90512842 -0 0.90131545 255 255 255 255
0.40253156 -0 0.83310658 255 255 255 255
0.60291708 -0 0.033494901 255 255 255 255
0.35370719 -0 0.73753053 255 255 255 255
0.70443285 -0 0.7855441 255 255 255 255
0.50281703 -0 0.96243328 255 255 255 255
0.67441738 -0 0.33262864 255 255 255 255
0.56856829 -0 0.10512672 255 255 255 255
0.99054337 -0 0.65769792 255 255 255 255
0.24170138 -0 0.53020918 255 255 255 255
0.24598254 -0 0.20392536 255 255 255 255
0.77544332 -0 0.91609669 255 255 255 255
0.8547675 -0 0.035035755 255 255 255 255
0.44384438 -0 0.25859198 255 255 255 255
0.86630893 -0 0.066346779 255 255 255 255
0.96766222 -0 0.73634738 255 255 255 255
0.56945395 -0 0.77143735 255 255 255 255
0.8049323 -0 0.37019378 255 255 255 255
0.1077243 -0 0.17237104 255 255 255 255
0.95791519 -0 0.15863948 255 255 255 255
0.12107274 -0 0.81215715 255 255 255 255
0.14478579 -0 0.46073219 255 255 255 255
0.5658589 -0 0.79549009 255 255 255 255
0.453188 -0 0.71335411 255 255 255 255
0.24356325 -0 0.55640227 255 255 255 255
0.76032764 -0 0.69488937 255 255 255 255
0.61098605 -0 0.48954579 255 255 255 255
0.52458155 -0 0.53577095 255 255 255 255
0.7943629 -0 0.46575356 255 255 255 255
0.53210032 -0 0.96842593 255 255 255 255
0.70477337 -0 0.66067189 255 255 255 255
0.43210924 -0 0.49976256 255 255 255 255
0.86995631 -0 0.27422732 255 255 255 255
0.44659838 -0 0.2370415 255 255 255 255
0.39568096 -0 0.97768062 255 255 255 255
0.78983778 -0 0.40451354 255 255 255 255
0.8652457 -0 0.51675373 255 255 255 255
0.31224382 -0 0.9346236 255 255 255 255
0.64797765 -0 0.43110463 255 255 255 255
0.98750693 -0 0.76543182 255 255 255 255
0.46032119 -0 0.89154094 255 255 255 255
0.38108671 -0 0.7478345 255 255 255 255
0.28360546 -0 0.071307242 255 255 255 255
0.5370608 -0 0.90566826 255 255 255 255
0.87409419 -0 0.077968374 255 255 255 255
0.73864025 -0 0.069161147 255 255 255 255
0.56892371 -0 0.57886755 255 255 255 255
0.85309488 -0 0.17074947 255 255 255 255
0.40779096 -0 0.43888006 255 255 255 255
0.41656068 -0 0.29969323 255 255 255 255
0.70420676 -0 0.80347192 255 255 255 255
0.32022566 -0 0.20639847 255 255 255 255
0.14102204 -0 0.56945246 255 255 255 255
0.00055712648 -0 0.63246948 255 255 255 255
0.3979013 -0 0.78899974 255 255 255 255
0.68054062 -0 0.98806405 255 255 255 255
0.73589855 -0 0.85822248 255 255 255 255
0.92952973 -0 0.06162734 255 255 255 255
0.96729559 -0 0.019504 255 255 255 255
0.09747237 -0 0.46659052 255 255 255 255
0.5357517 -0 0.84138983 255 255 255 255
0.42025736 -0 0.83611262 255 255 255 255
0.0068620681 -0 0.10467539 255 255 255 255
0.54355544 -0 0.27335221 255 255 255 255
0.57304543 -0 0.41465303 255 255 255 255
0.21812497 -0 0.96011615 255 255 255 255
0.16651459 -0 0.2772522 255 255 255 255
0.84670472 -0 0.53835058 255 255 255 255
0.17082007 -0 0.30753663 255 255 255 255
0.096536338 -0 0.84726185 255 255 255 255
0.83532584 -0 0.56872135 255 255 255 255
0.42694384 -0 0.77707696 255 255 255 255
0.83870429 -0 0.57122439 255 255 255 255
0.5907284 -0 0.35647357 255 255 255 255
0.82306409 -0 0.80599993 255 255 255 255
0.64738971 -0 0.68820077 255 255 255 255
0.52431339 -0 0.35881579 255 255 255 255
0.46349117 -0 0.067647062 255 255 255 255
0.34099928 -0 0.53117543 255 255 255 255
0.9458285 -0 0.0070466129 255 255 255 255
0.96716273 -0 0.91404474 255 255 255 255
0.19129694 -0 0.16395344 255 255 255 255
0.70230407 -0 0.13367732 255 255 255 255
0.44121397 -0 0.038001627 255 255 255 255
0.88526344 -0 0.87312412 255 255 255 255
0.44184548 -0 0.5377503 255 255 255 255
0.31482726 -0 0.72058928 255 255 255 255
0.2918137 -0 0.86878932 255 255 255 255
0.22526288 -0 0.15353157 255 255 255 255
0.95953149 -0 0.88254207 255 255 255 255
0.57074285 -0 0.048326984 255 255 255 255
0.40714276 -0 0.6069212 255 255 255 255
0.67456824 -0 0.095056243 255 255 255 255
0.62623167 -0 0.87063396 255 255 255 255
0.87768054 -0 0.015567528 255 255 255 255
0.92961228 -0 0.57206017 255 255 255 255
0.73601359 -0 0.84484327 255 255 255 255
0.97852063 -0 0.12090918 255 255 255 255
0.15891081 -0 0.43831763 255 255 255 255
0.31144175 -0 0.41973457 255 255 255 255
0.95748484 -0 0.044174261 255 255 255 255
0.76476353 -0 0.75328726 255 255 255 255
0.62207657 -0 0.27231213 255 255 255 255
0.42584369 -0 0.056577262 255 255 255 255
0.93911934 -0 0.84733945 255 255 255 255
0.89566642 -0 0.38537517 255 255 255 255
0.99229634 -0 0.50986224 255 255 255 255
0.60491848 -0 0.30280921 255 255 255 255
0.17344314 -0 0.66686463 255 255 255 255
0.68243217 -0 0.23115015 255 255 255 255
0.80321032 -0 0.051123694 255 255 255 255
0.89596701 -0 0.61204439 255 255 255 255
0.73295361 -0 0.53922391 255 255 255 255
0.97754151 -0 0.87448758 255 255 255 255
0.29422215 -0 0.89186442 255 255 255 255
0.93603867 -0 0.28898329 255 255 255 255
0.042270537 -0 0.25170702 255 255 255 255
0.52401912 -0 0.70080221 255 255 255 255
0.75737947 -0 0.66434711 255 255 255 255
0.51168656 -0 0.94986284 255 255 255 255
0.33523801 -0 0.69649881 255 255 255 255
0.20636107 -0 0.40735298 255 255 255 255
0.71016222 -0 0.32753438 255 255 255 255
0.99439901 -0 0.81127954 255 255 255 255
0.042429686 -0 0.88360536 255 255 255 255
0.93472904 -0 0.67683113 255 255 255 255
0.28887555 -0 0.84564 255 255 255 255
0.38486388 -0 0.83069599 255 255 255 255
0.70518363 -0 0.021829126 255 255 255 255
0.91369349 -0 0.36240542 255 255 255 255
0.6513887 -0 0.99940574 255 255 255 255
0.25111279 -0 0.84973216 255 255 255 255
0.55053437 -0 0.69365925 255 255 255 255
0.35800636 -0 0.77513194 255 255 255 255
0.72499478 -0 0.30791384 255 255 255 255
0.0044126906 -0 0.86969292 255 255 255 255
0.27704591 -0 0.0602328 255 255 255 255
0.3877672 -0 0.21077375 255 255 255 255
0.02205329 -0 0.98720813 255 255 255 255
0.87081343 -0 0.38216621 255 255 255 255
0.058997348 -0 0.064482972 255 255 255 255
0.91012299 -0 0.80554247 255 255 255 255
0.63623846 -0 0.34787288 255 255 255 255
0.36970201 -0 0.29498684 255 255 255 255
0.65739226 -0 0.34142208 255 255 255 255
0.34082785 -0 0.28339553 255 255 255 255
0.1331277 -0 0.30878097 255 255 255 255
0.0024402328 -0 0.59194064 255 255 255 255
0.36707255 -0 0.68366206 255 255 255 255
0.99157596 -0 0.3604466 255 255 255 255
0.23013949 -0 0.092067316 255 255 255 255
0.15230012 -0 0.99598861 255 255 255 255
0.20676237 -0 0.5071854 255 255 255 255
0.4943935 -0 0.54006732 255 255 255 255
0.92223352 -0 0.22881567 255 255 255 255
0.29329863 -0 0.36520693 255 255 255 255
0.17074941 -0 0.98123085 255 255 255 255
0.32910374 -0 0.20342161 255 255 255 255
0.49840847 -0 0.80698788 255 255 255 255
0.14840996 -0 0.69880575 255 255 255 255
0.98220128 -0 0.15580072 255 255 255 255
0.4645817 -0 0.48923782 255 255 255 255
0.081178427 -0 0.115329 255 255 255 255
0.79899108 -0 0.46702194 255 255 255 255
0.82746851 -0 0.44825098 255 255 255 255
0.54031831 -0 0.79056698 255 255 255 255
0.78655565 -0 0.057608023 255 255 255 255
0.56479341 -0 0.69261843 255 255 255 255
0.23268571 -0 0.99331802 255 255 255 255
0.22213368 -0 0.059186935 255 255 255 255
0.42439386 -0 0.15491922 255 255 255 255
0.13615008 -0 0.5154323 255 255 255 255
0.71885395 -0 0.59514326 255 255 255 255
0.40213117 -0 0.46525383 255 255 255 255
0.16405958 -0 0.21726239 255 255 255 255
0.37306309 -0 0.55054116 255 255 255 255
0.039778948 -0 0.14626089 255 255 255 255
0.26158988 -0 0.83764482 255 255 255 255
0.30466673 -0 0.12095737 255 255 255 255
0.56920832 -0 0.060580961 255 255 255 255
0.85114795 -0 0.13213527 255 255 255 255
0.1897433 -0 0.10952663 255 255 255 255
0.802145 -0 0.6377036 255 255 255 255
0.63102162 -0 0.75453675 255 255 255 255
0.81372362 -0 0.034830749 255 255 255 255
0.18974997 -0 0.85315531 255 255 255 255
0.36858761 -0 0.23811753 255 255 255 255
0.83326083 -0 0.32590005 255 255 255 255
0.79115385 -0 0.087441541 255 255 255 255
0.30470392 -0 0.23539199 255 255 255 255
0.78593314 -0 0.95521343 255 255 255 255
0.10147433 -0 0.67776704 255 255 255 255
0.51541185 -0 0.82571208 255 255 255 255
0.94666946 -0 0.36306423 255 255 255 255
0.42364517 -0 0.82007855 255 255 255 255
0.95221382 -0 0.51587778 255 255 255 255
0.62540442 -0 0.27479315 255 255 255 255
0.91249675 -0 0.14195712 255 255 255 255
0.89649385 -0 0.42754945 255 255 255 255
0.4623802 -0 0.54351836 255 255 255 255
0.39667365 -0 0.71021748 255 255 255 255
0.94833505 -0 0.65213019 255 255 255 255
0.9780302 -0 0.76526129 255 255 255 255
0.8527028 -0 0.78159583 255 255 255 255
0.016987823 -0 0.76918411 255 255 255 255
0.72439754 -0 0.15740673 255 255 255 255
0.83517379 -0 0.80292094 255 255 255 255
0.62863302 -0 0.82587188 255 255 255 255
0.18893607 -0 0.35058558 255 255 255 255
0.17066416 -0 0.57530248 255 255 255 255
0.091180265 -0 0.61258125 255 255 255 255
0.8873744 -0 0.12287799 255 255 255 255
0.26483512 -0 0.71658468 255 255 255 255
0.14413413 -0 0.79987115 255 255 255 255
0.34338951 -0 0.16132896 255 255 255 255
0.87154645 -0 0.60651433 255 255 255 255
0.25864449 -0 0.74006319 255 255 255 255
0.50532442 -0 0.8198815 255 255 255 255
0.60147732 -0 0.23667471 255 255 255 255
0.0058587999 -0 0.35802728 255 255 255 255
0.51543403 -0 0.61846513 255 255 255 255
0.42138609 -0 0.73025632 255 255 255 255
0.5561282 -0 0.35060775 255 255 255 255
0.70119333 -0 0.050019115 255 255 255 255
0.62532157 -0 0.74506426 255 255 255 255
0.35764551 -0 0.87185752 255 255 255 255
0.99473548 -0 0.71650183 255 255 255 255
0.43308654 -0 0.24501993 255 255 255 255
0.044891074 -0 0.25957063 255 255 255 255
0.42089957 -0 0.57722068 255 255 255 255
0.18373498 -0 0.3882806 255 255 255 255
0.12834378 -0 0.29244602 255 255 255 255
0.1123275 -0 0.44237947 255 255 255 255
0.6790542 -0 0.63366824 255 255 255 255
0.99169546 -0 0.71380484 255 255 255 255
0.33226997 -0 0.68491298 255 255 255 255
0.41516933 -0 0.50712949 255 255 255 255
0.85773724 -0 0.75365603 255 255 255 255
0.80367517 -0 0.9712975 255 255 255 255
0.71636182 -0 0.55893064 255 255 255 255
0.43078813 -0 0.42899674 255 255 255 255
0.1454986 -0 0.074007317 255 255 255 255
0.31902725 -0 0.42552364 255 255 255 255
0.68509424 -0 0.57858515 255 255 255 255
0.1558058 -0 0.3639183 255 255 255 255
0.75219893 -0 0.10599382 255 255 255 255
0.39843985 -0 0.33954078 255 255 255 255
0.78192025 -0 0.8805427 255 255 255 255
0.51421094 -0 0.51076734 255 255 255 255
0.22457217 -0 0.46097445 255 255 255 255
0.14588746 -0 0.5059064 255 255 255 255
