ply
format ascii 1.0
comment PCL generated
element vertex 947
property float x
property float y
property float z
property uchar red
property uchar green
property uchar blue
property uchar alpha
element camera 0
property float view_px
property float view_py
property float view_pz
property float x_axisx
property float x_axisy
property float x_axisz
property float y_axisx
property float y_axisy
property float y_axisz
property float z_axisx
property float z_axisy
property float z_axisz
property float focal
property float scalex
property float scaley
property float centerx
property float centery
property int viewportx
property int viewporty
property float k1
property float k2
end_header
0.56376696 -0.17578712 0.36589518 255 255 255 255
0.83714896 -0.43343031 0.86863357 255 255 255 255
0.38467985 -0.14186247 0.65326595 255 255 255 255
0.64047074 -0.1157557 0.012238915 255 255 255 255
0.44029474 -0.1694538 0.56497264 255 255 255 255
0.40906584 -0.038449742 0.11928096 255 255 255 255
0.94261009 -0.28324977 0.33626348 255 255 255 255
0.90663385 -0.36116576 0.58601552 255 255 255 255
0.76347446 -0.15424961 0.071103886 255 255 255 255
0.40377975 -0.22551176 0.97465789 255 255 255 255
0.39082742 -0.18806446 0.84329146 255 255 255 255
0.77683169 -0.1808897 0.15540338 255 255 255 255
0.79223514 -0.14967801 0.034942817 255 255 255 255
0.55780405 -0.24902827 0.7029044 255 255 255 255
0.74084002 -0.3565737 0.78509879 255 255 255 255
0.7629593 -0.35348085 0.74292016 255 255 255 255
0.87401867 -0.34233764 0.56947005 255 255 255 255
0.80224997 -0.39589155 0.813263 255 255 255 255
0.45812902 -0.079433635 0.033578485 255 255 255 255
0.93277138 -0.17046417 0.017826529 255 255 255 255
0.51111984 -0.12392846 0.18145889 255 255 255 255
0.96079618 -0.22330318 0.15420491 255 255 255 255
0.8750242 -0.33381635 0.54407734 255 255 255 255
0.90402263 -0.24153437 0.24793653 255 255 255 255
0.42662379 -0.17769809 0.6517064 255 255 255 255
0.40433228 -0.16447249 0.6695329 255 255 255 255
0.32333946 -0.052066777 0.75846332 255 255 255 255
0.72181779 -0.33182627 0.73443383 255 255 255 255
0.59175885 -0.25603667 0.66983587 255 255 255 255
0.87181515 -0.28678319 0.41042984 255 255 255 255
0.64616859 -0.21266283 0.4108538 255 255 255 255
0.46467012 -0.15098542 0.40237558 255 255 255 255
0.66811943 -0.31839004 0.77399886 255 255 255 255
0.85314411 -0.1839141 0.10826041 255 255 255 255
0.45319173 -0.10612798 0.18959039 255 255 255 255
0.53524828 -0.23025432 0.66382587 255 255 255 255
0.85427356 -0.43579134 0.85137665 255 255 255 255
0.62606043 -0.15850314 0.21036768 255 255 255 255
0.64085335 -0.31516731 0.8093822 255 255 255 255
0.70665431 -0.34948796 0.81577414 255 255 255 255
0.48698905 -0.10795868 0.12501307 255 255 255 255
0.78456604 -0.31605926 0.59709209 255 255 255 255
0.47041276 -0.23710157 0.83747095 255 255 255 255
0.86624825 -0.26376411 0.34674898 255 255 255 255
0.90254599 -0.22189155 0.19061364 255 255 255 255
0.4896948 -0.1382232 0.28812304 255 255 255 255
0.72650397 -0.29817533 0.61572343 255 255 255 255
0.3324044 -0.052773975 0.6896112 255 255 255 255
0.90676022 -0.29133946 0.39060315 255 255 255 255
0.33572999 -0.092950046 0.76508999 255 255 255 255
0.44533411 -0.084837317 0.10696362 255 255 255 255
0.43277189 -0.12100861 0.33723024 255 255 255 255
0.45825824 -0.21224722 0.74258602 255 255 255 255
0.39577568 -0.16426416 0.70578414 255 255 255 255
0.61006951 -0.34561521 0.97661626 255 255 255 255
0.5314467 -0.12598968 0.16684276 255 255 255 255
0.50843316 -0.16628522 0.40552747 255 255 255 255
0.90665871 -0.30236664 0.42216557 255 255 255 255
0.82807887 -0.25033748 0.34103259 255 255 255 255
0.3020876 -0.048417173 0.92281359 255 255 255 255
0.88974607 -0.16458124 0.023993062 255 255 255 255
0.41744086 -0.1442505 0.51464278 255 255 255 255
0.83737075 -0.36635548 0.68148553 255 255 255 255
0.61312139 -0.19829826 0.39612287 255 255 255 255
0.79674578 -0.16359143 0.080148369 255 255 255 255
0.48563161 -0.12837929 0.24038528 255 255 255 255
0.35127774 -0.12415503 0.76911575 255 255 255 255
0.55307114 -0.19129811 0.45398256 255 255 255 255
0.38546994 -0.0018641587 0.23708859 255 255 255 255
0.30125955 -0.016875239 0.89754182 255 255 255 255
0.3842054 -0.05218165 0.31601673 255 255 255 255
0.32370827 -0.12678896 0.96040797 255 255 255 255
0.70260292 -0.17538525 0.20079327 255 255 255 255
0.64045882 -0.28012383 0.68118012 255 255 255 255
0.6138919 -0.30744219 0.83010453 255 255 255 255
0.65290844 -0.32121611 0.80980688 255 255 255 255
0.75217062 -0.33992183 0.71596098 255 255 255 255
0.67737305 -0.31243899 0.73807818 255 255 255 255
0.39231139 -0.1042133 0.44702652 255 255 255 255
0.76238871 -0.19009121 0.20002247 255 255 255 255
0.49202019 -0.24406143 0.81916136 255 255 255 255
0.47548342 -0.26289928 0.94693094 255 255 255 255
0.43594187 -0.13532095 0.39962795 255 255 255 255
0.91247946 -0.18457358 0.071765982 255 255 255 255
0.74744368 -0.24868017 0.42013374 255 255 255 255
0.83392352 -0.31399181 0.5316267 255 255 255 255
0.7138567 -0.1603719 0.13308002 255 255 255 255
0.66963047 -0.29166609 0.67680734 255 255 255 255
0.39604712 -0.17335574 0.74881679 255 255 255 255
0.74235618 -0.17096199 0.14844474 255 255 255 255
0.81413555 -0.25271636 0.36224496 255 255 255 255
0.41405699 -0.068550982 0.18390086 255 255 255 255
0.88114041 -0.25434604 0.30505383 255 255 255 255
0.40151066 -0.082926139 0.30941457 255 255 255 255
0.97090638 -0.2053602 0.097141564 255 255 255 255
0.59312356 -0.21481565 0.49546084 255 255 255 255
0.88991708 -0.22049165 0.19578689 255 255 255 255
0.69865149 -0.2025256 0.30829272 255 255 255 255
0.42099649 -0.20444156 0.80790323 255 255 255 255
0.63598084 -0.34034017 0.9076556 255 255 255 255
0.34374344 -0.018230274 0.55591446 255 255 255 255
0.38719285 -0.087114848 0.40837109 255 255 255 255
0.48656526 -0.20573735 0.6460197 255 255 255 255
0.91673201 -0.26917839 0.31818643 255 255 255 255
0.5926373 -0.27995816 0.76428783 255 255 255 255
0.74264252 -0.14504817 0.052575819 255 255 255 255
0.66583806 -0.15394023 0.15089619 255 255 255 255
0.8024053 -0.3505207 0.67987537 255 255 255 255
0.36888719 -0.057265542 0.4330672 255 255 255 255
0.73900843 -0.30003005 0.60483307 255 255 255 255
0.42785132 -0.10316445 0.26799113 255 255 255 255
0.39328325 -0.13637823 0.58484226 255 255 255 255
0.64432609 -0.31650662 0.80806255 255 255 255 255
0.37652406 -0.16809484 0.81536597 255 255 255 255
0.76744348 -0.38209015 0.82337606 255 255 255 255
0.45215228 -0.22887117 0.84238464 255 255 255 255
0.81663406 -0.40174922 0.80976123 255 255 255 255
0.55171609 -0.30119011 0.93153942 255 255 255 255
0.52279043 -0.11993992 0.14606686 255 255 255 255
0.88573676 -0.36914167 0.63122648 255 255 255 255
0.53871888 -0.15848683 0.31967324 255 255 255 255
0.37034506 -0.014635943 0.35248557 255 255 255 255
0.32927221 -0.037293747 0.68882233 255 255 255 255
0.68888146 -0.33285424 0.78944695 255 255 255 255
0.56333351 -0.31770465 0.9710902 255 255 255 255
0.45333067 -0.18423142 0.60746604 255 255 255 255
0.91539413 -0.33954933 0.5175724 255 255 255 255
0.4436284 -0.17315054 0.57471883 255 255 255 255
0.85026485 -0.15019535 0.00088456925 255 255 255 255
0.60721016 -0.17567053 0.30677798 255 255 255 255
0.36607134 -0.15779252 0.82300937 255 255 255 255
0.6006996 -0.18765678 0.36743236 255 255 255 255
0.66881919 -0.26638827 0.58586067 255 255 255 255
0.88400823 -0.38139796 0.66686898 255 255 255 255
0.70351976 -0.23096277 0.40874025 255 255 255 255
0.82758224 -0.17035364 0.081578963 255 255 255 255
0.54668784 -0.11879935 0.11300941 255 255 255 255
0.6060667 -0.17411683 0.30144119 255 255 255 255
0.77809387 -0.26599655 0.4436667 255 255 255 255
0.84605008 -0.26944169 0.3832562 255 255 255 255
0.34595844 -0.12948017 0.82318878 255 255 255 255
0.4459576 -0.1564796 0.47961253 255 255 255 255
0.55619329 -0.10373668 0.028247755 255 255 255 255
0.75918722 -0.17794421 0.15956528 255 255 255 255
0.69631422 -0.37346891 0.91034669 255 255 255 255
0.88705844 -0.41712162 0.75921619 255 255 255 255
0.63264906 -0.13615701 0.1072889 255 255 255 255
0.45734841 -0.12125696 0.25872493 255 255 255 255
0.78161913 -0.36060849 0.73833746 255 255 255 255
0.7572484 -0.26960406 0.47986576 255 255 255 255
0.76336217 -0.30335391 0.58362347 255 255 255 255
0.92880225 -0.22851744 0.19111034 255 255 255 255
0.95445752 -0.17777716 0.027550016 255 255 255 255
0.72637773 -0.37550494 0.86684752 255 255 255 255
0.73937464 -0.32695848 0.69277334 255 255 255 255
0.52638584 -0.093383066 0.0029924354 255 255 255 255
0.36042246 -0.14655784 0.80550325 255 255 255 255
0.84135526 -0.28687048 0.44137225 255 255 255 255
0.43791577 -0.14859295 0.4625001 255 255 255 255
0.57810521 -0.17244717 0.33048481 255 255 255 255
0.70257324 -0.14540389 0.08464016 255 255 255 255
0.30468816 -0.051428307 0.9062109 255 255 255 255
0.83282018 -0.33613777 0.59898424 255 255 255 255
0.47429097 -0.1318083 0.27779818 255 255 255 255
0.75890356 -0.28051931 0.51431042 255 255 255 255
0.63169205 -0.31823224 0.83689678 255 255 255 255
0.73651671 -0.24694932 0.42679855 255 255 255 255
0.71079367 -0.35891601 0.8395772 255 255 255 255
0.70925456 -0.38042772 0.91040385 255 255 255 255
0.85835862 -0.34415501 0.59240478 255 255 255 255
0.62890303 -0.24788518 0.57560599 255 255 255 255
0.9186812 -0.26336357 0.29981554 255 255 255 255
0.7603994 -0.23035224 0.34267214 255 255 255 255
0.84339833 -0.15198152 0.010757387 255 255 255 255
0.78553003 -0.31852806 0.60361409 255 255 255 255
0.71815795 -0.2797977 0.56430614 255 255 255 255
0.43018943 -0.10327987 0.25870115 255 255 255 255
0.36440688 -0.080764063 0.53032058 255 255 255 255
0.90793186 -0.32507434 0.48496553 255 255 255 255
0.35229951 -0.17838179 0.98938745 255 255 255 255
0.56937408 -0.24530078 0.66538012 255 255 255 255
0.70192981 -0.20140876 0.30050397 255 255 255 255
0.29995355 -0.045289885 0.93588722 255 255 255 255
0.89666456 -0.26867998 0.33402595 255 255 255 255
0.35676903 -0.045863479 0.49421492 255 255 255 255
0.96877897 -0.21790259 0.13381465 255 255 255 255
0.30427462 -0.056601785 0.91819179 255 255 255 255
0.83265615 -0.24303181 0.31356114 255 255 255 255
0.60409242 -0.19147913 0.37935254 255 255 255 255
0.38981581 -0.014979666 0.21221687 255 255 255 255
0.72706509 -0.26829216 0.51272082 255 255 255 255
0.57334286 -0.14073466 0.18956715 255 255 255 255
0.82001138 -0.41706443 0.84791291 255 255 255 255
0.71290129 -0.3110922 0.67876232 255 255 255 255
0.59364349 -0.15995613 0.25400496 255 255 255 255
0.56461084 -0.11954664 0.09774179 255 255 255 255
0.37017563 -0.17647427 0.88606393 255 255 255 255
0.91162062 -0.18945728 0.087017775 255 255 255 255
0.38277662 -0.07698527 0.39933175 255 255 255 255
0.76531875 -0.26327839 0.44919008 255 255 255 255
0.50532758 -0.20923315 0.62461114 255 255 255 255
0.37437075 -0.0049780612 0.31824747 255 255 255 255
0.35431606 -0.10277735 0.67059445 255 255 255 255
0.41404352 -0.18426515 0.73014492 255 255 255 255
0.59174472 -0.13215712 0.1294767 255 255 255 255
0.39776385 -0.12504399 0.51035941 255 255 255 255
0.7246654 -0.21476568 0.32539991 255 255 255 255
0.84400904 -0.43608448 0.86622977 255 255 255 255
0.40593892 -0.087339438 0.30275208 255 255 255 255
0.53159475 -0.29623324 0.95644546 255 255 255 255
0.82276392 -0.21627706 0.23639736 255 255 255 255
0.33531472 -0.1387347 0.92680901 255 255 255 255
0.44045693 -0.25423592 0.99969739 255 255 255 255
0.88389307 -0.2103081 0.16918737 255 255 255 255
0.48534417 -0.094443426 0.051497594 255 255 255 255
0.90994769 -0.3891848 0.65782034 255 255 255 255
0.68386966 -0.20769081 0.34467521 255 255 255 255
0.36067814 -0.097514234 0.61075795 255 255 255 255
0.78363085 -0.23145491 0.3227573 255 255 255 255
0.72481298 -0.4071151 0.96610898 255 255 255 255
0.3119621 -0.050615232 0.84612215 255 255 255 255
0.52253348 -0.12080641 0.15088512 255 255 255 255
0.7588281 -0.22093982 0.3116703 255 255 255 255
0.72471976 -0.20760664 0.29925701 255 255 255 255
0.48466 -0.15768063 0.40109614 255 255 255 255
0.57188582 -0.11932513 0.089289322 255 255 255 255
0.33636373 -0.026880497 0.62091851 255 255 255 255
0.69283795 -0.35829189 0.86725706 255 255 255 255
0.35124338 -0.0080169393 0.49261346 255 255 255 255
0.40279135 -0.22394511 0.97064608 255 255 255 255
0.61462933 -0.11639895 0.036185902 255 255 255 255
0.3413952 -0.13374405 0.86862183 255 255 255 255
0.48377711 -0.14019716 0.30807155 255 255 255 255
0.50977331 -0.12492059 0.18845358 255 255 255 255
0.76679373 -0.16323626 0.10089082 255 255 255 255
0.83852172 -0.26990232 0.39211318 255 255 255 255
0.45179778 -0.12165782 0.27658966 255 255 255 255
0.81581426 -0.21775328 0.24723576 255 255 255 255
0.50051558 -0.1729441 0.45308322 255 255 255 255
0.87534887 -0.34706509 0.58138597 255 255 255 255
0.29354936 -0.031323336 0.9731546 255 255 255 255
0.90498191 -0.25162217 0.27690583 255 255 255 255
0.70868528 -0.32723466 0.739254 255 255 255 255
0.66846204 -0.35634845 0.90307492 255 255 255 255
0.63353503 -0.26584327 0.63819206 255 255 255 255
0.5057925 -0.11670187 0.14962605 255 255 255 255
0.48838532 -0.27376443 0.96364081 255 255 255 255
0.34858823 -0.10506188 0.71628553 255 255 255 255
0.72030902 -0.17143409 0.16936876 255 255 255 255
0.37023878 -0.074819349 0.47308967 255 255 255 255
0.4209227 -0.073730096 0.16747691 255 255 255 255
0.34049892 -0.098437667 0.74886286 255 255 255 255
0.5601992 -0.27357838 0.80144954 255 255 255 255
0.71340168 -0.1994615 0.28102887 255 255 255 255
0.55567098 -0.22345565 0.59534335 255 255 255 255
0.42693806 -0.12072596 0.3584573 255 255 255 255
0.49339995 -0.095104665 0.045508422 255 255 255 255
0.31782639 -0.0048577408 0.75619125 255 255 255 255
0.88516766 -0.37276143 0.64184558 255 255 255 255
0.71811503 -0.39469236 0.9397099 255 255 255 255
0.38667914 -0.037802309 0.26662129 255 255 255 255
0.82308602 -0.23526685 0.29758972 255 255 255 255
0.51588726 -0.27101332 0.88572454 255 255 255 255
0.75130308 -0.3840121 0.85364258 255 255 255 255
0.40460649 -0.070078045 0.24327618 255 255 255 255
0.44995189 -0.20192438 0.70905417 255 255 255 255
0.45889997 -0.1390138 0.35089973 255 255 255 255
0.69440567 -0.16551611 0.17033321 255 255 255 255
0.40643266 -0.081140265 0.27497348 255 255 255 255
0.49052167 -0.10982855 0.13102317 255 255 255 255
0.75696987 -0.22082628 0.31316158 255 255 255 255
0.85316944 -0.27339435 0.38839126 255 255 255 255
0.61859083 -0.15120405 0.18678264 255 255 255 255
0.49210346 -0.1344256 0.26392382 255 255 255 255
0.47727022 -0.15071365 0.37626052 255 255 255 255
0.32662463 -0.07285016 0.77689087 255 255 255 255
0.48661995 -0.21888191 0.71091199 255 255 255 255
0.70650017 -0.24986012 0.47382987 255 255 255 255
0.78420049 -0.35840598 0.7280997 255 255 255 255
0.84274083 -0.35608634 0.64528471 255 255 255 255
0.84268367 -0.47854772 0.9795804 255 255 255 255
0.63680297 -0.1606234 0.20783262 255 255 255 255
0.69459188 -0.18170658 0.23300782 255 255 255 255
0.72084987 -0.13568707 0.033008542 255 255 255 255
0.48557448 -0.22818999 0.75853109 255 255 255 255
0.45702338 -0.16643825 0.50351942 255 255 255 255
0.86499929 -0.22670494 0.23430771 255 255 255 255
0.32870838 -0.11303643 0.8786543 255 255 255 255
0.60864401 -0.30166534 0.81823158 255 255 255 255
0.53517962 -0.10982069 0.079815522 255 255 255 255
0.67770541 -0.25784817 0.54152185 255 255 255 255
0.62540829 -0.25888729 0.62435371 255 255 255 255
0.746427 -0.37909275 0.84624732 255 255 255 255
0.69941318 -0.3658334 0.88060802 255 255 255 255
0.42880651 -0.16831046 0.59570765 255 255 255 255
0.69704944 -0.218339 0.36961442 255 255 255 255
0.29973981 -0.055612464 0.9534322 255 255 255 255
0.87087792 -0.15798378 0.014103366 255 255 255 255
0.66851068 -0.17476538 0.23253332 255 255 255 255
0.49805489 -0.28704929 0.99782997 255 255 255 255
0.80268687 -0.26107505 0.4008595 255 255 255 255
0.68765175 -0.12316743 0.0077372584 255 255 255 255
0.30064195 -0.042332027 0.92622006 255 255 255 255
0.64149332 -0.25862777 0.59787887 255 255 255 255
0.52024752 -0.18244572 0.46626356 255 255 255 255
0.5927009 -0.28559959 0.78638077 255 255 255 255
0.73962039 -0.28251895 0.54528862 255 255 255 255
0.53950894 -0.14781597 0.26610169 255 255 255 255
0.45777047 -0.19939156 0.67683357 255 255 255 255
0.554645 -0.11351935 0.078349777 255 255 255 255
0.47649556 -0.23593645 0.81711411 255 255 255 255
0.3048217 -0.060329653 0.92044735 255 255 255 255
0.52842146 -0.21609969 0.61211348 255 255 255 255
0.39651 -0.19783874 0.86686701 255 255 255 255
0.75517303 -0.42605582 0.97154772 255 255 255 255
0.32001752 -0.12897734 0.99356008 255 255 255 255
0.8560968 -0.17170158 0.067048095 255 255 255 255
0.54202443 -0.10741694 0.060474023 255 255 255 255
0.33876246 -0.11190972 0.80584168 255 255 255 255
0.79431409 -0.21409847 0.25424707 255 255 255 255
0.60400945 -0.15291847 0.21035917 255 255 255 255
0.66125119 -0.33864012 0.85589522 255 255 255 255
0.69486058 -0.19888201 0.29860526 255 255 255 255
0.51426393 -0.11710493 0.1414143 255 255 255 255
0.44205388 -0.087895378 0.13491794 255 255 255 255
0.41925797 -0.055263031 0.10646563 255 255 255 255
0.70971251 -0.21113826 0.32838249 255 255 255 255
0.33279341 -0.003622235 0.63552761 255 255 255 255
0.43311563 -0.1874956 0.68134826 255 255 255 255
0.67212927 -0.19103287 0.29331174 255 255 255 255
0.49165007 -0.10938282 0.12714688 255 255 255 255
0.6402092 -0.18886487 0.32181594 255 255 255 255
0.42371553 -0.12190422 0.37739754 255 255 255 255
0.82076734 -0.30485317 0.51881182 255 255 255 255
0.81055737 -0.25745454 0.38106155 255 255 255 255
0.43535933 -0.23096728 0.8979075 255 255 255 255
0.71854907 -0.38651755 0.91382128 255 255 255 255
0.89747775 -0.43371695 0.7896359 255 255 255 255
0.5809564 -0.10608843 0.017437739 255 255 255 255
0.35227802 -0.0788626 0.60697085 255 255 255 255
0.48924625 -0.22712527 0.74511921 255 255 255 255
0.60471183 -0.21360232 0.47273737 255 255 255 255
0.77214974 -0.36435884 0.76307464 255 255 255 255
0.62176532 -0.22428843 0.49179086 255 255 255 255
0.51781195 -0.15659821 0.34132615 255 255 255 255
0.35421848 -0.072305836 0.57480341 255 255 255 255
0.62704462 -0.23258716 0.51755649 255 255 255 255
0.38282084 -0.09639325 0.46957278 255 255 255 255
0.95337945 -0.22810675 0.17278516 255 255 255 255
0.39696428 -0.1980685 0.86612278 255 255 255 255
0.78993636 -0.36957723 0.75364363 255 255 255 255
0.46875197 -0.21741515 0.74413365 255 255 255 255
0.3538619 -0.11710758 0.72591519 255 255 255 255
0.76171815 -0.15282615 0.067241356 255 255 255 255
0.34784395 -0.11386196 0.75250375 255 255 255 255
0.4445481 -0.12638974 0.32409036 255 255 255 255
0.56050283 -0.21022995 0.52798772 255 255 255 255
0.3442893 -0.02107445 0.55394703 255 255 255 255
0.30818427 -0.10006464 0.98779362 255 255 255 255
0.41334915 -0.16395913 0.63015157 255 255 255 255
0.48852059 -0.091291562 0.029530507 255 255 255 255
0.33318871 -0.12829757 0.90164679 255 255 255 255
0.35989541 -0.11879639 0.69480336 255 255 255 255
0.43937576 -0.12200651 0.31843135 255 255 255 255
0.82330006 -0.44406652 0.91706318 255 255 255 255
0.38657647 -0.12449658 0.56538379 255 255 255 255
0.62698931 -0.35347039 0.97062439 255 255 255 255
0.45876047 -0.075416923 0.010735666 255 255 255 255
0.82951421 -0.15831818 0.040266175 255 255 255 255
0.9234823 -0.18541959 0.067653313 255 255 255 255
0.622302 -0.12705103 0.076954685 255 255 255 255
0.50778478 -0.19889131 0.569475 255 255 255 255
0.32365468 -0.10163831 0.87801546 255 255 255 255
0.45860544 -0.2041451 0.69979578 255 255 255 255
0.34822366 -0.02242272 0.52491081 255 255 255 255
0.88692671 -0.41892132 0.76413649 255 255 255 255
0.71722049 -0.29329455 0.61206174 255 255 255 255
0.60229129 -0.1811631 0.33703762 255 255 255 255
0.35671654 -0.12961459 0.75705135 255 255 255 255
0.7706027 -0.22870955 0.32652628 255 255 255 255
0.53871006 -0.24257286 0.71206534 255 255 255 255
0.54753959 -0.21999028 0.59446293 255 255 255 255
0.6660853 -0.31752479 0.77436352 255 255 255 255
0.41288322 -0.092830569 0.28987658 255 255 255 255
0.66576606 -0.20086476 0.33944049 255 255 255 255
0.71390861 -0.324788 0.72314245 255 255 255 255
0.8456037 -0.20809045 0.19124682 255 255 255 255
0.72499877 -0.34594995 0.7754612 255 255 255 255
0.33877409 -0.05503764 0.64570355 255 255 255 255
0.39922363 -0.11576537 0.46084195 255 255 255 255
0.53524595 -0.13700832 0.21789326 255 255 255 255
0.51409966 -0.17914848 0.46059662 255 255 255 255
0.38375008 -0.065516211 0.35632914 255 255 255 255
0.66700757 -0.36996946 0.95079207 255 255 255 255
0.60699069 -0.32535309 0.90958768 255 255 255 255
0.83896399 -0.27002746 0.39205986 255 255 255 255
0.34582537 -0.086523682 0.67463893 255 255 255 255
0.87544185 -0.41994277 0.7813338 255 255 255 255
0.6222173 -0.19535898 0.37154216 255 255 255 255
0.33706403 -0.089889906 0.74641454 255 255 255 255
0.54007584 -0.27730235 0.8589133 255 255 255 255
0.61378896 -0.34771889 0.97660398 255 255 255 255
0.50569797 -0.12543987 0.19656004 255 255 255 255
0.53058738 -0.22582154 0.65274638 255 255 255 255
0.73923892 -0.18019688 0.18496296 255 255 255 255
0.41878858 -0.13650976 0.47038847 255 255 255 255
0.92668891 -0.27601206 0.3293018 255 255 255 255
0.4038054 -0.087527581 0.31509146 255 255 255 255
0.33420449 -0.14837918 0.97133917 255 255 255 255
0.90081549 -0.34117144 0.53717464 255 255 255 255
0.89757782 -0.21113947 0.16185874 255 255 255 255
0.80119276 -0.44169483 0.94339001 255 255 255 255
0.7150864 -0.38679439 0.92046064 255 255 255 255
0.83561176 -0.45210847 0.92078221 255 255 255 255
0.38648549 -0.17468324 0.79837 255 255 255 255
0.56001931 -0.26584706 0.76970923 255 255 255 255
0.58263987 -0.12470157 0.10403349 255 255 255 255
0.41202962 -0.053363111 0.14256921 255 255 255 255
0.79564542 -0.19680755 0.19467838 255 255 255 255
0.83109152 -0.28751343 0.45414492 255 255 255 255
0.66943592 -0.20912404 0.36741012 255 255 255 255
0.67228544 -0.34262866 0.85027784 255 255 255 255
0.57327837 -0.23608431 0.61912864 255 255 255 255
0.32965654 -0.13711633 0.95765173 255 255 255 255
0.49458253 -0.11542623 0.15683097 255 255 255 255
0.4733845 -0.16631486 0.46789891 255 255 255 255
0.87314874 -0.2962704 0.43713602 255 255 255 255
0.76678663 -0.2435835 0.38116911 255 255 255 255
0.87770414 -0.36297691 0.62338346 255 255 255 255
0.43407407 -0.071510181 0.092738502 255 255 255 255
0.72993666 -0.26261821 0.48939145 255 255 255 255
0.34197029 -0.13036142 0.85198402 255 255 255 255
0.58317524 -0.20581953 0.47197104 255 255 255 255
0.83180356 -0.3966783 0.77479899 255 255 255 255
0.95459706 -0.17944561 0.032312404 255 255 255 255
0.50815886 -0.13733916 0.25619477 255 255 255 255
0.68217289 -0.24279983 0.47958621 255 255 255 255
0.9011879 -0.16804768 0.028141432 255 255 255 255
0.41220504 -0.14588903 0.54432261 255 255 255 255
0.62410808 -0.28177869 0.71493548 255 255 255 255
0.42055807 -0.072852835 0.16578017 255 255 255 255
0.31983894 -0.011866626 0.74186146 255 255 255 255
0.38932413 -0.11450497 0.50708604 255 255 255 255
0.74305528 -0.13999265 0.033477027 255 255 255 255
0.45130965 -0.18068036 0.5937525 255 255 255 255
0.73781526 -0.38025191 0.8632735 255 255 255 255
0.45609412 -0.11121829 0.20812528 255 255 255 255
0.68277097 -0.25162315 0.5115236 255 255 255 255
0.94004405 -0.2246556 0.1720342 255 255 255 255
0.34147799 -0.08911705 0.71290261 255 255 255 255
0.44664347 -0.07441356 0.050796539 255 255 255 255
0.8277058 -0.37673503 0.72364646 255 255 255 255
0.42027724 -0.11219449 0.34443799 255 255 255 255
0.78332365 -0.29608423 0.53529096 255 255 255 255
0.82781249 -0.44310316 0.90794027 255 255 255 255
0.37371302 -0.18249303 0.89628804 255 255 255 255
0.40254918 -0.012166412 0.1209425 255 255 255 255
0.73799616 -0.15349226 0.087458394 255 255 255 255
0.50418741 -0.15927806 0.37659365 255 255 255 255
0.47059152 -0.22383921 0.77191663 255 255 255 255
0.36273712 -0.049762286 0.45897624 255 255 255 255
0.79006225 -0.2883237 0.50244731 255 255 255 255
0.37896109 -0.18588302 0.8869071 255 255 255 255
0.87906158 -0.17635165 0.067186482 255 255 255 255
0.95222569 -0.21009129 0.12209715 255 255 255 255
0.3083488 -0.010215908 0.83551931 255 255 255 255
0.31675619 -0.077391535 0.86288446 255 255 255 255
0.42907408 -0.058043152 0.062283807 255 255 255 255
0.71532106 -0.24320243 0.43887746 255 255 255 255
0.84883785 -0.44839597 0.8922559 255 255 255 255
0.92765492 -0.24255522 0.2326576 255 255 255 255
0.6163435 -0.31381208 0.84914881 255 255 255 255
0.40945095 -0.015015313 0.076223314 255 255 255 255
0.31586269 -0.095514648 0.91725177 255 255 255 255
0.38358545 -0.035046909 0.28282565 255 255 255 255
0.45411396 -0.12748453 0.30121082 255 255 255 255
0.74744576 -0.25460806 0.4405385 255 255 255 255
0.64580673 -0.1680944 0.22947793 255 255 255 255
0.58902836 -0.31582355 0.90995967 255 255 255 255
0.76095003 -0.25397798 0.4228586 255 255 255 255
0.60532451 -0.25156265 0.6283474 255 255 255 255
0.44162798 -0.20767644 0.76105684 255 255 255 255
0.47460008 -0.23917246 0.83728015 255 255 255 255
0.70524067 -0.26824266 0.54123116 255 255 255 255
0.68717003 -0.30584595 0.69964564 255 255 255 255
0.69672465 -0.29018316 0.63057703 255 255 255 255
0.7587685 -0.22457704 0.32437375 255 255 255 255
0.70328677 -0.36673829 0.87701952 255 255 255 255
0.95492339 -0.19397977 0.074131168 255 255 255 255
0.7869885 -0.21519764 0.26466784 255 255 255 255
0.6983695 -0.37110841 0.89929241 255 255 255 255
0.61552757 -0.23913798 0.56157982 255 255 255 255
0.87624151 -0.24081251 0.26834476 255 255 255 255
0.75179577 -0.27292702 0.49762943 255 255 255 255
0.85635906 -0.21418777 0.20212074 255 255 255 255
0.50835484 -0.13701025 0.25418878 255 255 255 255
0.33793628 -0.065155543 0.67404395 255 255 255 255
0.3254202 -0.055286702 0.74817514 255 255 255 255
0.49126169 -0.10864334 0.12351713 255 255 255 255
0.86059242 -0.37662774 0.68180019 255 255 255 255
0.343894 -0.087225676 0.69024879 255 255 255 255
0.38017541 -0.16596366 0.78732568 255 255 255 255
0.3306593 -0.10684745 0.84459674 255 255 255 255
0.68182838 -0.14412087 0.096758172 255 255 255 255
0.92601442 -0.31923476 0.45105755 255 255 255 255
0.85480714 -0.47424966 0.95108247 255 255 255 255
0.33442226 -0.040691894 0.65354061 255 255 255 255
0.64727437 -0.24206597 0.52523285 255 255 255 255
0.46225831 -0.14883657 0.39614311 255 255 255 255
0.82582718 -0.32433307 0.57208908 255 255 255 255
0.88584828 -0.21059175 0.16863166 255 255 255 255
0.82868409 -0.21150598 0.2158993 255 255 255 255
0.41773707 -0.027581606 0.03983184 255 255 255 255
0.85708934 -0.29093337 0.43747228 255 255 255 255
0.62338573 -0.12045453 0.04681382 255 255 255 255
0.34518182 -0.058390476 0.60511553 255 255 255 255
0.72180641 -0.28656113 0.58266759 255 255 255 255
0.84005648 -0.26170748 0.3651835 255 255 255 255
0.53767639 -0.12974486 0.17832491 255 255 255 255
0.65285772 -0.26224098 0.59422117 255 255 255 255
0.95713842 -0.25437656 0.24416624 255 255 255 255
0.60853589 -0.14456704 0.16818821 255 255 255 255
0.43756893 -0.17172846 0.58521014 255 255 255 255
0.29950091 -0.024206629 0.91702038 255 255 255 255
0.60588461 -0.15104446 0.19991308 255 255 255 255
0.4950425 -0.2725198 0.94163424 255 255 255 255
0.35732326 -0.052765038 0.50430644 255 255 255 255
0.80560899 -0.17080475 0.098527573 255 255 255 255
0.56545824 -0.3232761 0.98784411 255 255 255 255
0.76773065 -0.14843269 0.047126431 255 255 255 255
0.64180392 -0.26904008 0.63715595 255 255 255 255
0.56565076 -0.15854402 0.28287223 255 255 255 255
0.31166691 -0.10584486 0.97850001 255 255 255 255
0.38639814 -0.087660193 0.4151451 255 255 255 255
0.42978418 -0.14217284 0.45690569 255 255 255 255
0.36913207 -0.12969677 0.68416786 255 255 255 255
0.35690981 -0.13385937 0.77305973 255 255 255 255
0.4082723 -0.11748963 0.42440486 255 255 255 255
0.58884054 -0.22573748 0.54873949 255 255 255 255
0.36419141 -0.082214348 0.53636086 255 255 255 255
0.69278616 -0.34367093 0.81923312 255 255 255 255
0.35131955 -0.11118226 0.72018522 255 255 255 255
0.5949288 -0.14328909 0.17709093 255 255 255 255
0.8204006 -0.19846594 0.17996751 255 255 255 255
0.45379114 -0.19534265 0.66499394 255 255 255 255
0.7122497 -0.38834652 0.93004769 255 255 255 255
0.84115547 -0.23309506 0.27443707 255 255 255 255
0.45687085 -0.15690738 0.45266163 255 255 255 255
0.39540136 -0.062279642 0.27238458 255 255 255 255
0.37518406 -0.091112435 0.49608758 255 255 255 255
0.52851295 -0.11388796 0.10802884 255 255 255 255
0.37283695 -0.013982499 0.33372718 255 255 255 255
0.43847197 -0.068624273 0.059424795 255 255 255 255
0.84096181 -0.15673518 0.027871752 255 255 255 255
0.42314723 -0.055731777 0.086088002 255 255 255 255
0.88159525 -0.38890499 0.69020444 255 255 255 255
0.72154677 -0.16443771 0.14191121 255 255 255 255
0.59169579 -0.25953352 0.6841768 255 255 255 255
0.54194534 -0.13141778 0.18153496 255 255 255 255
0.45217422 -0.070989937 0.012274282 255 255 255 255
0.59133065 -0.11959819 0.071699075 255 255 255 255
0.34519041 -0.10036335 0.72305858 255 255 255 255
0.43392822 -0.17675123 0.62285 255 255 255 255
0.83224648 -0.20905377 0.20502557 255 255 255 255
0.83873326 -0.31299084 0.52320546 255 255 255 255
0.59558076 -0.29608068 0.82166606 255 255 255 255
0.46664041 -0.19525294 0.63527697 255 255 255 255
0.78428149 -0.22821984 0.31122932 255 255 255 255
0.97069097 -0.19343278 0.063494481 255 255 255 255
0.96092981 -0.20594545 0.10482884 255 255 255 255
0.47556734 -0.082465269 0.002050682 255 255 255 255
0.40910602 -0.0090796435 0.073749758 255 255 255 255
0.74202406 -0.26402172 0.47931072 255 255 255 255
0.5905425 -0.33524647 0.97916228 255 255 255 255
0.45608076 -0.24118072 0.89351988 255 255 255 255
0.75388062 -0.40310752 0.90669304 255 255 255 255
0.38539967 -0.0074922061 0.23902977 255 255 255 255
0.46794301 -0.2434518 0.87430674 255 255 255 255
0.65760022 -0.21261936 0.39586893 255 255 255 255
0.41929072 -0.15736744 0.57372952 255 255 255 255
0.44310644 -0.18689303 0.64858335 255 255 255 255
0.82991499 -0.44301683 0.90468705 255 255 255 255
0.86786866 -0.16731304 0.045598019 255 255 255 255
0.86827993 -0.35781622 0.6198225 255 255 255 255
0.50075889 -0.16266268 0.39977354 255 255 255 255
0.4845365 -0.2350703 0.79400486 255 255 255 255
0.61305737 -0.3173416 0.86838943 255 255 255 255
0.30542499 -0.038828757 0.88234752 255 255 255 255
0.40506864 -0.026588641 0.12137729 255 255 255 255
0.53522635 -0.30793887 0.99568409 255 255 255 255
0.6376552 -0.25513524 0.59035385 255 255 255 255
0.94630575 -0.23891386 0.20846824 255 255 255 255
0.73662293 -0.26309678 0.48275036 255 255 255 255
0.67613643 -0.21025525 0.36369517 255 255 255 255
0.78197068 -0.26339957 0.43078107 255 255 255 255
0.54138619 -0.30029079 0.95079142 255 255 255 255
0.65611678 -0.35246617 0.9122355 255 255 255 255
0.76014662 -0.17762989 0.15763868 255 255 255 255
0.8086974 -0.24102254 0.32980281 255 255 255 255
0.37086499 -0.150557 0.76495308 255 255 255 255
0.62526774 -0.23930457 0.54715085 255 255 255 255
0.96094912 -0.18145995 0.034673959 255 255 255 255
0.35080189 -0.00033183373 0.49463812 255 255 255 255
0.88713473 -0.3751986 0.64625543 255 255 255 255
0.54409742 -0.12597661 0.15180835 255 255 255 255
0.3780815 -0.14640222 0.70801073 255 255 255 255
0.44561413 -0.092259891 0.14312945 255 255 255 255
0.46749547 -0.20581855 0.68809348 255 255 255 255
0.69362301 -0.30407071 0.68358523 255 255 255 255
0.44802895 -0.16360304 0.51169461 255 255 255 255
0.88900506 -0.44840497 0.83829534 255 255 255 255
0.79339945 -0.36413285 0.73264438 255 255 255 255
0.60318804 -0.34030819 0.97154689 255 255 255 255
0.38514948 -0.12091249 0.55736691 255 255 255 255
0.57587934 -0.25651762 0.70049638 255 255 255 255
0.44964507 -0.10972734 0.21978544 255 255 255 255
0.78073007 -0.23776542 0.34688583 255 255 255 255
0.6485737 -0.3465232 0.90574616 255 255 255 255
0.77547002 -0.16041414 0.084369577 255 255 255 255
0.85313404 -0.31952587 0.52662629 255 255 255 255
0.78372502 -0.19500101 0.19861093 255 255 255 255
0.78748697 -0.43388721 0.94268757 255 255 255 255
0.37189651 -0.066765197 0.43804732 255 255 255 255
0.47363755 -0.187387 0.5792712 255 255 255 255
0.65006137 -0.28327739 0.67730689 255 255 255 255
0.64252406 -0.23221965 0.49353796 255 255 255 255
0.83158207 -0.44222987 0.90018767 255 255 255 255
0.77626407 -0.21666445 0.27975222 255 255 255 255
0.56363636 -0.14729497 0.23227796 255 255 255 255
0.73378956 -0.19361955 0.23906571 255 255 255 255
0.41455495 -0.12596914 0.43625978 255 255 255 255
0.57911211 -0.23367855 0.59873277 255 255 255 255
0.56423563 -0.31849697 0.97218227 255 255 255 255
0.64752591 -0.21179853 0.4056173 255 255 255 255
0.66069198 -0.28502047 0.6667608 255 255 255 255
0.35783643 -0.072244532 0.54944468 255 255 255 255
0.75240582 -0.20317419 0.25556612 255 255 255 255
0.83790004 -0.16184665 0.046623591 255 255 255 255
0.61918086 -0.11177263 0.011633007 255 255 255 255
0.75411856 -0.15821774 0.092453524 255 255 255 255
0.51765347 -0.11433657 0.12276066 255 255 255 255
0.5353266 -0.16102569 0.33706161 255 255 255 255
0.37324747 -0.17567897 0.86691409 255 255 255 255
0.87061 -0.31391796 0.49139515 255 255 255 255
0.5507102 -0.29622108 0.91376626 255 255 255 255
0.53983927 -0.21350707 0.57894284 255 255 255 255
0.52406651 -0.24384668 0.7476213 255 255 255 255
0.38885149 -0.088695072 0.40450758 255 255 255 255
0.71488994 -0.33080083 0.74156922 255 255 255 255
0.32874915 -0.0043590982 0.66786671 255 255 255 255
0.80208665 -0.42202404 0.88757229 255 255 255 255
0.50073439 -0.11102489 0.12508044 255 255 255 255
0.66428542 -0.23792189 0.48528013 255 255 255 255
0.5460245 -0.28008065 0.85776693 255 255 255 255
0.57265073 -0.19638233 0.44643334 255 255 255 255
0.42649895 -0.085664213 0.19168748 255 255 255 255
0.89646977 -0.16623937 0.025273452 255 255 255 255
0.66824502 -0.24646446 0.51225793 255 255 255 255
0.57746303 -0.22067875 0.54572332 255 255 255 255
0.89386564 -0.32240179 0.49167457 255 255 255 255
0.71429759 -0.36297619 0.84688878 255 255 255 255
0.58047688 -0.25645664 0.69180012 255 255 255 255
0.67416757 -0.38226596 0.97770363 255 255 255 255
0.60022998 -0.23766585 0.58007437 255 255 255 255
0.71325994 -0.3428646 0.78368145 255 255 255 255
0.64563185 -0.24348572 0.53314263 255 255 255 255
0.29980034 -0.02667064 0.91646898 255 255 255 255
0.83535922 -0.3450188 0.62207651 255 255 255 255
0.31661743 -0.036941964 0.78896648 255 255 255 255
0.36805034 -0.19464312 0.98065394 255 255 255 255
0.44273055 -0.060951401 0.0059273886 255 255 255 255
0.74278754 -0.33637288 0.71817464 255 255 255 255
0.96292353 -0.22466363 0.15664884 255 255 255 255
0.71277565 -0.18631135 0.23243545 255 255 255 255
0.6870544 -0.16304544 0.16749786 255 255 255 255
0.61119688 -0.13777661 0.13516703 255 255 255 255
0.45703357 -0.19416776 0.65105486 255 255 255 255
0.70140582 -0.29974872 0.65698224 255 255 255 255
0.51620775 -0.27524841 0.9033547 255 255 255 255
0.52303046 -0.25537884 0.801238 255 255 255 255
0.33981931 -0.015955321 0.58487213 255 255 255 255
0.72000301 -0.23026012 0.38672522 255 255 255 255
0.57749832 -0.16373415 0.29146314 255 255 255 255
0.47785467 -0.13840219 0.30776128 255 255 255 255
0.86123151 -0.4808591 0.95881611 255 255 255 255
0.57752275 -0.21371742 0.5153721 255 255 255 255
0.67399788 -0.31404713 0.74915069 255 255 255 255
0.62434721 -0.24617893 0.57596123 255 255 255 255
0.69629693 -0.29681551 0.65437239 255 255 255 255
0.91375154 -0.33476177 0.50603998 255 255 255 255
0.4836604 -0.2738978 0.97614801 255 255 255 255
0.38628846 -0.17901777 0.82002538 255 255 255 255
0.94127667 -0.20402323 0.11148852 255 255 255 255
0.92948532 -0.25144818 0.25687799 255 255 255 255
0.77727556 -0.29533446 0.54024208 255 255 255 255
0.91511029 -0.16985351 0.025750078 255 255 255 255
0.66289049 -0.2149792 0.39840889 255 255 255 255
0.56168455 -0.099659882 0.003065032 255 255 255 255
0.63957936 -0.15219122 0.16924514 255 255 255 255
0.64731723 -0.19232874 0.32737809 255 255 255 255
0.38424832 -0.13637169 0.63058043 255 255 255 255
0.63004708 -0.21709163 0.45060581 255 255 255 255
0.52525991 -0.20013025 0.54287177 255 255 255 255
0.45802999 -0.19053192 0.62953347 255 255 255 255
0.7191121 -0.20899457 0.31026888 255 255 255 255
0.76653093 -0.42275533 0.94387549 255 255 255 255
0.57768488 -0.28077111 0.79605299 255 255 255 255
0.60219884 -0.1410659 0.15919469 255 255 255 255
0.33339062 -0.044851381 0.66805238 255 255 255 255
0.70206827 -0.26505876 0.53417611 255 255 255 255
0.32561401 -0.11735891 0.91474509 255 255 255 255
0.87079155 -0.45704803 0.8846705 255 255 255 255
0.48938429 -0.15782496 0.3937178 255 255 255 255
0.45864671 -0.11554112 0.22430335 255 255 255 255
0.44532412 -0.10100796 0.1888639 255 255 255 255
0.29045707 -0.0037205464 0.98491693 255 255 255 255
0.62485254 -0.25332436 0.60341758 255 255 255 255
0.5972352 -0.1676778 0.2841222 255 255 255 255
0.46101075 -0.082263574 0.039181624 255 255 255 255
0.3497315 -0.059073649 0.57335776 255 255 255 255
0.45843473 -0.22020002 0.78281903 255 255 255 255
0.39518172 -0.081624471 0.34071034 255 255 255 255
0.61940086 -0.28609449 0.73958486 255 255 255 255
0.54918444 -0.1286764 0.15933912 255 255 255 255
0.5109176 -0.27316785 0.90658444 255 255 255 255
0.59771991 -0.33209923 0.95284969 255 255 255 255
0.36568955 -0.10962018 0.62370443 255 255 255 255
0.5641914 -0.24248582 0.66288602 255 255 255 255
0.33313346 -0.0093585048 0.63424325 255 255 255 255
0.32787699 -0.1385977 0.97495359 255 255 255 255
0.46918049 -0.11587733 0.20033446 255 255 255 255
0.30649725 -0.07625138 0.93991935 255 255 255 255
0.35037929 -0.01700178 0.50397706 255 255 255 255
0.39472604 -0.044739418 0.2276466 255 255 255 255
0.78684419 -0.43227035 0.93915856 255 255 255 255
0.35711247 -0.080785364 0.5794608 255 255 255 255
0.76384169 -0.20248528 0.24234684 255 255 255 255
0.70978963 -0.20967683 0.3228755 255 255 255 255
0.4991293 -0.15690333 0.37253773 255 255 255 255
0.67680395 -0.16609237 0.18941465 255 255 255 255
0.40699244 -0.12444133 0.46312931 255 255 255 255
0.36994964 -0.19373427 0.9671064 255 255 255 255
0.48307222 -0.11948067 0.19475298 255 255 255 255
0.68688655 -0.16644487 0.18106185 255 255 255 255
0.58070523 -0.21275574 0.506078 255 255 255 255
0.30425188 -0.0021109835 0.8680051 255 255 255 255
0.72231722 -0.17765357 0.19088058 255 255 255 255
0.64473164 -0.30699584 0.77309769 255 255 255 255
0.42358685 -0.23092926 0.93325806 255 255 255 255
0.62813944 -0.16931015 0.25425652 255 255 255 255
0.59797335 -0.13680616 0.14432622 255 255 255 255
0.36945993 -0.17744809 0.89417833 255 255 255 255
0.50704974 -0.11596256 0.14410171 255 255 255 255
0.39894748 -0.053602442 0.22390613 255 255 255 255
0.60644686 -0.28124323 0.74398929 255 255 255 255
0.56403095 -0.23749994 0.6417399 255 255 255 255
0.7740643 -0.25631577 0.41606233 255 255 255 255
0.41084093 -0.13917479 0.51696551 255 255 255 255
0.55189204 -0.24437717 0.69418538 255 255 255 255
0.73536521 -0.40291402 0.93593901 255 255 255 255
0.8042534 -0.20559973 0.21700013 255 255 255 255
0.33584312 -0.06860052 0.69773185 255 255 255 255
0.53015518 -0.15967834 0.33809328 255 255 255 255
0.90434015 -0.2558409 0.28981945 255 255 255 255
0.93860716 -0.21103199 0.13356994 255 255 255 255
0.8138895 -0.46315539 0.98213273 255 255 255 255
0.76035815 -0.2406451 0.37810069 255 255 255 255
0.68750769 -0.2376437 0.45341039 255 255 255 255
0.96997839 -0.17762217 0.018850844 255 255 255 255
0.7927925 -0.30368906 0.54799807 255 255 255 255
0.84792906 -0.20003511 0.16369812 255 255 255 255
0.77116638 -0.38388029 0.82318723 255 255 255 255
0.42587966 -0.035694577 0.0073832595 255 255 255 255
0.56500971 -0.21939415 0.56106341 255 255 255 255
0.4114401 -0.13098297 0.47432876 255 255 255 255
0.77675956 -0.36963755 0.77242166 255 255 255 255
0.66782027 -0.24763381 0.5172618 255 255 255 255
0.75274897 -0.41049391 0.93024004 255 255 255 255
0.49429238 -0.19467293 0.57482934 255 255 255 255
0.52264142 -0.28160638 0.91581988 255 255 255 255
0.45377684 -0.16751634 0.51735353 255 255 255 255
0.38969967 -0.15320028 0.68105161 255 255 255 255
0.40602916 -0.14007221 0.5424816 255 255 255 255
0.81988376 -0.37953597 0.74200481 255 255 255 255
0.43277708 -0.051820181 0.019133739 255 255 255 255
0.95536935 -0.25476706 0.24657609 255 255 255 255
0.74701601 -0.15942214 0.10234424 255 255 255 255
0.33001852 -0.048936188 0.70100969 255 255 255 255
0.36424121 -0.010717842 0.39539689 255 255 255 255
0.88868695 -0.31021941 0.46214378 255 255 255 255
0.3388761 -0.026712222 0.60118079 255 255 255 255
0.48989639 -0.097889841 0.064998768 255 255 255 255
0.72689831 -0.23618963 0.40002152 255 255 255 255
0.68010831 -0.29774365 0.68216276 255 255 255 255
0.62166631 -0.15418431 0.1964651 255 255 255 255
0.31643486 -0.12062375 0.99036026 255 255 255 255
0.53800505 -0.11688688 0.11287904 255 255 255 255
0.48394033 -0.19807939 0.6129775 255 255 255 255
0.55552632 -0.29590026 0.90209651 255 255 255 255
0.67171139 -0.15973334 0.16882594 255 255 255 255
0.73139381 -0.34651631 0.76752198 255 255 255 255
0.36447462 -0.095274478 0.57845855 255 255 255 255
0.79786992 -0.34042519 0.65531844 255 255 255 255
0.72237146 -0.26135585 0.4945128 255 255 255 255
0.36683372 -0.044070434 0.41801542 255 255 255 255
0.89751846 -0.28924254 0.3931267 255 255 255 255
0.63106632 -0.29175434 0.7406013 255 255 255 255
0.57668972 -0.30863714 0.90775669 255 255 255 255
0.63999033 -0.21543849 0.43023294 255 255 255 255
0.50972229 -0.2714799 0.90199625 255 255 255 255
0.64464617 -0.18564934 0.30328408 255 255 255 255
0.39901417 -0.056767751 0.23282874 255 255 255 255
0.5797776 -0.10244459 0.0010262034 255 255 255 255
0.41856226 -0.095263101 0.27284905 255 255 255 255
0.65550309 -0.31098023 0.76901734 255 255 255 255
0.69501507 -0.1545516 0.12684812 255 255 255 255
0.77578473 -0.2720198 0.46613079 255 255 255 255
0.93399352 -0.18110727 0.048691515 255 255 255 255
0.89149189 -0.34646133 0.56188327 255 255 255 255
0.91916203 -0.37341091 0.60547596 255 255 255 255
0.33597034 -0.033625074 0.63172692 255 255 255 255
0.91027987 -0.33765092 0.51756877 255 255 255 255
0.76338696 -0.30172795 0.578318 255 255 255 255
0.74757624 -0.31478372 0.6417309 255 255 255 255
0.70014095 -0.40149274 0.99159628 255 255 255 255
0.52053404 -0.25662512 0.81217295 255 255 255 255
0.84290153 -0.2431051 0.30441672 255 255 255 255
0.32689852 -0.008325249 0.68361592 255 255 255 255
0.35166609 -0.028958226 0.50570881 255 255 255 255
0.64084643 -0.1268232 0.059708267 255 255 255 255
0.29458153 -0.035952043 0.96914464 255 255 255 255
0.55981135 -0.30776638 0.94002956 255 255 255 255
0.50466031 -0.28941876 0.99169672 255 255 255 255
0.92972392 -0.32012263 0.44998077 255 255 255 255
0.42118549 -0.13811274 0.46878886 255 255 255 255
0.51018405 -0.090728477 0.0041882005 255 255 255 255
0.35293353 -0.16869254 0.94346237 255 255 255 255
0.45690167 -0.097569473 0.13278709 255 255 255 255
0.32534885 -0.12969039 0.95943743 255 255 255 255
0.71055686 -0.30794844 0.67157191 255 255 255 255
0.379866 -0.013802306 0.28244659 255 255 255 255
0.53538215 -0.15081885 0.2866348 255 255 255 255
0.58203387 -0.12468693 0.10457493 255 255 255 255
0.6397118 -0.35508484 0.95166707 255 255 255 255
0.60737193 -0.32847407 0.92025298 255 255 255 255
0.70803964 -0.14143386 0.064819448 255 255 255 255
0.60174209 -0.23364489 0.56101167 255 255 255 255
0.80060691 -0.21458817 0.25022095 255 255 255 255
0.40910792 -0.17929108 0.72396886 255 255 255 255
0.48262841 -0.13478652 0.28018859 255 255 255 255
0.34365344 -0.12123942 0.80684519 255 255 255 255
0.83903128 -0.38311097 0.72709817 255 255 255 255
0.73930335 -0.1739492 0.16200934 255 255 255 255
0.71093017 -0.19570141 0.26954538 255 255 255 255
0.71361309 -0.19935484 0.28041145 255 255 255 255
0.48843554 -0.16583532 0.43767777 255 255 255 255
0.41502711 -0.21415043 0.8775121 255 255 255 255
0.6169343 -0.27065018 0.68435735 255 255 255 255
0.42993408 -0.19755235 0.74337769 255 255 255 255
0.32640815 -0.11622581 0.90538698 255 255 255 255
0.7185455 -0.23133713 0.39230323 255 255 255 255
0.49833575 -0.16432515 0.41249302 255 255 255 255
0.65401489 -0.19349635 0.32406688 255 255 255 255
0.88835931 -0.30641454 0.45152164 255 255 255 255
0.59560668 -0.14569834 0.18729267 255 255 255 255
0.30873704 -0.036225088 0.85206097 255 255 255 255
0.72257543 -0.19780959 0.26549917 255 255 255 255
0.82911158 -0.37913996 0.72869444 255 255 255 255
0.52525944 -0.21425547 0.60953742 255 255 255 255
0.76254666 -0.29591066 0.56045163 255 255 255 255
0.93093562 -0.2027328 0.11428319 255 255 255 255
0.49026886 -0.19269045 0.57281619 255 255 255 255
0.84517926 -0.3001188 0.47748452 255 255 255 255
0.71706557 -0.1811298 0.20881459 255 255 255 255
0.97171819 -0.18549539 0.040370531 255 255 255 255
0.43608725 -0.20314097 0.75343227 255 255 255 255
0.4627769 -0.24052174 0.87312579 255 255 255 255
0.56466538 -0.20818405 0.51191038 255 255 255 255
0.6371581 -0.21522884 0.43323573 255 255 255 255
0.3021481 -0.0511944 0.92656541 255 255 255 255
0.61010295 -0.22057535 0.49384212 255 255 255 255
0.5948357 -0.12643935 0.10001434 255 255 255 255
0.62370497 -0.25237486 0.60150677 255 255 255 255
0.78333473 -0.23761189 0.34371611 255 255 255 255
0.82673341 -0.16800655 0.074353598 255 255 255 255
0.68138695 -0.27394015 0.59508818 255 255 255 255
0.46920729 -0.13480534 0.30432335 255 255 255 255
0.93782717 -0.33718067 0.48876163 255 255 255 255
0.69544995 -0.33245093 0.77747679 255 255 255 255
0.39108124 -0.036252066 0.23346853 255 255 255 255
0.86066258 -0.33978242 0.57718462 255 255 255 255
0.82841682 -0.37699702 0.72346967 255 255 255 255
0.74996376 -0.27216977 0.49731857 255 255 255 255
0.36183307 -0.13624504 0.75379711 255 255 255 255
0.83608061 -0.23828129 0.29537219 255 255 255 255
0.59019709 -0.10631178 0.010557419 255 255 255 255
0.90811169 -0.29773647 0.40762082 255 255 255 255
0.82039434 -0.35689396 0.67551786 255 255 255 255
0.53195077 -0.12464648 0.15938008 255 255 255 255
0.31132656 -0.1098901 0.99322909 255 255 255 255
0.42383718 -0.090613373 0.22669762 255 255 255 255
0.65308881 -0.29461959 0.71404773 255 255 255 255
0.75158155 -0.13276084 0.00087510888 255 255 255 255
0.30526713 -0.0064397235 0.86012471 255 255 255 255
0.95150423 -0.17104921 0.0095525347 255 255 255 255
0.86386526 -0.26709726 0.35905051 255 255 255 255
0.88387007 -0.19631721 0.12613662 255 255 255 255
0.59274346 -0.13122168 0.12414135 255 255 255 255
0.90054685 -0.22415006 0.19885735 255 255 255 255
0.79473931 -0.30275407 0.54271108 255 255 255 255
0.52141863 -0.11271873 0.10991617 255 255 255 255
0.77778351 -0.39675483 0.85132831 255 255 255 255
0.82112896 -0.26477054 0.39358783 255 255 255 255
0.57188982 -0.15025564 0.23604578 255 255 255 255
0.39913747 -0.0045604394 0.14069149 255 255 255 255
0.66614676 -0.20985547 0.37429669 255 255 255 255
0.43770653 -0.09880928 0.20618385 255 255 255 255
0.76821148 -0.1376258 0.0078422083 255 255 255 255
0.30443347 -0.077190101 0.95832115 255 255 255 255
0.39820585 -0.018714873 0.15717849 255 255 255 255
0.67602283 -0.18949248 0.28292212 255 255 255 255
0.94750386 -0.26810029 0.28995448 255 255 255 255
0.62588185 -0.27477625 0.68512791 255 255 255 255
0.82114154 -0.41747749 0.8474645 255 255 255 255
0.95223182 -0.26402053 0.27484152 255 255 255 255
0.42407656 -0.2317979 0.93606126 255 255 255 255
0.62521142 -0.26139867 0.63448143 255 255 255 255
0.63178486 -0.28221568 0.70350593 255 255 255 255
0.85547328 -0.41572669 0.79589736 255 255 255 255
0.85871118 -0.35153678 0.6131537 255 255 255 255
0.73755699 -0.22230929 0.33867449 255 255 255 255
0.47960344 -0.27420214 0.9878881 255 255 255 255
0.67714 -0.13242115 0.053254355 255 255 255 255
0.35386297 -0.079845808 0.59890062 255 255 255 255
0.37935144 -0.0068305009 0.28244293 255 255 255 255
0.34273231 -0.0032320977 0.55728447 255 255 255 255
0.3270486 -0.03737117 0.70641398 255 255 255 255
0.38203079 -0.10156982 0.49446914 255 255 255 255
0.51674324 -0.13234021 0.21824746 255 255 255 255
0.3835054 -0.081133328 0.40907627 255 255 255 255
0.84601766 -0.29538649 0.46233064 255 255 255 255
0.61755943 -0.19942376 0.39482141 255 255 255 255
0.94529319 -0.30643812 0.39806354 255 255 255 255
0.52410156 -0.26023322 0.82029366 255 255 255 255
0.808483 -0.22456627 0.27616495 255 255 255 255
0.76217109 -0.33724356 0.69341564 255 255 255 255
0.65779263 -0.33401912 0.84604543 255 255 255 255
