ply
format ascii 1.0
comment PCL generated
element vertex 950
property float x
property float y
property float z
property uchar red
property uchar green
property uchar blue
property uchar alpha
element camera 0
property float view_px
property float view_py
property float view_pz
property float x_axisx
property float x_axisy
property float x_axisz
property float y_axisx
property float y_axisy
property float y_axisz
property float z_axisx
property float z_axisy
property float z_axisz
property float focal
property float scalex
property float scaley
property float centerx
property float centery
property int viewportx
property int viewporty
property float k1
property float k2
end_header
0.4362973 0.01830883 0.84931523 255 255 255 255
0.92012316 0.35630223 0.55840284 255 255 255 255
0.64380819 0.25161472 0.56733388 255 255 255 255
0.83371699 0.15480167 0.025934637 255 255 255 255
0.62444878 0.34712973 0.95347947 255 255 255 255
0.75558251 0.242521 0.38975936 255 255 255 255
0.90526748 0.19609384 0.11111268 255 255 255 255
0.81246245 0.2697486 0.41834345 255 255 255 255
0.79047006 0.45089826 0.98506033 255 255 255 255
0.56001449 0.14273776 0.21496092 255 255 255 255
0.61275387 0.11073305 0.012179021 255 255 255 255
0.38730872 0.10386739 0.77421129 255 255 255 255
0.48411664 0.0011211981 0.77421129 255 255 255 255
0.95189428 0.18300398 0.044123635 255 255 255 255
0.51050889 0.11323008 0.12528343 255 255 255 255
0.42975721 0.1284589 0.44735727 255 255 255 255
0.44402793 0.02156017 0.44735727 255 255 255 255
0.9375025 0.17026868 0.014691152 255 255 255 255
0.83483309 0.21732995 0.22958937 255 255 255 255
0.83255559 0.44503585 0.9063186 255 255 255 255
0.67586786 0.1817096 0.25241724 255 255 255 255
0.45582235 0.068849348 0.0551496 255 255 255 255
0.47556999 0.006586798 0.0551496 255 255 255 255
0.37649712 0.14912899 0.91122174 255 255 255 255
0.44716993 0.011640445 0.91122174 255 255 255 255
0.72401226 0.16082327 0.12618268 255 255 255 255
0.72548479 0.36723971 0.84242457 255 255 255 255
0.85973775 0.24762425 0.30338088 255 255 255 255
0.85508478 0.16266687 0.038547523 255 255 255 255
0.44623798 0.11808929 0.31137154 255 255 255 255
0.44607401 0.024665009 0.31137154 255 255 255 255
0.81323469 0.27720812 0.44113776 255 255 255 255
0.59563643 0.17143753 0.3028504 255 255 255 255
0.47405109 0.23860547 0.8358807 255 255 255 255
0.66564393 0.13044591 0.054385722 255 255 255 255
0.68078405 0.18422909 0.25711557 255 255 255 255
0.54013842 0.25149873 0.74837911 255 255 255 255
0.38269469 0.18479073 0.95342922 255 255 255 255
0.41716385 0.029920436 0.95342922 255 255 255 255
0.68331212 0.17065516 0.20112999 255 255 255 255
0.44765893 0.23151182 0.86731255 255 255 255 255
0.80999577 0.23966029 0.32411748 255 255 255 255
0.62091011 0.1225623 0.058307361 255 255 255 255
0.5392434 0.23698592 0.68622303 255 255 255 255
0.92060483 0.17729492 0.045043182 255 255 255 255
0.72865665 0.17897204 0.18998808 255 255 255 255
0.90286064 0.2242216 0.19735013 255 255 255 255
0.57039201 0.17490084 0.35236257 255 255 255 255
0.45026922 0.16111702 0.50077832 255 255 255 255
0.41958317 0.051925283 0.50077832 255 255 255 255
0.97108322 0.2374434 0.18700135 255 255 255 255
0.48544744 0.26177403 0.91677225 255 255 255 255
0.84404522 0.46116871 0.93256348 255 255 255 255
0.54059756 0.27868405 0.86358041 255 255 255 255
0.96913546 0.18421863 0.038134858 255 255 255 255
0.39617682 0.087544024 0.6896736 255 255 255 255
0.49600759 7.5688062e-05 0.6896736 255 255 255 255
0.87194908 0.35937721 0.61995995 255 255 255 255
0.51441717 0.21716106 0.6443513 255 255 255 255
0.79300779 0.16088806 0.073434696 255 255 255 255
0.67579263 0.21025436 0.36410493 255 255 255 255
0.43023324 0.063265428 0.29809397 255 255 255 255
0.4970825 6.0736256e-05 0.29809397 255 255 255 255
0.45544678 0.24108535 0.8946988 255 255 255 255
0.66958719 0.25050378 0.52558321 255 255 255 255
0.76425302 0.30659899 0.59297043 255 255 255 255
0.70207334 0.33245403 0.7669521 255 255 255 255
0.67190146 0.22962922 0.44341946 255 255 255 255
0.84965765 0.28367066 0.42311722 255 255 255 255
0.53824681 0.099198788 0.022121146 255 255 255 255
0.79772985 0.40714136 0.85193139 255 255 255 255
0.55221194 0.22110622 0.59106058 255 255 255 255
0.43808717 0.13345829 0.42120427 255 255 255 255
0.43839577 0.028359395 0.42120427 255 255 255 255
0.78744328 0.2493228 0.37844971 255 255 255 255
0.76509148 0.30017319 0.5710941 255 255 255 255
0.92807275 0.35107026 0.5360285 255 255 255 255
0.40463156 0.18643947 0.82366478 255 255 255 255
0.41116366 0.040536463 0.82366478 255 255 255 255
0.78738314 0.19327316 0.18956532 255 255 255 255
0.5165177 0.24107514 0.75099754 255 255 255 255
0.68733472 0.21915081 0.38422188 255 255 255 255
0.85988295 0.17146221 0.063848644 255 255 255 255
0.87944406 0.25540385 0.30970484 255 255 255 255
0.81336486 0.38706067 0.77243233 255 255 255 255
0.41670868 0.12081576 0.51061273 255 255 255 255
0.45417947 0.012681648 0.51061273 255 255 255 255
0.68263102 0.30733868 0.71192718 255 255 255 255
0.48823521 0.13370475 0.26575717 255 255 255 255
0.4457477 0.063622348 0.12707649 255 255 255 255
0.48544607 0.001962692 0.12707649 255 255 255 255
0.54916066 0.30414054 0.94894564 255 255 255 255
0.7573911 0.15259601 0.069560811 255 255 255 255
0.88158017 0.32238814 0.5043568 255 255 255 255
0.36951271 0.15099283 0.97757858 255 255 255 255
0.4482398 0.010581986 0.97757858 255 255 255 255
0.84107333 0.4297314 0.85319746 255 255 255 255
0.58181518 0.11353631 0.052101064 255 255 255 255
0.48225987 0.27049282 0.96437305 255 255 255 255
0.79311001 0.3595936 0.71946961 255 255 255 255
0.76007855 0.14599073 0.043628551 255 255 255 255
0.92762715 0.3404389 0.5076561 255 255 255 255
0.64045179 0.12736568 0.062379062 255 255 255 255
0.85478812 0.40605006 0.77045619 255 255 255 255
0.72407579 0.17634763 0.18439116 255 255 255 255
0.89848959 0.2253956 0.20413198 255 255 255 255
0.69058096 0.3102476 0.7096141 255 255 255 255
0.85951561 0.15903966 0.02415522 255 255 255 255
0.70675671 0.23124205 0.40587273 255 255 255 255
0.40499777 0.16658789 0.74492764 255 255 255 255
0.42463651 0.029730946 0.74492764 255 255 255 255
0.39479333 0.19340442 0.90704244 255 255 255 255
0.40837809 0.039819784 0.90704244 255 255 255 255
0.41312906 0.1283586 0.560036 255 255 255 255
0.44983014 0.014585848 0.560036 255 255 255 255
0.51140749 0.16646332 0.40150443 255 255 255 255
0.61715764 0.19982073 0.397035 255 255 255 255
0.52357662 0.15460831 0.32257402 255 255 255 255
0.86433077 0.27258143 0.3751778 255 255 255 255
0.38450012 0.19807249 0.98648548 255 255 255 255
0.40719593 0.037844565 0.98648548 255 255 255 255
0.74251676 0.22958648 0.35908151 255 255 255 255
0.62152404 0.24304487 0.5678907 255 255 255 255
0.78930491 0.17370321 0.12056526 255 255 255 255
0.41194984 0.078126498 0.50574404 255 255 255 255
0.49501505 0.00014021549 0.50574404 255 255 255 255
0.90646791 0.21435457 0.16522336 255 255 255 255
0.60548437 0.31583872 0.87739438 255 255 255 255
0.6073882 0.11232197 0.023856442 255 255 255 255
0.57300305 0.14521948 0.2110685 255 255 255 255
0.73435891 0.30447391 0.62597364 255 255 255 255
0.91015911 0.22374816 0.19056886 255 255 255 255
0.63065588 0.29516906 0.754062 255 255 255 255
0.72659403 0.40521896 0.95741278 255 255 255 255
0.85847598 0.43865353 0.85327834 255 255 255 255
0.39052111 0.16069289 0.82397556 255 255 255 255
0.43301791 0.020931296 0.82397556 255 255 255 255
0.83022159 0.3701143 0.70136994 255 255 255 255
0.8366428 0.46858916 0.96262163 255 255 255 255
0.78208178 0.34203276 0.68107533 255 255 255 255
0.6424126 0.14808059 0.14901742 255 255 255 255
0.67977047 0.35460821 0.87745953 255 255 255 255
0.60536355 0.26078677 0.66530341 255 255 255 255
0.89126945 0.41171622 0.73971361 255 255 255 255
0.66760743 0.21811721 0.40464896 255 255 255 255
0.80235559 0.44135395 0.9406997 255 255 255 255
0.84311873 0.40278661 0.77677 255 255 255 255
0.58473444 0.23549069 0.59680879 255 255 255 255
0.76523465 0.20298111 0.24278975 255 255 255 255
0.52831799 0.22112106 0.63555777 255 255 255 255
0.96064723 0.24346051 0.21106316 255 255 255 255
0.43420392 0.22248068 0.86007386 255 255 255 255
0.38586318 0.080889352 0.86007386 255 255 255 255
0.8979525 0.19462825 0.11147515 255 255 255 255
0.60493612 0.21287636 0.46934566 255 255 255 255
0.93641025 0.23319647 0.19920258 255 255 255 255
0.41474071 0.10611127 0.49049076 255 255 255 255
0.46681136 0.0065540387 0.49049076 255 255 255 255
0.85729367 0.49428999 0.99832344 255 255 255 255
0.94021738 0.25709555 0.26466313 255 255 255 255
0.67026746 0.28871056 0.66517228 255 255 255 255
0.69791943 0.34071946 0.80106562 255 255 255 255
0.59480256 0.11105226 0.028780626 255 255 255 255
0.45721984 0.11197894 0.23123804 255 255 255 255
0.44712624 0.027815238 0.23123804 255 255 255 255
0.55078465 0.13854629 0.20597225 255 255 255 255
0.78976488 0.2062977 0.23196764 255 255 255 255
0.78695518 0.38888985 0.81486076 255 255 255 255
0.87601632 0.26100305 0.32955316 255 255 255 255
0.9701826 0.21024212 0.11135738 255 255 255 255
0.77437788 0.17044175 0.12064833 255 255 255 255
0.50282359 0.24755307 0.81061101 255 255 255 255
0.85234416 0.33986843 0.5869711 255 255 255 255
0.79048479 0.21718645 0.26814929 255 255 255 255
0.9146291 0.38568312 0.64321512 255 255 255 255
0.8364287 0.24348673 0.31152138 255 255 255 255
0.71140343 0.26394668 0.51779938 255 255 255 255
0.81514108 0.1510531 0.0249172 255 255 255 255
0.66978478 0.35663339 0.90167511 255 255 255 255
0.4061121 0.15006869 0.67943537 255 255 255 255
0.4361088 0.021832163 0.67943537 255 255 255 255
0.47248715 0.19032983 0.59704155 255 255 255 255
0.57435441 0.27746019 0.78921735 255 255 255 255
0.4966099 0.2474227 0.8241781 255 255 255 255
0.86152142 0.2647464 0.35411233 255 255 255 255
0.80980915 0.36756212 0.72063494 255 255 255 255
0.80840266 0.23985207 0.32627788 255 255 255 255
0.43860403 0.055192169 0.20397745 255 255 255 255
0.4989785 8.4498943e-06 0.20397745 255 255 255 255
0.57811975 0.1705607 0.3218731 255 255 255 255
0.53095025 0.28709078 0.9200294 255 255 255 255
0.51948935 0.091703504 0.00055360189 255 255 255 255
0.82627785 0.33036742 0.58964092 255 255 255 255
0.45119759 0.14232902 0.40379009 255 255 255 255
0.43031567 0.041199565 0.40379009 255 255 255 255
0.95656461 0.17092238 0.006544922 255 255 255 255
0.81963629 0.22347817 0.262564 255 255 255 255
0.79432166 0.45402747 0.9875958 255 255 255 255
0.92627484 0.34722584 0.5274573 255 255 255 255
0.65867597 0.23282132 0.47334528 255 255 255 255
0.68387365 0.34672195 0.84424376 255 255 255 255
0.43400964 0.11779649 0.37975687 255 255 255 255
0.44996852 0.018349482 0.37975687 255 255 255 255
0.43451023 0.11937633 0.38277406 255 255 255 255
0.44871956 0.019341191 0.38277406 255 255 255 255
0.3990685 0.10996526 0.64533806 255 255 255 255
0.47146776 0.0041011213 0.64533806 255 255 255 255
0.41822317 0.23089625 0.95666623 255 255 255 255
0.38171148 0.076175205 0.95666623 255 255 255 255
0.68066698 0.21254043 0.36705714 255 255 255 255
0.64503765 0.3450523 0.90719116 255 255 255 255
0.86662579 0.22914581 0.24053578 255 255 255 255
0.60232598 0.26456356 0.68564171 255 255 255 255
0.68331963 0.18841687 0.27077651 255 255 255 255
0.63543731 0.33200493 0.87931424 255 255 255 255
0.56161964 0.13631962 0.18216586 255 255 255 255
0.88455075 0.34351641 0.56118721 255 255 255 255
0.70670587 0.39421508 0.95768392 255 255 255 255
0.46750343 0.092551611 0.093524814 255 255 255 255
0.45628646 0.023853704 0.093524814 255 255 255 255
0.95568776 0.24177399 0.20985299 255 255 255 255
0.52389461 0.21219902 0.60249943 255 255 255 255
0.70715117 0.34920523 0.81405354 255 255 255 255
0.8031165 0.43349174 0.91792434 255 255 255 255
0.73895991 0.34216404 0.74228853 255 255 255 255
0.44060144 0.17376462 0.59828138 255 255 255 255
0.41335899 0.053342052 0.59828138 255 255 255 255
0.8067835 0.290227 0.4892678 255 255 255 255
0.51712316 0.12366566 0.17246102 255 255 255 255
0.74638385 -0.31042713 0.62914127 255 255 255 255
0.6184777 -0.31027764 0.83209944 255 255 255 255
0.73249274 -0.30392793 0.62673372 255 255 255 255
0.62270314 -0.15282214 0.18944284 255 255 255 255
0.7993046 -0.209821 0.23542705 255 255 255 255
0.79585898 -0.37256974 0.75429773 255 255 255 255
0.46107876 -0.15798576 0.45129162 255 255 255 255
0.42038926 -0.057663973 0.45129162 255 255 255 255
0.50880611 -0.25538129 0.83265555 255 255 255 255
0.49863252 -0.20372516 0.61116713 255 255 255 255
0.40818003 -0.17446163 0.75596374 255 255 255 255
0.41847426 -0.035485253 0.75596374 255 255 255 255
0.82129425 -0.37390003 0.72388685 255 255 255 255
0.86239475 -0.24561216 0.29485428 255 255 255 255
0.93131346 -0.31305942 0.42899919 255 255 255 255
0.66374516 -0.21854709 0.41124162 255 255 255 255
0.91750193 -0.38207674 0.63041925 255 255 255 255
0.6411804 -0.19953004 0.36428541 255 255 255 255
0.77208728 -0.17205988 0.12815481 255 255 255 255
0.64206874 -0.17991556 0.28267631 255 255 255 255
0.54768777 -0.20957775 0.54699051 255 255 255 255
0.59961057 -0.26150879 0.67817563 255 255 255 255
0.82938981 -0.47798705 0.99776751 255 255 255 255
0.77057719 -0.29721868 0.55460411 255 255 255 255
0.86455899 -0.43057609 0.82373357 255 255 255 255
0.41136461 -0.10810471 0.52470982 255 255 255 255
0.46679875 -0.006318531 0.52470982 255 255 255 255
0.7344023 -0.21606129 0.31969461 255 255 255 255
0.66797578 -0.14709505 0.12094513 255 255 255 255
0.83413303 -0.37827802 0.71971095 255 255 255 255
0.83259797 -0.32818952 0.57565647 255 255 255 255
0.39485404 -0.21101895 0.97571146 255 255 255 255
0.39651969 -0.050230641 0.97571146 255 255 255 255
0.56336373 -0.18582313 0.41274607 255 255 255 255
0.43749139 -0.20162824 0.74624461 255 255 255 255
0.39753309 -0.069132484 0.74624461 255 255 255 255
0.70432508 -0.23495266 0.42239758 255 255 255 255
0.78871036 -0.33626238 0.65453571 255 255 255 255
0.5032559 -0.12402973 0.1922449 255 255 255 255
0.62302119 -0.29720369 0.77514166 255 255 255 255
0.55724365 -0.1503299 0.2548756 255 255 255 255
0.47952023 -0.10405806 0.11690757 255 255 255 255
0.44807509 -0.039057799 0.11690757 255 255 255 255
0.81480479 -0.25414172 0.36614817 255 255 255 255
0.80837399 -0.21563448 0.24679604 255 255 255 255
0.44183671 -0.052447554 0.16704091 255 255 255 255
0.49923024 -5.0677208e-06 0.16704091 255 255 255 255
0.4994964 -0.15448353 0.3592858 255 255 255 255
0.61359495 -0.16266389 0.2423785 255 255 255 255
0.66777927 -0.27826664 0.63108569 255 255 255 255
0.77624404 -0.4270511 0.94087094 255 255 255 255
0.59606647 -0.12690257 0.10094137 255 255 255 255
0.90555406 -0.38263837 0.64531499 255 255 255 255
0.61901134 -0.12390848 0.065969214 255 255 255 255
0.87347341 -0.22748142 0.22987294 255 255 255 255
0.56898206 -0.11180557 0.055851933 255 255 255 255
0.56083721 -0.15618467 0.27808583 255 255 255 255
0.50917953 -0.17068307 0.42658851 255 255 255 255
0.83148265 -0.23369469 0.28492171 255 255 255 255
0.6749379 -0.15821247 0.15962671 255 255 255 255
0.71656632 -0.40960363 0.98765749 255 255 255 255
0.44363397 -0.10615493 0.27494419 255 255 255 255
0.45463473 -0.017329987 0.27494419 255 255 255 255
0.46687189 -0.15308112 0.41042614 255 255 255 255
0.42272124 -0.058958344 0.41042614 255 255 255 255
0.73545843 -0.17411557 0.16596118 255 255 255 255
0.86373305 -0.34869596 0.59921628 255 255 255 255
0.61618942 -0.19078471 0.36017913 255 255 255 255
0.72837627 -0.26570529 0.50207633 255 255 255 255
0.62796271 -0.2085994 0.41878414 255 255 255 255
0.73084193 -0.25695717 0.46855977 255 255 255 255
0.54923582 -0.25703138 0.75393265 255 255 255 255
0.75644583 -0.1378914 0.01654659 255 255 255 255
0.56858319 -0.29305053 0.8633399 255 255 255 255
0.43415239 -0.11720385 0.37658775 255 255 255 255
0.4503288 -0.018132603 0.37658775 255 255 255 255
0.73103839 -0.25188127 0.45057663 255 255 255 255
0.84982318 -0.18327223 0.10849898 255 255 255 255
0.5466013 -0.18499687 0.43491799 255 255 255 255
0.84071845 -0.28063521 0.42296082 255 255 255 255
0.84329224 -0.31756109 0.53175098 255 255 255 255
0.62687725 -0.13837013 0.12236323 255 255 255 255
0.40791947 -0.14535494 0.65129006 255 255 255 255
0.43898571 -0.02029996 0.65129006 255 255 255 255
0.88674629 -0.32893425 0.51760459 255 255 255 255
0.75599134 -0.32722276 0.67024285 255 255 255 255
0.86097044 -0.1739943 0.071253933 255 255 255 255
0.6713739 -0.2468387 0.50932813 255 255 255 255
0.46902958 -0.12236767 0.24185231 255 255 255 255
0.4392159 -0.041785661 0.24185231 255 255 255 255
0.89112371 -0.27559718 0.35926148 255 255 255 255
0.93781996 -0.32137677 0.44579077 255 255 255 255
0.87751901 -0.45083228 0.85960943 255 255 255 255
0.49011046 -0.10663208 0.11372048 255 255 255 255
0.42599872 -0.12817648 0.46981725 255 255 255 255
0.44541818 -0.019704022 0.46981725 255 255 255 255
0.37582231 -0.10607407 0.91141474 255 255 255 255
0.48877406 -0.00050219439 0.91141474 255 255 255 255
0.67554379 -0.18405488 0.26202834 255 255 255 255
0.6536532 -0.31718728 0.79425633 255 255 255 255
0.76572686 -0.17564467 0.14595899 255 255 255 255
0.75420237 -0.15693817 0.087732434 255 255 255 255
0.62230885 -0.16617046 0.24752249 255 255 255 255
0.4758065 -0.25851533 0.92580652 255 255 255 255
0.5302434 -0.21414542 0.5995968 255 255 255 255
0.41285312 -0.13624883 0.58679366 255 255 255 255
0.44403663 -0.01800058 0.58679366 255 255 255 255
0.93815994 -0.28383893 0.34165579 255 255 255 255
0.36999074 -0.10445903 0.99100912 255 255 255 255
0.49425775 -0.00012389549 0.99100912 255 255 255 255
0.54619473 -0.21859634 0.59060597 255 255 255 255
0.7289058 -0.36665797 0.83517742 255 255 255 255
0.61777496 -0.25715095 0.62998438 255 255 255 255
0.4640837 -0.14073245 0.35250863 255 255 255 255
0.42961937 -0.049181696 0.35250863 255 255 255 255
0.68518519 -0.25988418 0.53856272 255 255 255 255
0.49270469 -0.26182443 0.89931405 255 255 255 255
0.94782776 -0.28576043 0.33887634 255 255 255 255
0.45393866 -0.11599704 0.26483551 255 255 255 255
0.44545093 -0.027994247 0.26483551 255 255 255 255
0.86351711 -0.31881461 0.51321924 255 255 255 255
0.80675149 -0.23086548 0.29846808 255 255 255 255
0.70581412 -0.17581406 0.19936888 255 255 255 255
0.8766647 -0.4454847 0.84688956 255 255 255 255
0.51871121 -0.27592805 0.9005357 255 255 255 255
0.60965788 -0.17161328 0.28607196 255 255 255 255
0.92428476 -0.18498126 0.065867051 255 255 255 255
0.37013832 -0.11646329 0.96420729 255 255 255 255
0.48088253 -0.0014064544 0.96420729 255 255 255 255
0.63667196 -0.16218723 0.21458422 255 255 255 255
0.93230468 -0.18766896 0.069065012 255 255 255 255
0.899782 -0.21774656 0.1801997 255 255 255 255
0.78642619 -0.45303178 0.9972347 255 255 255 255
0.88541752 -0.42142901 0.77264392 255 255 255 255
0.87840325 -0.40897527 0.74830955 255 255 255 255
0.59013218 -0.26971138 0.72810429 255 255 255 255
0.48953152 -0.24829647 0.84473449 255 255 255 255
0.88261068 -0.20890954 0.16582753 255 255 255 255
0.81741172 -0.17153962 0.092596777 255 255 255 255
0.5698052 -0.31084087 0.93067038 255 255 255 255
0.43585944 -0.079756245 0.24823178 255 255 255 255
0.47768059 -0.0039092773 0.24823178 255 255 255 255
0.92121845 -0.36834309 0.58968365 255 255 255 255
0.70380175 -0.24971141 0.47674355 255 255 255 255
0.819022 -0.42446291 0.86978567 255 255 255 255
0.97170472 -0.23222491 0.17204238 255 255 255 255
0.48841384 -0.18717402 0.54841226 255 255 255 255
0.44646358 -0.24086049 0.91731024 255 255 255 255
0.66414583 -0.35954994 0.92149365 255 255 255 255
0.85729587 -0.35328665 0.61981374 255 255 255 255
0.68751782 -0.36365649 0.89381033 255 255 255 255
0.39994526 -0.18374717 0.8399772 255 255 255 255
0.41393992 -0.036761947 0.8399772 255 255 255 255
0.42824137 -0.071523435 0.31672072 255 255 255 255
0.49003899 -0.00069471938 0.31672072 255 255 255 255
0.4433133 -0.096401952 0.23919879 255 255 255 255
0.46143454 -0.012709096 0.23919879 255 255 255 255
0.66996813 -0.32318622 0.78761107 255 255 255 255
0.83496368 -0.24276264 0.3105799 255 255 255 255
0.51724046 -0.16617711 0.39054912 255 255 255 255
0.48523527 -0.18194646 0.5277155 255 255 255 255
0.60595655 -0.26828223 0.6940484 255 255 255 255
0.46553445 -0.097803451 0.12744103 255 255 255 255
0.45366085 -0.025396178 0.12744103 255 255 255 255
0.56226051 -0.31615025 0.96741819 255 255 255 255
0.48776564 -0.18964988 0.56233782 255 255 255 255
0.65805799 -0.35420805 0.9145962 255 255 255 255
0.63223678 -0.18390885 0.31094879 255 255 255 255
0.45569685 -0.069401294 0.057910934 255 255 255 255
0.47523031 -0.0067469222 0.057910934 255 255 255 255
0.44329911 -0.17636694 0.60119039 255 255 255 255
0.41155627 -0.056744289 0.60119039 255 255 255 255
0.91253549 -0.23171602 0.21238655 255 255 255 255
0.67714769 -0.30065495 0.69706589 255 255 255 255
0.84902096 -0.48094037 0.97650111 255 255 255 255
0.60545307 -0.20492074 0.43494135 255 255 255 255
0.85971373 -0.20671046 0.17598119 255 255 255 255
0.39230508 -0.19337662 0.92169589 255 255 255 255
0.40889388 -0.03866148 0.92169589 255 255 255 255
0.53025228 -0.16381277 0.35838398 255 255 255 255
0.85769409 -0.33479759 0.56614983 255 255 255 255
0.37341219 -0.11693175 0.92502874 255 255 255 255
0.47858471 -0.0018187816 0.92502874 255 255 255 255
0.49023771 -0.17118281 0.46241736 255 255 255 255
0.73345536 -0.3263219 0.69923878 255 255 255 255
0.70770901 -0.23635735 0.42340234 255 255 255 255
0.7736311 -0.24884658 0.39154658 255 255 255 255
0.93163937 -0.31734502 0.44052106 255 255 255 255
0.48549411 -0.13756113 0.29098409 255 255 255 255
0.63754267 -0.36217868 0.98001379 255 255 255 255
0.52441466 -0.24684046 0.76031154 255 255 255 255
0.39918169 -0.100036 0.64004064 255 255 255 255
0.4808417 -0.0018369842 0.64004064 255 255 255 255
0.81560171 -0.19319279 0.16630632 255 255 255 255
0.54495388 -0.11926889 0.11725646 255 255 255 255
0.45373407 -0.052803129 0.033260517 255 255 255 255
0.48959419 -0.0011748421 0.033260517 255 255 255 255
0.4913612 -0.15950428 0.39921588 255 255 255 255
0.6749047 -0.14449802 0.10423292 255 255 255 255
0.89016318 -0.26401237 0.32598808 255 255 255 255
0.54319876 -0.26766431 0.81160194 255 255 255 255
0.84666312 -0.28846422 0.44071731 255 255 255 255
0.79468197 -0.16602232 0.090015888 255 255 255 255
0.91046113 -0.18052764 0.060761459 255 255 255 255
0.54322636 -0.2959542 0.92909563 255 255 255 255
0.86636591 -0.34267747 0.57902485 255 255 255 255
0.58891994 -0.16753104 0.29397759 255 255 255 255
0.4813928 -0.084768377 0.0077554625 255 255 255 255
0.45816952 -0.029462649 0.0077554625 255 255 255 255
0.48546004 -0.18138194 0.52435732 255 255 255 255
0.49826699 -0.22219738 0.70170122 255 255 255 255
0.51723719 -0.27204171 0.88710999 255 255 255 255
0.42114407 -0.1068635 0.43723014 255 255 255 255
0.46314591 -0.0086861718 0.43723014 255 255 255 255
0.85647768 -0.38781029 0.71804309 255 255 255 255
0.77208257 -0.23842782 0.35806397 255 255 255 255
0.68912292 -0.28419119 0.62055159 255 255 255 255
0.37281364 -0.14508544 0.93905675 255 255 255 255
0.4521223 -0.0092687411 0.93905675 255 255 255 255
0.63645208 -0.26773798 0.64075798 255 255 255 255
0.88451308 -0.17216294 0.050720934 255 255 255 255
0.85818833 -0.49538934 0.99978489 255 255 255 255
0.77964348 -0.21158376 0.25917637 255 255 255 255
0.61518323 -0.28501928 0.74293333 255 255 255 255
0.38026205 -0.10415579 0.85935915 255 255 255 255
0.48813617 -0.00058348157 0.85935915 255 255 255 255
0.5921796 -0.28548437 0.78691459 255 255 255 255
0.65335375 -0.3164857 0.79228157 255 255 255 255
0.57080227 -0.16249005 0.29450214 255 255 255 255
0.5247708 -0.095828742 0.017439689 255 255 255 255
0.59765893 -0.14599414 0.18635993 255 255 255 255
0.85882556 -0.35497144 0.62281919 255 255 255 255
0.79794025 -0.15670419 0.055534255 255 255 255 255
0.83237422 -0.16107401 0.047601387 255 255 255 255
0.79460943 -0.30157506 0.53915328 255 255 255 255
0.79928821 -0.42633504 0.90375829 255 255 255 255
0.64921319 -0.27215788 0.63720053 255 255 255 255
0.85884881 -0.48400277 0.97016782 255 255 255 255
0.9110142 -0.23746957 0.2304952 255 255 255 255
0.47640392 -0.19065264 0.59054261 255 255 255 255
0.59616083 -0.15826182 0.2433648 255 255 255 255
0.77989393 -0.37391317 0.78074855 255 255 255 255
0.84189224 -0.4431425 0.88803709 255 255 255 255
0.78234583 -0.35277566 0.71357924 255 255 255 255
0.66434193 -0.36439133 0.93723762 255 255 255 255
0.71708941 -0.17465599 0.18442841 255 255 255 255
0.36745614 -0.14221098 0.98820966 255 255 255 255
0.45693335 -0.007172999 0.98820966 255 255 255 255
0.55500668 -0.23813643 0.66113472 255 255 255 255
0.53869683 -0.16861907 0.36903974 255 255 255 255
0.70513123 -0.3758212 0.90283728 255 255 255 255
0.42858499 -0.12981474 0.45980471 255 255 255 255
0.44346264 -0.021682862 0.45980471 255 255 255 255
0.8150779 -0.20079105 0.1919511 255 255 255 255
0.75899214 -0.41956964 0.9466874 255 255 255 255
0.40414003 -0.096926302 0.58536983 255 255 255 255
0.48090789 -0.0019203721 0.58536983 255 255 255 255
0.4214026 -0.074672885 0.39450273 255 255 255 255
0.49175781 -0.00043278403 0.39450273 255 255 255 255
0.82064152 -0.45825502 0.95897299 255 255 255 255
0.72031534 -0.32596362 0.71740663 255 255 255 255
0.87168288 -0.46854463 0.91293997 255 255 255 255
0.45778391 -0.19988094 0.67937613 255 255 255 255
0.39790481 -0.082589321 0.67937613 255 255 255 255
0.58920097 -0.21200068 0.48946315 255 255 255 255
0.59857011 -0.22556689 0.53242803 255 255 255 255
0.49121344 -0.25032252 0.85017031 255 255 255 255
0.58099031 -0.11157347 0.043537214 255 255 255 255
0.42574447 -0.1809767 0.69390017 255 255 255 255
0.41101193 -0.048640735 0.69390017 255 255 255 255
0.87560266 -0.26330239 0.33682761 255 255 255 255
0.840002 -0.47093657 0.96383113 255 255 255 255
0.57083499 -0.19583301 0.44676289 255 255 255 255
0.85827541 -0.32882926 0.54816157 255 255 255 255
0.59003276 -0.14544661 0.19238362 255 255 255 255
0.38770735 -0.15662603 0.83403641 255 255 255 255
0.43705803 -0.018085942 0.83403641 255 255 255 255
0.51695234 -0.13122323 0.21215676 255 255 255 255
0.85927171 -0.28738701 0.42463651 255 255 255 255
0.45142937 -0.24013197 0.90050811 255 255 255 255
0.62543464 -0.25728682 0.61804682 255 255 255 255
0.86516279 -0.40407738 0.75175482 255 255 255 255
0.66435373 -0.26589 0.59062248 255 255 255 255
0.37506783 -0.10763019 0.91788256 255 255 255 255
0.4875212 -0.00061787246 0.91788256 255 255 255 255
0.90262711 -0.31646487 0.46604416 255 255 255 255
0.52319837 -0.094165288 0.010143463 255 255 255 255
0.43701193 -0.092043705 0.26967877 255 255 255 255
0.46731484 -0.008430725 0.26967877 255 255 255 255
0.88122302 -0.25797883 0.31587195 255 255 255 255
0.71445507 -0.17182256 0.17612623 255 255 255 255
0.88127923 -0.2670559 0.34292465 255 255 255 255
0.6095227 -0.28822762 0.76541322 255 255 255 255
0.40811184 -0.21741293 0.93727171 255 255 255 255
0.39069682 -0.061276209 0.93727171 255 255 255 255
0.60161322 -0.17755127 0.32213318 255 255 255 255
0.81400734 -0.35330835 0.67312849 255 255 255 255
0.95747828 -0.21296084 0.12697604 255 255 255 255
0.74010289 -0.30554768 0.62165171 255 255 255 255
0.49363589 -0.27602187 0.96061057 255 255 255 255
0.956402 -0.1894072 0.060099434 255 255 255 255
0.38636878 -0.19856901 0.97669584 255 255 255 255
0.40647045 -0.038938548 0.97669584 255 255 255 255
0.57261884 -0.21669121 0.53638577 255 255 255 255
0.66405541 -0.3330431 0.8317548 255 255 255 255
0.86345643 -0.41812754 0.79192603 255 255 255 255
0.89834744 -0.36770099 0.61298442 255 255 255 255
0.53222734 -0.24986513 0.75743401 255 255 255 255
0.86810821 -0.27935085 0.39188966 255 255 255 255
0.91535741 -0.24430946 0.24719657 255 255 255 255
0.76100403 -0.40672877 0.90614355 255 255 255 255
0.39681685 -0.18616825 0.86774719 255 255 255 255
0.41294083 -0.036670465 0.86774719 255 255 255 255
0.44169256 -0.067628145 0.17241032 255 255 255 255
0.48455414 -0.0020595149 0.17241032 255 255 255 255
0.82408816 -0.29787225 0.49363673 255 255 255 255
0.39545944 -0.20349926 0.94240212 255 255 255 255
0.40142262 -0.046012994 0.94240212 255 255 255 255
0.75067252 -0.28215709 0.5299927 255 255 255 255
0.87760097 -0.18435131 0.093161255 255 255 255 255
0.55711913 -0.1842556 0.4150281 255 255 255 255
0.47646573 -0.088476382 0.041184291 255 255 255 255
0.45685545 -0.027815901 0.041184291 255 255 255 255
0.60253197 -0.16296911 0.2567437 255 255 255 255
0.91293848 -0.28398719 0.36396587 255 255 255 255
0.53240216 -0.25203463 0.76662385 255 255 255 255
0.55821764 -0.24292363 0.675879 255 255 255 255
0.6258505 -0.14335173 0.14505579 255 255 255 255
0.57266319 -0.15788925 0.27070451 255 255 255 255
0.8563022 -0.31182179 0.50045276 255 255 255 255
0.54701191 -0.23055489 0.64272386 255 255 255 255
0.38413578 -0.1076749 0.80806482 255 255 255 255
0.48205751 -0.0013939097 0.80806482 255 255 255 255
0.46782506 -0.18543084 0.58108944 255 255 255 255
0.55434197 -0.28271815 0.85109442 255 255 255 255
0.75426638 -0.39805612 0.89111894 255 255 255 255
0.45674375 -0.23858042 0.87901741 255 255 255 255
0.80909938 -0.20678549 0.21682371 255 255 255 255
0.77603632 -0.21723551 0.2819252 255 255 255 255
0.88400805 -0.28487787 0.3930952 255 255 255 255
0.39021707 -0.097086988 0.7474407 255 255 255 255
0.48949322 -0.00050013565 0.7474407 255 255 255 255
0.56511444 -0.13718469 0.18224619 255 255 255 255
0.77599257 -0.28001991 0.4921087 255 255 255 255
0.84225494 -0.25928953 0.35555327 255 255 255 255
0.40031207 -0.1715325 0.7923767 255 255 255 255
0.42234427 -0.030274235 0.7923767 255 255 255 255
0.65149665 -0.21025029 0.39429358 255 255 255 255
0.4990128 -0.15506694 0.36312491 255 255 255 255
0.43665946 -0.2065794 0.77349418 255 255 255 255
0.39476007 -0.071846597 0.77349418 255 255 255 255
0.51116347 -0.21981026 0.66343242 255 255 255 255
0.39785966 -0.11544316 0.6629855 255 255 255 255
0.46713072 -0.005390537 0.6629855 255 255 255 255
0.38166976 -0.1559678 0.88064569 255 255 255 255
0.4396213 -0.01585833 0.88064569 255 255 255 255
0.52658117 -0.26037201 0.81552213 255 255 255 255
0.48710471 -0.13925311 0.29770669 255 255 255 255
0.78808594 -0.17669681 0.13186489 255 255 255 255
0.73093277 -0.33583114 0.73383397 255 255 255 255
0.46788567 -0.17408946 0.52047288 255 255 255 255
0.41155788 -0.073297091 0.52047288 255 255 255 255
0.58369482 -0.13667232 0.15892032 255 255 255 255
0.7062034 -0.24150547 0.44397596 255 255 255 255
0.55444318 -0.19419931 0.46516585 255 255 255 255
0.7015118 -0.29975942 0.6568628 255 255 255 255
0.61503088 -0.11841542 0.044906337 255 255 255 255
0.90953755 -0.20655856 0.13975047 255 255 255 255
0.61300117 -0.24520271 0.59007949 255 255 255 255
0.63968092 -0.21517713 0.42960063 255 255 255 255
0.70326054 -0.25795826 0.50716025 255 255 255 255
0.46849009 -0.15608919 0.42271021 255 255 255 255
0.42105204 -0.062127199 0.42271021 255 255 255 255
0.62020022 -0.12081626 0.051164035 255 255 255 255
0.4361544 -0.071331091 0.23210709 255 255 255 255
0.48482931 -0.0018170723 0.23210709 255 255 255 255
0.36920884 -0.16028762 0.99497962 255 255 255 255
0.44038352 -0.014050135 0.99497962 255 255 255 255
0.78305191 -0.18329059 0.1587079 255 255 255 255
0.62078911 -0.24083453 0.56018573 255 255 255 255
0.91720653 -0.35329372 0.55329543 255 255 255 255
0.70290971 -0.15938917 0.13880613 255 255 255 255
0.75731158 -0.14283815 0.034059953 255 255 255 255
0.49805808 -0.17885953 0.48769569 255 255 255 255
0.70141757 -0.16164599 0.1488792 255 255 255 255
0.55021602 -0.14808209 0.25316718 255 255 255 255
0.64513987 -0.25872672 0.5926373 255 255 255 255
0.3785767 -0.12198474 0.86499882 255 255 255 255
0.47080097 -0.0035630278 0.86499882 255 255 255 255
0.87929714 -0.25561529 0.3104682 255 255 255 255
0.43575749 -0.13198885 0.42721608 255 255 255 255
0.43994683 -0.026339814 0.42721608 255 255 255 255
0.79019135 -0.33076015 0.63566625 255 255 255 255
0.5794369 -0.2033608 0.46695882 255 255 255 255
0.50845104 -0.13948818 0.26705295 255 255 255 255
0.46368513 -0.23584972 0.8479901 255 255 255 255
0.46399167 -0.25974804 0.96203107 255 255 255 255
0.68573773 -0.19275467 0.28500959 255 255 255 255
0.38862836 -0.13684259 0.78157908 255 255 255 255
0.45277086 -0.010269046 0.78157908 255 255 255 255
0.53569764 -0.23789813 0.69727701 255 255 255 255
0.72147906 -0.21128853 0.31614587 255 255 255 255
0.58477145 -0.26874644 0.73411685 255 255 255 255
0.67699069 -0.2601428 0.55099726 255 255 255 255
0.61785877 -0.34775564 0.96862751 255 255 255 255
0.39320686 -0.1577412 0.79550362 255 255 255 255
0.4344255 -0.020523321 0.79550362 255 255 255 255
0.49658936 -0.12934396 0.22995737 255 255 255 255
0.66629022 -0.24181381 0.49735662 255 255 255 255
0.78517461 -0.21280764 0.25823426 255 255 255 255
0.93708521 -0.32654569 0.46059459 255 255 255 255
0.51402462 -0.28663525 0.95726633 255 255 255 255
0.90649974 -0.18851468 0.087386347 255 255 255 255
0.84889668 -0.24262953 0.29754314 255 255 255 255
0.89834523 -0.38389078 0.65692592 255 255 255 255
0.85505414 -0.22855745 0.24826919 255 255 255 255
0.48277128 -0.12280751 0.21376832 255 255 255 255
0.4381305 -0.052996546 0.21376832 255 255 255 255
0.61745727 -0.23076628 0.52462739 255 255 255 255
0.94167072 -0.27747208 0.32090515 255 255 255 255
0.62430561 -0.27710149 0.69671524 255 255 255 255
0.51789898 -0.26727557 0.86486006 255 255 255 255
0.39922073 -0.086116858 0.65331566 255 255 255 255
0.4954401 -0.00010194713 0.65331566 255 255 255 255
0.57807398 -0.31932363 0.94579613 255 255 255 255
0.72139388 -0.18252395 0.20993739 255 255 255 255
0.92074436 -0.23038913 0.20240675 255 255 255 255
0.58164555 -0.14985052 0.222353 255 255 255 255
0.69313622 -0.16331384 0.16289917 255 255 255 255
0.80202353 -0.34738514 0.6709584 255 255 255 255
0.8807596 -0.47253329 0.91069251 255 255 255 255
0.54205531 -0.1758424 0.39865151 255 255 255 255
0.39119229 -0.14366287 0.77388269 255 255 255 255
0.44613406 -0.013659975 0.77388269 255 255 255 255
0.42491761 -0.11365244 0.42719835 255 255 255 255
0.45629573 -0.012685666 0.42719835 255 255 255 255
0.82124257 -0.25830483 0.37299448 255 255 255 255
0.82405418 -0.27538699 0.42394415 255 255 255 255
0.61619967 -0.14867364 0.17823963 255 255 255 255
0.87660092 -0.44101131 0.83533114 255 255 255 255
0.49648526 -0.23065285 0.74591154 255 255 255 255
0.5704639 -0.24267495 0.65224332 255 255 255 255
0.61564183 -0.21394101 0.45813969 255 255 255 255
0.77103138 -0.34918955 0.71825606 255 255 255 255
0.81794745 -0.38124588 0.74951303 255 255 255 255
0.37057245 -0.15915594 0.98105294 255 255 255 255
0.44085878 -0.013966046 0.98105294 255 255 255 255
0.53465194 -0.12776494 0.1719918 255 255 255 255
0.51981539 -0.29143026 0.96384072 255 255 255 255
0.51375496 -0.09643171 0.031535722 255 255 255 255
0.77742511 -0.38349494 0.81282985 255 255 255 255
0.52477705 -0.19183587 0.50401169 255 255 255 255
0.42269295 -0.10282394 0.41431403 255 255 255 255
0.46564904 -0.0076999394 0.41431403 255 255 255 255
0.71704561 -0.37246072 0.87245375 255 255 255 255
0.87391722 -0.21700579 0.19726424 255 255 255 255
0.53765845 -0.25764528 0.78018421 255 255 255 255
0.73367918 -0.18157785 0.19503911 255 255 255 255
0.76104707 -0.21353859 0.28366691 255 255 255 255
0.44212738 -0.18544689 0.65030241 255 255 255 255
0.40644684 -0.06173351 0.65030241 255 255 255 255
0.86890244 -0.38027826 0.6818381 255 255 255 255
0.49036205 -0.24621581 0.83308482 255 255 255 255
0.5283069 -0.21532722 0.60874081 255 255 255 255
0.8363443 -0.45635673 0.93096882 255 255 255 255
0.89130795 -0.38882092 0.67842907 255 255 255 255
0.84571773 -0.29387403 0.458078 255 255 255 255
0.36725053 -0.14764653 0.99493527 255 255 255 255
0.45208851 -0.0088935969 0.99493527 255 255 255 255
0.69330138 -0.12227996 0.00012914743 255 255 255 255
0.73933339 -0.38422859 0.87303591 255 255 255 255
0.90525639 -0.23099138 0.21572627 255 255 255 255
0.73352945 -0.28549308 0.56331098 255 255 255 255
0.86592919 -0.33168826 0.54794985 255 255 255 255
0.4561168 -0.20653865 0.71809763 255 255 255 255
0.63972509 -0.25995019 0.60571033 255 255 255 255
0.43746591 -0.24424663 0.9587782 255 255 255 255
0.43524686 -0.22613734 0.87489522 255 255 255 255
0.38378659 -0.084111221 0.87489522 255 255 255 255
0.44310841 -0.22668087 0.85476947 255 255 255 255
0.3834267 -0.0900492 0.85476947 255 255 255 255
0.38450676 -0.15483604 0.85489863 255 255 255 255
0.43955401 -0.016258651 0.85489863 255 255 255 255
0.58603495 -0.31506002 0.91315269 255 255 255 255
0.68309444 -0.18876514 0.2723757 255 255 255 255
0.56802005 -0.25684237 0.71655589 255 255 255 255
0.48550621 -0.13409674 0.27200714 255 255 255 255
0.73856342 -0.3202295 0.67203975 255 255 255 255
0.55570203 -0.29854083 0.91230541 255 255 255 255
0.57425946 -0.16597526 0.30603048 255 255 255 255
0.42778164 -0.18282388 0.6933912 255 255 255 255
0.40958562 -0.05097115 0.6933912 255 255 255 255
0.69642013 -0.21024711 0.33994517 255 255 255 255
0.67898667 -0.24506316 0.49228862 255 255 255 255
0.70629776 -0.29204702 0.6232301 255 255 255 255
0.76922297 -0.19909002 0.22554253 255 255 255 255
0.41758335 -0.18919836 0.76858288 255 255 255 255
0.40712354 -0.048977546 0.76858288 255 255 255 255
0.93819988 -0.19074704 0.074613348 255 255 255 255
0.64719915 -0.29385552 0.72100186 255 255 255 255
0.53572029 -0.29446822 0.93980891 255 255 255 255
0.79253459 -0.16849835 0.10013809 255 255 255 255
0.72366095 -0.40154848 0.95126158 255 255 255 255
0.88767862 -0.3564274 0.59384102 255 255 255 255
0.80402797 -0.27706036 0.45067316 255 255 255 255
0.68065393 -0.20843166 0.35128877 255 255 255 255
0.66075867 -0.26230475 0.58259243 255 255 255 255
0.58975631 -0.29001188 0.80927956 255 255 255 255
0.58422625 -0.25240892 0.66831297 255 255 255 255
0.83788013 -0.17444898 0.08805608 255 255 255 255
0.761024 -0.24288328 0.38503268 255 255 255 255
0.89617378 -0.43541253 0.79565674 255 255 255 255
0.53508383 -0.28426501 0.89898092 255 255 255 255
0.63577795 -0.35172459 0.94761068 255 255 255 255
0.87733579 -0.21866187 0.19974639 255 255 255 255
0.91793483 -0.24594024 0.24994273 255 255 255 255
0.85880995 -0.43300688 0.83784854 255 255 255 255
0.51348311 -0.19359979 0.53290343 255 255 255 255
0.39196476 -0.1451413 0.77107453 255 255 255 255
0.44465929 -0.014511543 0.77107453 255 255 255 255
0.8971625 -0.29410285 0.40749466 255 255 255 255
0.42849222 -0.076086313 0.31544662 255 255 255 255
0.48546129 -0.0014906453 0.31544662 255 255 255 255
0.40678877 -0.17665452 0.77260292 255 255 255 255
0.41729632 -0.03603746 0.77260292 255 255 255 255
0.87048107 -0.17187963 0.058478951 255 255 255 255
0.65627652 -0.1702297 0.22706605 255 255 255 255
0.90307581 -0.42513376 0.76046377 255 255 255 255
0.86817634 -0.4492912 0.86810404 255 255 255 255
0.7719931 -0.2525157 0.40563527 255 255 255 255
0.88132173 -0.30838767 0.46428531 255 255 255 255
0.69054645 -0.3555308 0.86209345 255 255 255 255
0.85416436 -0.17901573 0.091836296 255 255 255 255
0.87469476 -0.43999252 0.83517486 255 255 255 255
0.81307632 -0.25804406 0.38038746 255 255 255 255
0.75358391 -0.21684879 0.30267629 255 255 255 255
0.55733162 -0.21023974 0.53338784 255 255 255 255
0.46132571 -0.12133685 0.26132402 255 255 255 255
0.44085169 -0.035719607 0.26132402 255 255 255 255
0.42127389 -0.11567407 0.46064946 255 255 255 255
0.45625043 -0.01218596 0.46064946 255 255 255 255
0.41742447 -0.088188872 0.43977374 255 255 255 255
0.48115474 -0.0021743446 0.43977374 255 255 255 255
0.58800817 -0.18143746 0.35741401 255 255 255 255
0.66422868 -0.15706505 0.16519625 255 255 255 255
0.76853764 -0.44153342 0.99389225 255 255 255 255
0.67581367 -0.3855468 0.98522234 255 255 255 255
0.55120945 -0.18330519 0.41972968 255 255 255 255
0.7834596 -0.14927708 0.039379589 255 255 255 255
0.79631108 -0.17858942 0.13203089 255 255 255 255
0.60242641 -0.17493944 0.30964211 255 255 255 255
0.61259139 -0.14931211 0.18490477 255 255 255 255
0.57006556 -0.30292824 0.89929074 255 255 255 255
0.3850255 -0.09268643 0.82413054 255 255 255 255
0.49796885 -1.7531856e-05 0.82413054 255 255 255 255
0.56216627 -0.26360768 0.756127 255 255 255 255
0.659998 -0.3562744 0.91803378 255 255 255 255
0.84799916 -0.31107715 0.50724435 255 255 255 255
0.86792195 -0.32556489 0.5280748 255 255 255 255
0.53429866 -0.19112684 0.48414561 255 255 255 255
0.78297806 -0.41108051 0.88502252 255 255 255 255
0.46314448 -0.22646599 0.80287331 255 255 255 255
0.48054475 -0.23231797 0.79006547 255 255 255 255
0.90218627 -0.24020983 0.24546447 255 255 255 255
0.40034321 -0.12064451 0.64731687 255 255 255 255
0.46139809 -0.0076284194 0.64731687 255 255 255 255
0.83137691 -0.32425752 0.56535065 255 255 255 255
0.90144485 -0.30843821 0.44444421 255 255 255 255
0.36938399 -0.15707016 0.98790276 255 255 255 255
0.44304642 -0.012828114 0.98790276 255 255 255 255
0.67017967 -0.3239139 0.78977966 255 255 255 255
0.44414169 -0.092400134 0.21908966 255 255 255 255
0.46392232 -0.011334677 0.21908966 255 255 255 255
0.64892799 -0.11505695 0.0027116681 255 255 255 255
0.74641353 -0.26713768 0.48460177 255 255 255 255
0.70882154 -0.17483923 0.19280456 255 255 255 255
0.55007118 -0.25100526 0.72639418 255 255 255 255
0.62687123 -0.14496002 0.15102126 255 255 255 255
0.55010003 -0.1548143 0.28590801 255 255 255 255
0.64121938 -0.11333729 0.0011828211 255 255 255 255
0.57083619 -0.26786107 0.75690025 255 255 255 255
0.85894215 -0.44532776 0.87024832 255 255 255 255
0.78785771 -0.37595135 0.7754814 255 255 255 255
0.88698447 -0.4400619 0.8193754 255 255 255 255
0.46056005 -0.14634812 0.39213136 255 255 255 255
0.42684504 -0.050049193 0.39213136 255 255 255 255
0.63455862 -0.23293126 0.50784886 255 255 255 255
0.60511392 -0.18849301 0.36509067 255 255 255 255
0.48540044 -0.17537934 0.49326104 255 255 255 255
0.75067049 -0.20880188 0.27720565 255 255 255 255
0.47088829 -0.093886599 0.087581515 255 255 255 255
0.45481277 -0.026841588 0.087581515 255 255 255 255
0.57271385 -0.24238427 0.64695388 255 255 255 255
0.95416957 -0.28598493 0.33422971 255 255 255 255
0.91063315 -0.3764804 0.6230762 255 255 255 255
0.72416884 -0.19850235 0.26644313 255 255 255 255
0.66724753 -0.3632232 0.92810625 255 255 255 255
0.54518557 -0.16763252 0.35457537 255 255 255 255
0.40823549 -0.076558381 0.55670267 255 255 255 255
0.49960449 -8.3949999e-07 0.55670267 255 255 255 255
0.88233763 -0.4655709 0.89093238 255 255 255 255
0.78556293 -0.388367 0.81534481 255 255 255 255
0.57909608 -0.33024156 0.98474234 255 255 255 255
0.53017402 -0.22315939 0.64135325 255 255 255 255
0.91832459 -0.17931385 0.052433375 255 255 255 255
0.71681678 -0.36261448 0.84166884 255 255 255 255
0.53450853 -0.27559072 0.86377364 255 255 255 255
0.45033461 -0.055105109 0.07030917 255 255 255 255
0.48991895 -0.0010282104 0.07030917 255 255 255 255
0.60642397 -0.20287944 0.42488453 255 255 255 255
0.6268838 -0.15540732 0.19615948 255 255 255 255
0.58882135 -0.2907958 0.81414813 255 255 255 255
0.82090092 -0.28229678 0.44887015 255 255 255 255
0.84755391 -0.1766379 0.088622294 255 255 255 255
0.8668043 -0.39459899 0.72383267 255 255 255 255
0.74931574 -0.26303455 0.46713781 255 255 255 255
0.59734887 -0.10995337 0.021481488 255 255 255 255
0.64023334 -0.16415207 0.21902639 255 255 255 255
0.62016708 -0.17884561 0.30433303 255 255 255 255
0.83918512 -0.30300957 0.49267167 255 255 255 255
0.82708681 -0.21981712 0.24417946 255 255 255 255
0.83063596 -0.3197085 0.55257589 255 255 255 255
0.63985735 -0.33206427 0.87138915 255 255 255 255
0.66429007 -0.32486811 0.80303705 255 255 255 255
0.73382968 -0.38163191 0.87384605 255 255 255 255
0.88464004 -0.3791537 0.65999049 255 255 255 255
0.4499546 -0.05131473 0.071752608 255 255 255 255
0.49376687 -0.00038955972 0.071752608 255 255 255 255
0.36948887 -0.13569008 0.96396697 255 255 255 255
0.46209952 -0.0056198933 0.96396697 255 255 255 255
0.45371407 -0.12734731 0.32038334 255 255 255 255
0.43869868 -0.03415861 0.32038334 255 255 255 255
0.58795017 -0.12116987 0.082248688 255 255 255 255
0.74180681 -0.30782512 0.62684119 255 255 255 255
0.57594025 -0.11893803 0.083409294 255 255 255 255
0.80046171 -0.28839365 0.49066436 255 255 255 255
0.46853215 -0.16968834 0.49553689 255 255 255 255
0.413867 -0.070931427 0.49553689 255 255 255 255
0.4011856 -0.15860897 0.74167621 255 255 255 255
0.4313643 -0.024015998 0.74167621 255 255 255 255
0.83787727 -0.25360283 0.34198236 255 255 255 255
0.64994001 -0.3648127 0.96527946 255 255 255 255
0.62085801 -0.16443893 0.24173003 255 255 255 255
0.38119328 -0.18857765 0.97580177 255 255 255 255
0.4147476 -0.031311836 0.97580177 255 255 255 255
0.59887391 -0.31820583 0.89917558 255 255 255 255
0.87765318 -0.44181213 0.83603823 255 255 255 255
0.57080209 -0.15912521 0.27885631 255 255 255 255
0.44104674 -0.1831179 0.64254361 255 255 255 255
0.40787894 -0.059520986 0.64254361 255 255 255 255
0.81430441 -0.41472098 0.84947538 255 255 255 255
0.87405884 -0.31582093 0.49330753 255 255 255 255
0.68234766 -0.29118845 0.65550613 255 255 255 255
0.97630161 -0.2044957 0.091505922 255 255 255 255
0.62185562 -0.31932366 0.85902786 255 255 255 255
0.74470443 -0.30627358 0.61779147 255 255 255 255
0.53806126 -0.26634923 0.81680864 255 255 255 255
0.53530121 -0.15812081 0.32282171 255 255 255 255
0.5843209 -0.14347655 0.18978532 255 255 255 255
0.81094843 -0.1874409 0.1507335 255 255 255 255
0.56520981 -0.30913594 0.933801 255 255 255 255
0.54553109 -0.22288719 0.61117059 255 255 255 255
0.66933024 -0.2138958 0.38610813 255 255 255 255
0.82652336 -0.24627468 0.32960969 255 255 255 255
0.63053828 -0.21447666 0.4392831 255 255 255 255
0.3971442 -0.16627127 0.79472202 255 255 255 255
0.42693737 -0.026207093 0.79472202 255 255 255 255
0.93020022 -0.2281435 0.18902515 255 255 255 255
0.69944501 -0.36876577 0.88996881 255 255 255 255
0.70606494 -0.15227044 0.10850281 255 255 255 255
0.81971759 -0.38031775 0.74447525 255 255 255 255
0.83862734 -0.37969458 0.71794921 255 255 255 255
0.91152322 -0.21231773 0.15559518 255 255 255 255
0.81967407 -0.45976534 0.96443027 255 255 255 255
0.91506588 -0.17154804 0.030901659 255 255 255 255
0.85706836 -0.49285296 0.99504226 255 255 255 255
0.70368242 -0.34960979 0.8209759 255 255 255 255
0.53151304 -0.11242865 0.097173765 255 255 255 255
0.5044058 -0.21925431 0.67467731 255 255 255 255
0.54541999 -0.23842365 0.6805976 255 255 255 255
0.36615825 -0.13176647 0.99875444 255 255 255 255
0.46740779 -0.0040284409 0.99875444 255 255 255 255
0.48253179 -0.11007567 0.14384611 255 255 255 255
0.44472778 -0.045082152 0.14384611 255 255 255 255
0.37699148 -0.13684031 0.88967693 255 255 255 255
0.4577083 -0.0074536521 0.88967693 255 255 255 255
0.37711984 -0.13277076 0.88471925 255 255 255 255
0.46134523 -0.0062185829 0.88471925 255 255 255 255
0.55334353 -0.15176894 0.26688439 255 255 255 255
0.56496274 -0.22408217 0.58174247 255 255 255 255
0.48642671 -0.2444391 0.83402187 255 255 255 255
0.4216575 -0.23749013 0.97529727 255 255 255 255
0.37771523 -0.082855158 0.97529727 255 255 255 255
0.45214784 -0.12475072 0.31440729 255 255 255 255
0.44055989 -0.031719536 0.31440729 255 255 255 255
0.82371801 -0.35837391 0.67561752 255 255 255 255
0.43078098 -0.14628132 0.51504177 255 255 255 255
0.43192601 -0.031385582 0.51504177 255 255 255 255
0.87295717 -0.18199542 0.088821217 255 255 255 255
0.83322668 -0.39670211 0.772964 255 255 255 255
0.85753304 -0.3679311 0.66110599 255 255 255 255
0.47144642 -0.22184092 0.75997537 255 255 255 255
0.54812115 -0.19919549 0.49859536 255 255 255 255
0.7626431 -0.28168926 0.51360869 255 255 255 255
0.60751176 -0.33021194 0.92631066 255 255 255 255
0.95458096 -0.2646769 0.27485564 255 255 255 255
0.66672611 -0.2468991 0.51601881 255 255 255 255
0.8079806 -0.15588965 0.046015691 255 255 255 255
0.93412989 -0.29348329 0.37207925 255 255 255 255
0.91556931 -0.2002622 0.11689889 255 255 255 255
0.76304728 -0.32620063 0.65732878 255 255 255 255
0.80359554 -0.32773873 0.6093809 255 255 255 255
0.52760065 -0.28296936 0.91030514 255 255 255 255
0.84350318 -0.46410456 0.9410032 255 255 255 255
0.54752314 -0.24290873 0.6962238 255 255 255 255
0.46778268 -0.11290814 0.19614169 255 255 255 255
0.44461992 -0.035355907 0.19614169 255 255 255 255
0.45495126 -0.22813593 0.831577 255 255 255 255
0.97306359 -0.18401626 0.035437658 255 255 255 255
0.43311638 -0.1645622 0.58544868 255 255 255 255
0.41994449 -0.043121248 0.58544868 255 255 255 255
